# .PCD v0.7 - Point Cloud Data file format
VERSION 0.7
FIELDS x y z rgb
SIZE 4 4 4 4
TYPE F F F F
COUNT 1 1 1 1
WIDTH 756
HEIGHT 1
VIEWPOINT 0 0 0 1 0 0 0
POINTS 756
DATA ascii
-73.529686 269.17825 58.316647 2.3418052e-038
-28.035702 270.57895 76.460999 9.1476764e-041
12.365245 262.54755 63.062748 3.5733111e-043
47.123081 263.3027 23.561541 2.3509528e-038
-89.274803 282.91721 -6.6622992 2.3418409e-038
-32.520554 272.80508 79.043861 9.1476764e-041
-27.69602 269.74701 78.157799 9.1476764e-041
-23.091717 270.02362 78.237938 9.1476764e-041
-21.74227 270.50119 78.376312 9.1476764e-041
-33.386467 274.75974 74.896255 9.1476764e-041
-32.839485 274.04913 74.702553 9.1476764e-041
-27.790424 270.66644 73.780472 9.1476764e-041
-23.166275 270.89545 73.842888 9.1476764e-041
-20.654785 272.05719 74.159561 9.1476764e-041
-32.929264 273.26343 69.800095 9.1476764e-041
-32.720806 273.05878 69.747818 9.1476764e-041
-27.813198 270.88828 69.193405 9.1476764e-041
-23.208265 271.38647 69.320663 9.1476764e-041
-19.840034 273.32053 69.814682 9.1476764e-041
9.8919983 261.66492 66.837471 3.5733111e-043
13.534693 261.61316 66.824249 3.5733111e-043
14.916722 261.93054 66.905319 3.5733111e-043
-76.613159 270.19797 64.381401 2.3418052e-038
-74.186859 270.51779 64.457603 2.3418052e-038
-72.895332 271.33405 64.6521 2.3418052e-038
-32.099327 271.91611 64.790794 9.1476764e-041
-27.834015 271.091 64.594185 9.1476764e-041
-23.232061 271.66473 64.730888 9.1476764e-041
-19.170265 274.03662 65.296051 9.1476764e-041
7.0063152 263.5097 62.78775 3.5733111e-043
9.0842333 262.71005 62.597214 3.5733111e-043
13.577023 262.43137 62.530807 3.5733111e-043
16.929813 263.73468 62.841354 3.5733111e-043
-78.554268 270.3631 59.78223 2.3418052e-038
-73.915199 269.52719 59.597397 2.3418052e-038
-69.939438 272.04938 60.155094 2.3418052e-038
-69.049797 273.32574 60.437325 2.3418052e-038
-31.640165 272.07306 60.160332 9.1476764e-041
-27.876278 271.50266 60.034203 9.1476764e-041
-23.252018 271.8981 60.121643 9.1476764e-041
-18.754124 274.34024 60.661648 9.1476764e-041
-18.734697 274.36673 60.667507 9.1476764e-041
5.6480885 265.75473 58.763237 3.5733111e-043
9.1345596 264.1655 58.411827 3.5733111e-043
13.658172 263.99988 58.375206 3.5733111e-043
17.153093 265.35803 58.675518 3.5733111e-043
-78.241875 270.15643 55.101566 2.3418052e-038
-73.824097 269.19501 54.905476 2.3418052e-038
-69.388779 269.90741 55.050774 2.3418052e-038
-66.052406 272.34723 55.548409 2.3418052e-038
-31.487339 272.61456 55.602932 9.1476764e-041
-27.924255 271.96991 55.471447 9.1476764e-041
-23.272179 272.13385 55.504883 9.1476764e-041
-18.744661 274.20184 55.926674 9.1476764e-041
-18.280315 274.78677 56.045975 9.1476764e-041
4.7681265 267.51816 54.563457 3.5733111e-043
9.1794577 265.46393 54.14447 3.5733111e-043
13.752385 265.82095 54.217293 3.5733111e-043
16.829733 267.41376 54.542164 3.5733111e-043
-77.394814 270.79825 50.586487 2.3418052e-038
-74.010757 269.87564 50.414143 2.3418052e-038
-69.273567 269.45929 50.336365 2.3418052e-038
-65.090279 271.29199 50.678726 2.3418052e-038
-63.777714 272.99832 50.997478 2.3418052e-038
-31.481304 273.06641 51.010193 9.1476764e-041
-27.962776 272.34509 50.875446 9.1476764e-041
-23.284559 272.27863 50.863033 9.1476764e-041
-18.745962 274.22089 51.225857 9.1476764e-041
-17.629597 275.53827 51.471947 9.1476764e-041
3.9735377 268.32974 50.125359 3.5733111e-043
4.6659141 267.81317 50.028866 3.5733111e-043
9.1987829 266.02277 49.694408 3.5733111e-043
13.816595 267.06207 49.88855 3.5733111e-043
16.190285 268.71027 50.196442 3.5733111e-043
-76.154808 271.41095 46.044445 2.3418052e-038
-74.28006 270.85764 45.950577 2.3418052e-038
-69.485184 270.28241 45.852993 2.3418052e-038
-65.16552 271.60562 46.077473 2.3418052e-038
-61.78397 275.10303 46.670807 2.3418052e-038
-31.557947 273.76398 46.443638 9.1476764e-041
-28.022013 272.92203 46.300804 9.1476764e-041
-23.307903 272.55161 46.237957 9.1476764e-041
-18.736673 274.08502 46.498096 9.1476764e-041
-16.949209 275.71716 46.77499 9.1476764e-041
3.0044708 269.03436 45.641262 3.5733111e-043
4.6659207 267.81357 45.434158 3.5733111e-043
9.2173491 266.55969 45.221439 3.5733111e-043
13.875333 268.19742 45.499275 3.5733111e-043
15.469682 269.34262 45.693562 3.5733111e-043
-74.813049 272.38721 41.536827 2.3418052e-038
-74.686363 272.3392 41.529503 2.3418052e-038
-69.812607 271.55603 41.410076 2.3418052e-038
-65.291351 272.13007 41.497616 2.3418052e-038
-61.128883 274.40311 41.844234 2.3418052e-038
-59.454411 276.57306 42.175133 2.3418052e-038
-31.713932 275.11905 41.953407 2.3509886e-038
-28.147627 274.14545 41.804943 9.1476764e-041
-23.366869 273.24109 41.667038 9.1476764e-041
-18.719587 273.83505 41.757614 9.1476764e-041
-16.44376 275.13425 41.955723 9.1476764e-041
1.6772028 269.68008 41.124012 3.5733111e-043
4.6665187 267.8479 40.84462 3.5733111e-043
9.2528276 267.58569 40.804634 3.5733111e-043
13.985993 270.3364 41.224091 3.5733111e-043
14.964511 271.19595 41.355171 3.5733111e-043
-73.336548 273.38635 36.998802 2.3418052e-038
-70.07338 272.57037 36.888367 2.3418052e-038
-65.302765 272.17764 36.835217 2.3418052e-038
-60.806244 272.9548 36.940392 2.3418052e-038
-56.77581 276.12845 37.3699 2.3418052e-038
-56.662334 276.29294 37.392162 2.3418052e-038
-31.99131 277.52545 37.558964 9.1476764e-041
-28.351868 276.13467 37.370743 9.1476764e-041
-23.479168 274.55429 37.15686 9.1476764e-041
-18.753799 274.33551 37.127254 9.1476764e-041
-16.24897 275.24493 37.250328 9.1476764e-041
0.056775175 269.45093 36.466198 3.5733111e-043
0.071586005 269.44113 36.46487 3.5733111e-043
4.6565814 267.2775 36.172058 3.5733111e-043
9.2626553 267.86993 36.252232 3.5733111e-043
14.065065 271.86478 36.792873 3.5733111e-043
14.653627 272.59708 36.891983 3.5733111e-043
-71.942451 274.64835 32.457554 2.3418052e-038
-70.456215 274.05951 32.387966 2.3418052e-038
-65.450493 272.79333 32.238331 2.3418052e-038
-60.746807 272.68796 32.22588 2.3418052e-038
-56.429596 274.44464 32.433479 2.3418052e-038
-54.170353 277.15683 32.754005 2.3418052e-038
-32.355659 280.68445 33.170891 2.3509886e-038
-28.594791 278.50064 32.912811 9.1476764e-041
-23.63884 276.42139 32.667091 9.1476764e-041
-18.867701 276.00171 32.617493 9.1476764e-041
-16.171583 276.71408 32.701683 9.1476764e-041
-1.5809177 269.39224 31.836397 2.3509886e-038
0.071311109 268.40643 31.719893 3.5733111e-043
4.6486626 266.823 31.532764 3.5733111e-043
9.2560368 267.67853 31.633873 3.5733111e-043
14.084523 272.24088 32.173046 3.5733111e-043
14.305384 272.57822 32.21291 3.5733111e-043
-70.854492 277.13574 27.996798 2.3418052e-038
-65.918373 274.74344 27.755123 2.3418052e-038
-61.018829 273.90906 27.670832 2.3418052e-038
-56.471764 274.64975 27.745657 2.3418052e-038
-52.348804 277.77563 28.061441 2.3418052e-038
-51.918617 278.34262 28.118721 2.3418052e-038
-32.765125 284.19241 28.709677 2.3509886e-038
-28.823692 280.73004 28.359901 2.3509886e-038
-23.79669 278.26724 28.111103 9.1476764e-041
-19.033287 278.42395 28.126934 9.1476764e-041
-16.005005 279.70926 28.256779 9.1476764e-041
-3.0788531 270.7092 27.347574 2.3509886e-038
0.071384333 268.68204 27.142788 3.5733111e-043
4.6567655 267.28809 27.00197 3.5733111e-043
9.2593546 267.77448 27.051102 3.5733111e-043
13.570346 271.38788 27.416138 3.5733111e-043
44.799084 264.05811 26.675669 2.3509528e-038
45.336658 263.84317 26.653957 2.3509528e-038
49.764366 263.31964 26.601068 2.3509528e-038
53.778419 264.61594 26.732021 2.3509528e-038
-69.291275 278.87195 23.387701 2.3418052e-038
-66.533936 277.30908 23.25663 2.3418052e-038
-61.415779 275.69095 23.120924 2.3418052e-038
-56.654976 275.54077 23.10833 2.3418052e-038
-52.21936 277.08881 23.238155 2.3418052e-038
-49.796082 279.51553 23.441673 2.3418052e-038
-33.217876 287.70428 24.128428 2.3509886e-038
-29.028566 282.72543 23.710873 2.3509886e-038
-23.92959 279.82132 23.467319 2.3509886e-038
-19.20874 280.99051 23.565374 9.1476764e-041
-15.639176 284.16989 23.832014 2.3509886e-038
-4.4747882 274.1528 22.99193 2.3509886e-038
0.071751751 270.06497 22.649099 3.5733111e-043
4.6795287 268.59464 22.525789 3.5733111e-043
9.2892828 268.63995 22.529591 3.5733111e-043
12.440695 270.4697 22.683043 3.5733111e-043
40.826881 264.74933 22.2033 2.3509528e-038
40.938648 264.67484 22.197054 2.3509528e-038
45.200893 263.05307 22.061043 2.3509528e-038
49.801506 263.51614 22.09988 2.3509528e-038
53.253906 265.23932 22.244396 2.3509528e-038
-67.328506 280.35007 18.701792 2.3418052e-038
-67.251442 280.29959 18.698425 2.3418052e-038
-61.854412 277.65991 18.522337 2.3418052e-038
-56.890778 276.68759 18.457474 2.3418052e-038
-52.266201 277.33734 18.500818 2.3418052e-038
-47.972744 280.0502 18.681787 2.3418052e-038
-47.479279 280.60367 18.71871 2.3418052e-038
-33.901871 290.64728 19.388706 2.3509886e-038
-29.198298 284.37854 18.970528 2.3509886e-038
-24.036207 281.06802 18.749685 2.3509886e-038
-19.28487 282.10416 18.818808 2.3509886e-038
-14.759541 286.02258 19.080198 2.3509886e-038
-6.1181469 278.83939 18.601017 2.3509886e-038
-4.6675668 276.3349 18.433947 2.3509886e-038
0.072271533 272.02136 18.146194 3.5733111e-043
4.7128291 270.50598 18.045107 3.5733111e-043
9.3543415 270.52142 18.046137 3.5733111e-043
11.087831 271.17334 18.089624 3.5733111e-043
37.39777 266.54062 17.780582 2.3509528e-038
40.924278 264.58191 17.64992 2.3509528e-038
45.350891 263.92599 17.606163 2.3509528e-038
50.090382 265.04468 17.68079 2.3509528e-038
51.45351 265.81155 17.731947 2.3509528e-038
-65.060768 281.27805 13.937926 2.3418052e-038
-62.302677 279.67218 13.858351 2.3418052e-038
-57.18869 278.13651 13.782255 2.3418052e-038
-52.471916 278.42892 13.796745 2.3418052e-038
-47.985302 280.1235 13.880715 2.3418052e-038
-44.15189 283.59198 14.052587 2.3418052e-038
-35.424065 291.28009 14.433548 2.3509886e-038
-34.833942 290.69312 14.404462 2.3509886e-038
-29.243376 284.81757 14.113317 2.3509886e-038
-24.08815 281.67542 13.957617 2.3509886e-038
-19.246492 281.54279 13.951043 2.3509886e-038
-14.490427 282.9928 14.022896 2.3509886e-038
-12.374578 283.25787 14.036031 2.3509886e-038
-9.5478268 282.09927 13.97862 2.3509886e-038
-4.6842709 277.32388 13.741988 2.3509886e-038
0.072859317 274.2337 13.588863 3.5733111e-043
4.754777 272.91373 13.523456 3.5733111e-043
9.4590054 273.54825 13.554897 3.5733111e-043
9.7356491 273.70331 13.562581 3.5733111e-043
33.679119 268.03818 13.281862 2.3509528e-038
36.588886 266.065 13.184088 2.3509528e-038
40.962494 264.82901 13.122841 2.3509528e-038
45.5443 265.05157 13.133869 2.3509528e-038
48.716286 266.33643 13.197537 2.3509528e-038
-62.892937 282.1554 9.1405659 2.3418052e-038
-62.850929 282.13321 9.1398478 2.3418052e-038
-57.664753 280.45181 9.0853777 2.3418052e-038
-52.832798 280.34384 9.0818796 2.3418052e-038
-48.135838 281.00232 9.1032114 2.3418052e-038
-43.531387 282.40747 9.1487322 2.3509886e-038
-39.099617 285.42511 9.2464895 2.3509886e-038
-34.290401 286.15723 9.2702084 2.3509886e-038
-29.154699 283.95392 9.1988297 2.3509886e-038
-24.109243 281.92206 9.133007 2.3509886e-038
-19.22967 281.29666 9.1127472 2.3509886e-038
-14.397684 281.18158 9.1090193 2.3509886e-038
-9.5454588 280.3566 9.0822935 2.3509886e-038
-4.6993394 278.21594 9.0129461 2.3509886e-038
0.073401392 276.27399 8.9500351 2.3509886e-038
4.797183 275.34775 8.9200287 2.3509886e-038
8.7636795 276.1347 8.9455233 3.5733111e-043
29.469606 268.66885 8.7036629 2.3509528e-038
32.154835 267.15103 8.6544924 2.3509528e-038
36.525906 265.60703 8.6044731 2.3509528e-038
41.036976 265.31052 8.5948687 2.3509528e-038
45.414875 266.34317 8.6283216 2.3509528e-038
-61.510021 285.17957 4.3458176 2.3509886e-038
-58.369755 283.88058 4.3260226 2.3418052e-038
-53.269787 282.6626 4.3074617 2.3418052e-038
-48.334003 282.15912 4.2997894 2.3509886e-038
-43.476284 282.04999 4.2981262 2.3509886e-038
-38.757065 282.92447 4.3114524 2.3509886e-038
-34.000881 283.74112 4.3238974 2.3509886e-038
-29.093523 283.35806 4.3180604 2.3509886e-038
-24.167965 282.60873 4.3066416 2.3509886e-038
-19.289476 282.17154 4.2999787 2.3509886e-038
-14.415769 281.53476 4.2902746 2.3509886e-038
-9.5504665 280.50366 4.2745619 2.3509886e-038
-4.7157431 279.1871 4.2544994 2.3509886e-038
0.073822051 277.8573 4.2342348 2.3509886e-038
4.8320351 277.34818 4.2264757 2.3509886e-038
8.8459349 278.26587 4.2404609 2.3509886e-038
25.064245 271.10745 4.1313748 2.3509528e-038
27.774687 269.12039 4.1010938 2.3509528e-038
32.146538 267.08209 4.0700326 2.3509528e-038
36.624107 266.32114 4.0584359 2.3509528e-038
41.264423 266.78101 4.065444 2.3509528e-038
42.334991 267.29184 4.0732288 2.3509528e-038
-96.230507 285.42728 -0.54737586 2.3418409e-038
-92.391022 283.66028 -0.54398727 2.3418409e-038
-87.749489 282.93433 -0.54259503 2.3418409e-038
-60.458561 287.90799 -0.55213326 2.3509886e-038
-59.015827 287.02274 -0.55043554 2.3509886e-038
-53.617752 284.509 -0.54561484 2.3509886e-038
-48.523235 283.26379 -0.5432269 2.3509886e-038
-43.609653 282.91519 -0.54255837 2.3509886e-038
-38.82962 283.45416 -0.54359192 2.3509886e-038
-34.03186 283.99966 -0.54463804 2.3509886e-038
-29.146894 283.87787 -0.54440451 2.3509886e-038
-24.245733 283.51813 -0.54371464 2.3509886e-038
-19.360378 283.20874 -0.54312122 2.3509886e-038
-14.47151 282.62335 -0.54199868 2.3509886e-038
-9.5905113 281.67981 -0.54018921 2.3509886e-038
-4.738615 280.5412 -0.53800565 2.3509886e-038
0.074230947 279.39636 -0.53581011 2.3509886e-038
4.8590012 278.89597 -0.53485054 2.3509886e-038
9.6695471 279.63696 -0.53627151 2.3509886e-038
11.892958 279.7478 -0.53648412 2.3509886e-038
18.852724 276.26907 -0.52981281 2.3509886e-038
19.02265 276.12234 -0.52953136 2.3509886e-038
23.476704 272.83023 -0.52321798 2.3509528e-038
27.915426 270.4841 -0.51871866 2.3509528e-038
32.359051 268.84772 -0.51558053 2.3509528e-038
36.91872 268.46347 -0.5148437 2.3509528e-038
39.384243 269.13712 -0.51613551 2.3509528e-038
-98.60215 286.77725 -5.4700942 2.3418409e-038
-98.236588 286.51538 -5.4650993 2.3418409e-038
-92.278366 283.31442 -5.4040432 2.3418409e-038
-87.190643 282.57874 -5.3900104 2.3418409e-038
-82.716721 283.86273 -5.4145017 2.3418409e-038
-81.792633 284.46106 -5.4259143 2.3418409e-038
-59.384209 288.78717 -5.5084319 2.3509886e-038
-59.377712 288.78278 -5.5083485 2.3509886e-038
-53.852928 285.7569 -5.4506316 2.3509886e-038
-48.691315 284.245 -5.4217925 2.3509886e-038
-43.79266 284.10248 -5.4190745 2.3509886e-038
-39.01833 284.8317 -5.4329839 2.3509886e-038
-34.181385 285.24744 -5.4409142 2.3509886e-038
-29.260775 284.98703 -5.4359469 2.3509886e-038
-24.329222 284.49438 -5.4265504 2.3509886e-038
-19.428011 284.19809 -5.420898 2.3509886e-038
-14.542282 284.00552 -5.4172249 2.3509886e-038
-9.6500454 283.42838 -5.4062161 2.3509886e-038
-4.7689009 282.33423 -5.3853464 2.3509886e-038
0.074671566 281.05481 -5.3609419 2.3509886e-038
4.8792114 280.056 -5.3418903 2.3509886e-038
9.6696062 279.63867 -5.33393 2.3509886e-038
14.399134 278.32202 -5.308816 2.3509886e-038
19.016281 276.02988 -5.2650948 2.3509528e-038
23.586117 274.10175 -5.2283168 2.3509528e-038
28.144617 272.7048 -5.2016711 2.3509528e-038
32.704781 271.72015 -5.1828895 2.3509528e-038
36.342705 272.01828 -5.1885757 2.3509528e-038
-97.239334 285.58911 -10.347176 2.3418409e-038
-92.272537 283.29654 -10.264113 2.3418409e-038
-87.344376 283.07697 -10.256158 2.3418409e-038
-83.002686 284.84409 -10.320184 2.3418409e-038
-78.899284 287.70135 -10.423705 2.3418409e-038
-78.883263 287.71637 -10.424248 2.3418409e-038
-58.645229 289.80356 -10.499869 2.3509886e-038
-54.130997 287.23239 -10.406713 2.3509886e-038
-48.914169 285.54596 -10.345612 2.3509886e-038
-43.981335 285.32648 -10.33766 2.3509886e-038
-39.174564 285.9722 -10.361055 2.3509886e-038
-34.315098 286.36331 -10.375226 2.3509886e-038
-29.388378 286.22983 -10.37039 2.3509886e-038
-24.434528 285.72583 -10.352129 2.3509886e-038
-19.50676 285.35004 -10.338513 2.3509886e-038
-14.613477 285.39594 -10.340177 2.3509886e-038
-9.7078085 285.12494 -10.330359 2.3509886e-038
-4.7981567 284.06625 -10.292001 2.3509886e-038
0.075141922 282.82513 -10.247035 2.3509886e-038
4.9101224 281.83023 -10.210987 2.3509886e-038
9.7134733 280.90732 -10.177549 2.3509886e-038
14.451448 279.33319 -10.120519 2.3509528e-038
19.118341 277.51132 -10.05451 2.3509528e-038
23.762316 276.14938 -10.005166 2.3509528e-038
28.406399 275.2413 -9.9722652 2.3509528e-038
33.100609 275.35648 -9.9764376 2.3509528e-038
-94.953217 284.83295 -15.206552 2.3418409e-038
-92.568626 284.2056 -15.173058 2.3418409e-038
-87.703934 284.24228 -15.175016 2.3418409e-038
-83.327583 285.95908 -15.266672 2.3418409e-038
-79.106621 288.4574 -15.400051 2.3418409e-038
-76.364143 289.96622 -15.480604 2.3418409e-038
-58.418812 291.20169 -15.546562 2.3509886e-038
-54.406391 288.6937 -15.412667 2.3509886e-038
-49.128296 286.79593 -15.311351 2.3509886e-038
-44.10603 286.13541 -15.276086 2.3509886e-038
-39.234688 286.4111 -15.290805 2.3509886e-038
-34.385227 286.94852 -15.319497 2.3509886e-038
-29.490688 287.22629 -15.334326 2.3509886e-038
-24.533945 286.88834 -15.316283 2.3509886e-038
-19.57548 286.35529 -15.287825 2.3509886e-038
-14.657242 286.25064 -15.282239 2.3509886e-038
-9.7371531 285.98679 -15.268151 2.3509886e-038
-4.8143921 285.02744 -15.216934 2.3509886e-038
0.075509056 284.20703 -15.173135 2.3509886e-038
4.9437332 283.7594 -15.149236 2.3509886e-038
9.7824535 282.90213 -15.103469 2.3509886e-038
14.544374 281.12936 -15.008825 2.3509528e-038
19.249634 279.41708 -14.917412 2.3509528e-038
23.960413 278.45157 -14.865864 2.3509528e-038
28.704786 278.13254 -14.848831 2.3509528e-038
30.041397 278.582 -14.872828 2.3509528e-038
-93.287308 287.84723 -20.305952 2.3418409e-038
-88.55864 287.0123 -20.247053 2.3418409e-038
-83.725052 287.32309 -20.268976 2.3418409e-038
-79.242851 288.95413 -20.384037 2.3418409e-038
-74.72847 290.67767 -20.505623 2.3418409e-038
-73.403816 291.24323 -20.545521 2.3418409e-038
-58.642235 291.93781 -20.594519 2.3509886e-038
-54.495575 289.16693 -20.39905 2.3509886e-038
-49.171806 287.04996 -20.249708 2.3509886e-038
-44.148209 286.40906 -20.204498 2.3509886e-038
-39.282516 286.76025 -20.229271 2.3509886e-038
-34.452065 287.50632 -20.281902 2.3509886e-038
-29.57192 288.01746 -20.317961 2.3509886e-038
-24.617065 287.86029 -20.306873 2.3509886e-038
-19.641296 287.31808 -20.268623 2.3509886e-038
-14.695544 286.99866 -20.24609 2.3509886e-038
-9.7583914 286.61057 -20.218714 2.3509886e-038
-4.8264823 285.74323 -20.157528 2.3509886e-038
0.075794034 285.27963 -20.124823 2.3509886e-038
4.9671226 285.10187 -20.112282 2.3509886e-038
9.8297396 284.26959 -20.053572 2.3509886e-038
14.619017 282.57214 -19.933825 2.3509528e-038
19.372381 281.19885 -19.836946 2.3509528e-038
24.175135 280.9469 -19.819174 2.3509528e-038
27.855686 281.47604 -19.856501 2.3509528e-038
-91.200722 291.50229 -25.565002 2.3418409e-038
-89.722404 290.78397 -25.502005 2.3418409e-038
-84.293015 289.27219 -25.369419 2.3418409e-038
-79.439888 289.67261 -25.404537 2.3418409e-038
-74.824409 291.05084 -25.52541 2.3418409e-038
-70.346016 293.19754 -25.713676 2.3418409e-038
-69.539871 293.68619 -25.756531 2.3418409e-038
-60.003437 293.34467 -25.72658 2.3418409e-038
-54.576283 289.59518 -25.397745 2.3509886e-038
-49.158604 286.97287 -25.167768 2.3509886e-038
-44.117279 286.2084 -25.100721 2.3509886e-038
-39.284039 286.77136 -25.150095 2.3509886e-038
-34.49712 287.88226 -25.247522 2.3509886e-038
-29.645601 288.73508 -25.322313 2.3509886e-038
-24.707335 288.91586 -25.338171 2.3509886e-038
-19.723173 288.51578 -25.303082 2.3509886e-038
-14.746009 287.98422 -25.256464 2.3509886e-038
-9.7872 287.4567 -25.210197 2.3509886e-038
-4.8445563 286.81326 -25.153769 2.3509886e-038
0.076148301 286.61304 -25.136209 2.3509886e-038
4.9890471 286.36029 -25.114044 2.3509886e-038
9.868474 285.38977 -25.028929 2.3509886e-038
14.689549 283.93549 -24.901386 2.3509886e-038
19.514042 283.2551 -24.841715 2.3509528e-038
24.438124 284.0032 -24.907324 2.3509528e-038
26.747561 284.90247 -24.986191 2.3509528e-038
-88.112015 293.10794 -30.734549 2.3418409e-038
-85.073502 291.95062 -30.613195 2.3418409e-038
-79.888062 291.30685 -30.545692 2.3418409e-038
-75.034966 291.86987 -30.604729 2.3418409e-038
-70.378151 293.33154 -30.757996 2.3418409e-038
-65.646507 294.68234 -30.899639 2.3418409e-038
-60.44297 293.96365 -30.824276 2.3418409e-038
-54.747025 290.50119 -30.46121 2.3509886e-038
-49.24712 287.48962 -30.145428 2.3509886e-038
-44.111824 286.173 -30.007372 2.3509886e-038
-39.245075 286.48694 -30.040291 2.3509886e-038
-34.490929 287.83063 -30.181183 2.3509886e-038
-29.694345 289.20981 -30.325802 2.3509886e-038
-24.798775 289.98514 -30.407103 2.3509886e-038
-19.825741 290.01617 -30.410355 2.3509886e-038
-14.822226 289.47272 -30.353371 2.3509886e-038
-9.8294039 288.69626 -30.271954 2.3509886e-038
-4.8663077 288.10101 -30.209536 2.3509886e-038
0.076551013 288.12878 -30.212448 2.3509886e-038
5.0193224 288.09802 -30.209225 2.3509886e-038
9.9362078 287.34863 -30.130644 2.3509886e-038
14.805731 286.18115 -30.008224 2.3509886e-038
19.697771 285.92203 -29.981052 2.3509886e-038
24.726095 287.34979 -30.130764 2.3509886e-038
26.433983 288.43118 -30.244158 2.3509886e-038
-85.505089 296.22678 -36.143845 2.3418409e-038
-80.700859 294.27069 -35.905174 2.3418409e-038
-75.314476 292.95712 -35.744904 2.3418409e-038
-70.359634 293.2543 -35.781162 2.3418409e-038
-65.501854 294.03302 -35.876179 2.3418409e-038
-60.396275 293.73654 -35.84 2.3418409e-038
-54.926098 291.45139 -35.56118 2.3509886e-038
-49.447407 288.65881 -35.220448 2.3509886e-038
-44.212166 286.82397 -34.996574 2.3509886e-038
-39.257526 286.57782 -34.966537 2.3509886e-038
-34.487698 287.80365 -35.116108 2.3509886e-038
-29.730003 289.5571 -35.330051 2.3509886e-038
-24.874186 290.86697 -35.489872 2.3509886e-038
-19.919153 291.38263 -35.552792 2.3509886e-038
-14.903227 291.05463 -35.512772 2.3509886e-038
-9.8787794 290.14648 -35.401962 2.3509886e-038
-4.8908052 289.55136 -35.32935 2.3509886e-038
0.076970838 289.70898 -35.348579 2.3509886e-038
5.0488987 289.79562 -35.359154 2.3509886e-038
10.002948 289.27869 -35.296078 2.3509886e-038
14.913371 288.26175 -35.171997 2.3509886e-038
19.84256 288.02371 -35.142956 2.3509886e-038
24.940701 289.84381 -35.365028 2.3509886e-038
26.296484 290.97211 -35.502701 2.3509886e-038
-83.426834 299.7388 -41.714855 2.3418409e-038
-81.844986 298.44266 -41.534473 2.3418409e-038
-75.707153 294.48453 -40.983612 2.3418409e-038
-70.329979 293.13074 -40.795208 2.3418409e-038
-65.323669 293.23318 -40.809464 2.3418409e-038
-60.267822 293.11182 -40.792572 2.3418409e-038
-55.005512 291.8728 -40.62014 2.3509886e-038
-49.620449 289.66901 -40.313438 2.3509886e-038
-44.358196 287.77133 -40.049335 2.3509886e-038
-39.335911 287.15002 -39.962868 2.3509886e-038
-34.509037 287.98172 -40.078613 2.3509886e-038
-29.752062 289.77194 -40.327763 2.3509886e-038
-24.927435 291.48962 -40.566814 2.3509886e-038
-19.986778 292.37186 -40.689594 2.3509886e-038
-14.966688 292.29404 -40.678761 2.3509886e-038
-9.9290895 291.62408 -40.585529 2.3509886e-038
-4.9185867 291.19614 -40.52597 2.3509886e-038
0.077385962 291.27145 -40.536449 2.3509886e-038
5.0689249 290.9451 -40.491032 2.3509886e-038
10.031434 290.10248 -40.37376 2.3509886e-038
14.949873 288.96729 -40.215775 2.3509886e-038
19.898613 288.83734 -40.197693 2.3509886e-038
25.052757 291.14603 -40.518997 2.3509886e-038
25.882294 291.95483 -40.631557 2.3509886e-038
-81.101112 300.71927 -47.010624 2.3418409e-038
-76.191109 296.36703 -46.330254 2.3418409e-038
-70.351196 293.21918 -45.838154 2.3418409e-038
-65.144409 292.4285 -45.71455 2.3418409e-038
-60.089512 292.2446 -45.685806 2.3418409e-038
-54.921879 291.42902 -45.558304 2.3418409e-038
-49.644707 289.81064 -45.305309 2.3509886e-038
-44.441887 288.31427 -45.071384 2.3509886e-038
-39.403496 287.64337 -44.966503 2.3509886e-038
-34.521118 288.08255 -45.035156 2.3509886e-038
-29.758585 289.83548 -45.309193 2.3509886e-038
-24.976532 292.06375 -45.657532 2.3509886e-038
-20.0536 293.34937 -45.858505 2.3509886e-038
-15.028795 293.50696 -45.883141 2.3509886e-038
-9.9859285 293.29349 -45.84977 2.3509886e-038
-4.9490271 292.99829 -45.803627 2.3509886e-038
0.077757165 292.66861 -45.752087 2.3509886e-038
5.0832934 291.76987 -45.611588 2.3509886e-038
10.043143 290.44113 -45.403873 2.3509886e-038
14.96384 289.23727 -45.215675 2.3509886e-038
19.946711 289.53552 -45.262299 2.3509886e-038
25.127142 292.40979 -45.711624 2.3509886e-038
-78.328209 299.83566 -52.016666 2.3418409e-038
-76.658493 298.18506 -51.730316 2.3418409e-038
-70.435066 293.56873 -50.929462 2.3418409e-038
-64.994659 291.75629 -50.615028 2.3418409e-038
-59.861729 291.13678 -50.507553 2.3418409e-038
-54.715458 290.33368 -50.368229 2.3509886e-038
-49.537132 289.18265 -50.168541 2.3509886e-038
-44.41972 288.1705 -49.992954 2.3509886e-038
-39.412346 287.70798 -49.912712 2.3509886e-038
-34.535812 288.20517 -49.99897 2.3509886e-038
-29.791578 290.1568 -50.337547 2.3509886e-038
-25.042574 292.836 -50.802341 2.3509886e-038
-20.134451 294.53207 -51.096581 2.3509886e-038
-15.104338 294.98227 -51.174683 2.3509886e-038
-10.047777 295.11005 -51.196854 2.3509886e-038
-4.9794011 294.79651 -51.142456 2.3509886e-038
0.078100294 293.96011 -50.99736 2.3509886e-038
5.0990896 292.67651 -50.774673 2.3509886e-038
10.070696 291.23792 -50.525105 2.3509886e-038
15.024927 290.41803 -50.382862 2.3509886e-038
20.079624 291.46481 -50.564461 2.3509886e-038
24.57419 294.32645 -51.060913 2.3509886e-038
-75.011749 297.80017 -56.772785 2.3418409e-038
-70.617821 294.33041 -56.111305 2.3418409e-038
-64.955956 291.58252 -55.587444 2.3418409e-038
-59.679153 290.24884 -55.333191 2.3418409e-038
-54.507397 289.22968 -55.138893 2.3509886e-038
-49.383984 288.2886 -54.959488 2.3509886e-038
-44.326832 287.56784 -54.822086 2.3509886e-038
-39.385502 287.51202 -54.811443 2.3509886e-038
-34.570358 288.49347 -54.99855 2.3509886e-038
-29.844826 290.67545 -55.414516 2.3509886e-038
-25.101702 293.52744 -55.958221 2.3509886e-038
-20.211975 295.66614 -56.365944 2.3509886e-038
-15.184802 296.55371 -56.535156 2.3509886e-038
-10.104393 296.77286 -56.576935 2.3509886e-038
-5.004776 296.2988 -56.486557 2.3509886e-038
0.078448765 295.2717 -56.290749 2.3509886e-038
5.1217656 293.97806 -56.044132 2.3509886e-038
10.121881 292.71817 -55.803947 2.3509886e-038
15.139593 292.6344 -55.787971 2.3509886e-038
20.322289 294.98721 -56.236511 2.3509886e-038
24.421339 298.80878 -56.965065 2.3509886e-038
-71.581474 296.80374 -61.674984 2.3509886e-038
-71.125854 296.44791 -61.60104 2.3509886e-038
-65.201965 292.68689 -60.819511 2.3418409e-038
-59.688313 290.29337 -60.322144 2.3509886e-038
-54.415283 288.74088 -59.999542 2.3509886e-038
-49.307087 287.83969 -59.812275 2.3509886e-038
-44.288059 287.31631 -59.703522 2.3509886e-038
-39.388027 287.53049 -59.748024 2.3509886e-038
-34.60408 288.77487 -60.006607 2.3509886e-038
-29.875465 290.97385 -60.463543 2.3509886e-038
-25.140308 293.97888 -61.087982 2.3509886e-038
-20.284811 296.73157 -61.659985 2.3509886e-038
-15.267125 298.16144 -61.957111 2.3509886e-038
-10.15872 298.3685 -62.000137 2.3509886e-038
-5.0279365 297.66995 -61.854977 2.3509886e-038
0.078829758 296.70572 -61.654613 2.3509886e-038
5.151155 295.66495 -61.438339 2.3509886e-038
10.191265 294.7247 -61.242966 2.3509886e-038
15.292119 295.58258 -61.42123 2.3509886e-038
20.678917 300.16382 -62.373196 2.3509886e-038
24.320425 305.69446 -63.522449 2.3509886e-038
-68.278236 297.56396 -66.938141 2.3509886e-038
-65.871391 295.69183 -66.517006 2.3509886e-038
-59.99437 291.78186 -65.637436 2.3509886e-038
-54.516029 289.27548 -65.073608 2.3509886e-038
-49.392498 288.33832 -64.862793 2.3509886e-038
-44.396004 288.01663 -64.790428 2.3509886e-038
-39.487068 288.25345 -64.843704 2.3509886e-038
-34.681568 289.42154 -65.106468 2.3509886e-038
-29.934622 291.55002 -65.585281 2.3509886e-038
-25.203131 294.7135 -66.296921 2.3509886e-038
-20.363853 297.88782 -67.011002 2.3509886e-038
-15.340807 299.60043 -67.396248 2.3509886e-038
-10.203547 299.68512 -67.415306 2.3509886e-038
-5.0468211 298.78802 -67.213493 2.3509886e-038
0.079177432 298.01431 -67.039444 2.3509886e-038
5.1820326 297.43726 -66.90963 2.3509886e-038
10.275792 297.16919 -66.849327 2.3509886e-038
15.491077 299.42828 -67.357529 2.3509886e-038
21.167467 307.25534 -69.118248 2.3509886e-038
23.736935 312.85431 -70.377769 2.3509886e-038
-64.6455 298.33588 -72.230225 2.3509886e-038
-60.653099 294.9856 -71.41909 2.3509886e-038
-54.913979 291.38708 -70.547852 2.3509886e-038
-49.690556 290.07825 -70.230965 2.3509886e-038
-44.667652 289.77893 -70.158493 2.3509886e-038
-39.724747 289.98853 -70.209244 2.3509886e-038
-34.858635 290.8992 -70.429726 2.3509886e-038
-30.056677 292.73877 -70.875107 2.3509886e-038
-25.28756 295.70074 -71.592239 2.3509886e-038
-20.426199 298.7998 -72.342552 2.3509886e-038
-15.391482 300.59009 -72.776001 2.3509886e-038
-10.242632 300.83304 -72.834816 2.3509886e-038
-5.0695949 300.13626 -72.666122 2.3509886e-038
0.079589702 299.56607 -72.528069 2.3509886e-038
5.2176828 299.48352 -72.50808 2.3509886e-038
10.38884 300.43845 -72.739281 2.3509886e-038
15.778729 304.98831 -73.840858 2.3509886e-038
21.808319 316.55759 -76.641891 2.3509886e-038
22.1984 317.54071 -76.879921 2.3509886e-038
-60.612053 300.16791 -77.823647 2.3509886e-038
-55.866558 296.44171 -76.857559 2.3509886e-038
-50.319668 293.75082 -76.159904 2.3509886e-038
-45.094696 292.54935 -75.848404 2.3509886e-038
-40.05579 292.40509 -75.810997 2.3509886e-038
-35.122395 293.10028 -75.991234 2.3509886e-038
-30.254456 294.66504 -76.396927 2.3509886e-038
-25.416471 297.20819 -77.05629 2.3509886e-038
-20.514931 300.09781 -77.805473 2.3509886e-038
-15.469575 302.11523 -78.328522 2.3509886e-038
-10.307523 302.73892 -78.490227 2.3509886e-038
-5.110445 302.55472 -78.442467 2.3509886e-038
0.080340274 302.39111 -78.400047 2.3509886e-038
5.2763743 302.85226 -78.519615 2.3509886e-038
10.556396 305.28406 -79.150085 2.3509886e-038
16.194447 313.02374 -81.156738 2.3509886e-038
19.801361 321.38464 -83.32444 2.3509886e-038
-55.44611 303.62958 -83.930382 2.3509886e-038
-51.482731 300.54041 -83.076462 2.3509886e-038
-45.834225 297.34698 -82.193726 2.3509886e-038
-40.535522 295.9071 -81.795708 2.3509886e-038
-35.476082 296.05182 -81.835716 2.3509886e-038
-30.542051 297.46609 -82.226646 2.3509886e-038
-25.63693 299.78613 -82.867958 2.3509886e-038
-20.696693 302.75668 -83.689095 2.3509886e-038
-15.641869 305.48004 -84.441895 2.3509886e-038
-10.449718 306.91531 -84.838638 2.3509886e-038
-5.1942964 307.51898 -85.005508 2.3509886e-038
0.08181873 307.95587 -85.126266 2.3509886e-038
5.3807893 308.84543 -85.372162 2.3509886e-038
10.782944 311.83566 -86.198738 2.3509886e-038
15.894873 319.45636 -88.305283 2.3509886e-038
-46.216736 304.63037 -89.433464 2.3509886e-038
-41.327316 301.68719 -88.569405 2.3509886e-038
-36.097477 301.23746 -88.43737 2.3509886e-038
-31.109379 302.99164 -88.952362 2.3509886e-038
-26.120525 305.44104 -89.671463 2.3509886e-038
-21.107731 308.76947 -90.648621 2.3509886e-038
-16.007391 312.61859 -91.778641 2.3509886e-038
-10.742939 315.5274 -92.632622 2.3509886e-038
-5.3628297 317.4967 -93.21077 2.3509886e-038
0.084772535 319.07361 -93.673714 2.3509886e-038
5.5831494 320.46048 -94.080864 2.3509886e-038
9.3296537 321.23364 -94.307854 2.3509886e-038
-31.404316 313.58304 -97.441833 2.3509886e-038
-26.967804 315.34875 -97.990501 2.3509886e-038
-21.773298 318.50555 -98.971436 2.3509886e-038
-16.551611 323.24698 -100.44477 2.3509886e-038
-13.469794 325.87076 -101.26007 2.3509886e-038
-98.275932 286.63013 -3.1339459 2.3418409e-038
-98.182228 286.35684 -7.8793764 2.3418409e-038
-92.431664 283.78506 0.55740118 2.3418409e-038
-93.530807 287.15967 -19.464592 2.3418409e-038
-87.291779 282.90649 -0.78305686 2.3418409e-038
-90.148277 292.16422 -27.413486 2.3418409e-038
-82.679955 283.73657 -4.3615003 2.3418409e-038
-86.052292 295.30957 -34.823685 2.3418409e-038
-74.237976 270.70419 65.176033 2.3418052e-038
-74.720848 272.46494 41.233715 2.3418052e-038
-78.898468 287.69839 -10.395478 2.3418409e-038
-82.421471 300.5448 -44.210167 2.3418409e-038
-70.188766 273.01923 62.035889 2.3418052e-038
-71.106163 276.58771 28.95541 2.3418052e-038
-74.735832 290.70633 -18.407885 2.3418409e-038
-76.869972 299.00766 -54.24144 2.3418409e-038
-65.318985 272.24527 54.184738 2.3418052e-038
-67.273148 280.39005 18.578323 2.3418052e-038
-70.341621 293.17926 -24.819311 2.3418409e-038
-71.219086 296.83646 -62.23938 2.3509886e-038
-61.368397 275.47824 45.829552 2.3418052e-038
-62.862873 282.18683 9.0625973 2.3418052e-038
-65.699867 294.92191 -28.291393 2.3418409e-038
-66.391418 298.02621 -69.782669 2.3509886e-038
-56.812477 276.30679 37.649551 2.3418052e-038
-59.379436 288.79114 -5.5347614 2.3509886e-038
-60.374271 293.62952 -26.324427 2.3418409e-038
-61.575676 299.47253 -76.43869 2.3509886e-038
-52.415234 278.12811 29.176157 2.3418052e-038
-57.057095 302.759 -82.323288 2.3509886e-038
-48.016216 280.30399 19.738184 2.3418052e-038
-52.18084 304.61575 -86.515129 2.3509886e-038
-43.770592 283.95929 13.686337 2.3418052e-038
-46.966225 304.69077 -89.135963 2.3509886e-038
-39.443672 287.93668 11.576636 2.3509886e-038
-41.66021 304.11725 -90.965355 2.3509886e-038
-32.761917 273.40182 78.410225 9.1476764e-041
-32.678825 272.7084 68.338486 9.1476764e-041
-34.931328 291.5058 15.516544 2.3509886e-038
-36.741779 306.61423 -93.456627 2.3509886e-038
-27.592648 268.7402 82.22319 9.1476764e-041
-32.108421 312.72186 -96.960075 2.3509886e-038
-23.040379 269.42328 80.991432 9.1476764e-041
-27.137917 317.33795 -99.522499 2.3509886e-038
-18.755018 274.35336 60.92017 9.1476764e-041
-21.918909 320.63559 -100.6859 2.3509886e-038
-14.639447 285.90314 18.651731 2.3509886e-038
-16.603207 324.25467 -101.21774 2.3509886e-038
-9.6059647 282.1337 13.962788 2.3509886e-038
-11.129116 326.86966 -101.24927 2.3509886e-038
-4.6396346 274.68124 22.508009 2.3509886e-038
-5.5533934 328.77869 -101.21841 2.3509886e-038
0.071589641 269.45477 36.507774 3.5733111e-043
0.087504178 329.35522 -100.5069 2.3509886e-038
4.6633849 267.668 53.974781 3.5733111e-043
5.6847382 326.29144 -97.776573 2.3509886e-038
9.0581551 261.9559 66.039474 3.5733111e-043
9.4846888 274.29099 12.582754 3.5733111e-043
9.658618 279.32089 1.8521211 2.3509886e-038
11.042291 319.33578 -92.618111 2.3509886e-038
13.532927 261.57901 67.695755 3.5733111e-043
14.083098 272.21335 30.380085 3.5733111e-043
14.430191 278.92233 -1.4298337 2.3509886e-038
16.549686 319.8902 -87.620621 2.3509886e-038
19.023855 276.13986 -0.45184335 2.3509886e-038
21.915016 318.10635 -77.740456 2.3509886e-038
23.446884 272.48367 2.6148131 2.3509528e-038
25.158508 292.375 -45.500614 2.3509886e-038
27.785463 269.22482 6.9331613 2.3509528e-038
28.896208 279.98727 -17.199894 2.3509528e-038
32.294037 268.30756 11.727947 2.3509528e-038
33.13829 275.32184 -9.9200687 2.3509528e-038
36.701401 266.88318 16.902689 2.3509528e-038
37.270515 271.02164 -3.7683036 2.3509528e-038
40.942867 264.70212 22.350821 2.3509528e-038
41.39476 267.62366 2.6480682 2.3509528e-038
45.386139 264.13113 27.200581 2.3509528e-038
45.752651 266.2641 9.1057892 2.3509528e-038
49.993584 264.5325 29.806507 2.3509528e-038
50.302414 266.16663 15.640313 2.3509528e-038
