# .PCD v0.7 - Point Cloud Data file format
VERSION 0.7
FIELDS x y z rgb
SIZE 4 4 4 4
TYPE F F F F
COUNT 1 1 1 1
WIDTH 662
HEIGHT 1
VIEWPOINT 0 0 0 1 0 0 0
POINTS 662
DATA ascii
0 0 0 3.5733111e-043
-26.690943 269.86707 73.71785 9.1476764e-041
0 0 0 3.5733111e-043
11.509663 271.53467 21.740473 2.3509528e-038
-71.20018 285.24002 -0 2.3418409e-038
-33.07151 269.41333 80.509155 9.1476764e-041
-32.553837 269.13275 80.425316 9.1476764e-041
-27.841469 268.14493 80.130119 9.1476764e-041
-25.108908 268.41602 80.211128 9.1476764e-041
-35.295868 272.18228 76.674576 9.1476764e-041
-32.708572 270.41202 76.17588 9.1476764e-041
-27.944567 269.13788 75.816956 9.1476764e-041
-23.408051 269.9841 76.055336 9.1476764e-041
-22.955296 270.13571 76.098045 9.1476764e-041
-49.57111 273.39746 72.334068 2.3509886e-038
-47.009834 272.76865 72.167694 2.3509886e-038
-46.862354 272.76602 72.167 2.3509886e-038
-35.789856 272.85913 72.191635 9.1476764e-041
-32.813217 271.27716 71.773079 9.1476764e-041
-28.047396 270.12823 71.469116 9.1476764e-041
-23.4923 270.95584 71.688072 9.1476764e-041
-18.862505 271.11725 71.730774 9.1476764e-041
-14.198226 270.72656 71.627411 9.1476764e-041
-13.352134 270.961 71.689438 9.1476764e-041
-53.841328 276.96198 68.533241 2.3509886e-038
-52.244072 275.73566 68.22979 2.3509886e-038
-46.945637 272.39615 67.403442 2.3509886e-038
-43.59605 272.46469 67.420403 2.3509886e-038
-35.344406 272.34 67.389549 9.1476764e-041
-32.836811 271.47223 67.17482 9.1476764e-041
-28.110004 270.73123 66.99147 9.1476764e-041
-23.527346 271.36005 67.147064 9.1476764e-041
-18.857595 271.04666 67.069519 9.1476764e-041
-14.164443 270.08243 66.830917 9.1476764e-041
-9.6057444 271.98987 67.30291 2.3509886e-038
-8.7994928 272.6889 67.475883 2.3509886e-038
-55.239544 278.38135 64.116249 2.3509886e-038
-52.307503 276.0704 63.584 2.3509886e-038
-46.872375 271.97107 62.639847 2.3509886e-038
-42.230049 271.3649 62.500233 9.1476764e-041
-34.572044 271.75485 62.590046 9.1476764e-041
-32.833168 271.44208 62.518009 9.1476764e-041
-28.14632 271.08099 62.434845 9.1476764e-041
-23.563129 271.77277 62.594177 9.1476764e-041
-18.894424 271.57605 62.548862 9.1476764e-041
-14.189404 270.55835 62.314468 9.1476764e-041
-9.6063671 272.00754 62.648235 2.3509886e-038
-7.2326455 273.9278 63.090519 2.3509886e-038
-55.907352 279.32706 59.549652 2.3509886e-038
-52.350025 276.29486 58.903214 2.3509886e-038
-46.817142 271.65057 57.913101 2.3509886e-038
-41.974312 270.42706 57.652256 9.1476764e-041
-41.500107 270.50098 57.668022 9.1476764e-041
-34.116089 272.08838 58.006435 2.3509528e-038
-32.89053 271.91629 57.969753 2.3509528e-038
-28.186749 271.47037 57.874683 2.3509528e-038
-23.596527 272.15796 58.021275 2.3509528e-038
-18.931585 272.11017 58.011082 9.1476764e-041
-14.22479 271.23309 57.824097 9.1476764e-041
-9.6476431 273.17627 58.238369 2.3509886e-038
-6.4230895 276.56558 58.96093 2.3509886e-038
-56.083012 279.51297 54.801704 2.3509886e-038
-52.344734 276.26694 54.165279 2.3509886e-038
-46.848091 271.83017 53.295399 2.3509886e-038
-42.009235 270.65204 53.064415 9.1476764e-041
-41.248062 270.80118 53.093658 2.3509528e-038
-34.108887 272.70911 53.467724 2.3509528e-038
-32.963215 272.51724 53.430107 2.3509528e-038
-28.225471 271.84332 53.297977 2.3509528e-038
-23.630013 272.54419 53.43539 2.3509528e-038
-18.971317 272.68124 53.462265 2.3509528e-038
-14.253399 271.77859 53.285286 2.3509528e-038
-9.680232 274.09903 53.740234 2.3509528e-038
-5.9687014 279.22858 54.745941 2.3509886e-038
-56.2882 280.12228 50.123135 2.3509886e-038
-52.350266 276.29611 49.438503 2.3509886e-038
-46.874954 271.98602 48.66729 9.1476764e-041
-42.10223 271.25116 48.535797 2.3509528e-038
-40.98912 271.58014 48.594658 2.3509528e-038
-34.745552 273.46524 48.931969 2.3509528e-038
-33.040211 273.15378 48.876236 2.3509528e-038
-28.266054 272.23416 48.711689 2.3509528e-038
-23.659428 272.88345 48.827866 2.3509528e-038
-19.000351 273.09857 48.866352 2.3509528e-038
-14.249387 271.70209 48.616482 2.3509528e-038
-9.6353474 272.82809 48.817963 2.3509528e-038
-5.4418731 277.55115 49.663071 2.3509528e-038
-57.002403 282.13065 45.650066 2.3509886e-038
-52.379902 276.45255 44.731319 2.3509886e-038
-46.863556 271.91989 43.997917 9.1476764e-041
-42.187561 271.80093 43.978664 2.3509528e-038
-39.349636 273.1991 44.204895 2.3509528e-038
-37.402718 274.11176 44.352566 2.3509528e-038
-33.15097 274.06946 44.345726 2.3509528e-038
-28.340187 272.94815 44.164288 2.3509528e-038
-23.685509 273.18427 44.202496 2.3509528e-038
-18.993258 272.99658 44.172127 2.3509528e-038
-14.214807 271.04269 43.85598 2.3509528e-038
-9.5585756 270.6543 43.793133 2.3509528e-038
-4.9790044 273.74802 44.293713 2.3509528e-038
-4.6709142 274.04382 44.341576 2.3509528e-038
-57.869343 283.73511 41.049767 2.3509886e-038
-52.307331 276.06952 39.940742 2.3509886e-038
-46.832123 271.73752 39.314003 9.1476764e-041
-42.207897 271.93195 39.342133 2.3509528e-038
-37.880436 274.32373 39.688168 2.3509528e-038
-33.251625 274.90161 39.77177 2.3509528e-038
-28.452208 274.02704 39.645245 2.3509528e-038
-23.73555 273.76141 39.606812 2.3509528e-038
-18.987654 272.91605 39.484509 2.3509528e-038
-14.199651 270.75375 39.171673 2.3509528e-038
-9.5322857 269.90988 39.049587 2.3509528e-038
-4.9519367 272.25983 39.389568 2.3509528e-038
-3.6752584 273.33463 39.545067 2.3509528e-038
7.5068307 272.96011 39.490887 2.3509528e-038
9.0754642 273.38406 39.552219 2.3509528e-038
13.836941 274.95108 39.778931 2.3509886e-038
15.64719 275.53012 39.862705 2.3509886e-038
-58.057732 282.56509 36.040623 2.3509886e-038
-52.137482 275.1731 35.09779 9.1476764e-041
-46.82093 271.67258 34.651306 9.1476764e-041
-42.178253 271.74097 34.660027 9.1476764e-041
-37.88316 274.34348 34.991974 2.3509528e-038
-33.336937 275.60693 35.153126 2.3509528e-038
-28.568237 275.14456 35.094147 2.3509528e-038
-23.815975 274.68903 35.036045 2.3509528e-038
-19.027735 273.49216 34.883389 2.3509528e-038
-14.224401 271.22565 34.594299 2.3509528e-038
-9.5402937 270.13663 34.455395 2.3509528e-038
-4.9460564 271.93649 34.684967 2.3509528e-038
-2.5920131 273.56177 34.892269 2.3509528e-038
7.0199184 271.16055 34.585995 2.3509528e-038
9.0111237 271.44586 34.622391 2.3509528e-038
13.730304 272.83209 34.799198 2.3509528e-038
16.681908 273.80545 34.923347 2.3509528e-038
-57.297626 279.76755 30.891846 2.3509886e-038
-52.051113 274.71725 30.334194 9.1476764e-041
-46.943066 272.38126 30.076252 9.1476764e-041
-42.324478 272.68304 30.109579 9.1476764e-041
-38.065102 275.66104 30.438408 9.1476764e-041
-33.499557 276.95135 30.580881 2.3509528e-038
-28.679775 276.21878 30.49999 2.3509528e-038
-23.905308 275.71936 30.444847 2.3509528e-038
-19.093349 274.43524 30.303055 2.3509528e-038
-14.255243 271.81375 30.013592 2.3509528e-038
-9.542119 270.18829 29.834108 2.3509528e-038
-4.9360132 271.38437 29.966177 2.3509528e-038
-1.6808543 273.46188 30.195576 2.3509528e-038
6.8172054 270.12314 29.826912 2.3509528e-038
8.9641609 270.03119 29.816759 2.3509528e-038
13.641726 271.07196 29.931683 2.3509528e-038
17.049395 272.34702 30.072472 2.3509528e-038
-56.716682 279.92941 26.11499 2.3509886e-038
-52.319218 276.13226 25.760752 9.1476764e-041
-47.240631 274.10782 25.571888 9.1476764e-041
-42.652874 274.7988 25.636353 9.1476764e-041
-38.410763 278.16428 25.950319 9.1476764e-041
-33.747177 278.9985 26.028147 2.3418409e-038
-28.815378 277.52478 25.890659 2.3418409e-038
-24.00979 276.92447 25.834658 2.3418409e-038
-19.170559 275.54501 25.705965 2.3509528e-038
-14.285693 272.39435 25.412039 2.3509528e-038
-9.5553284 270.56235 25.241127 2.3509528e-038
-4.9416542 271.69452 25.346748 2.3509528e-038
-1.2504117 273.73718 25.537312 2.3509528e-038
6.4847388 269.94647 25.183672 2.3509528e-038
8.9511089 269.63803 25.154896 2.3509528e-038
13.626794 270.7753 25.260992 2.3509528e-038
17.181866 272.3093 25.404102 2.3509528e-038
-56.261742 280.52332 21.365499 2.3418409e-038
-52.618328 277.71091 21.151297 2.3509886e-038
-47.56892 276.0127 21.021955 2.3418409e-038
-42.997791 277.021 21.098749 2.3418409e-038
-38.752178 280.63675 21.374138 2.3418409e-038
-34.009754 281.16928 21.414698 2.3418409e-038
-28.977936 279.09039 21.256363 2.3418409e-038
-24.139013 278.41492 21.204914 2.3418409e-038
-19.285961 277.20374 21.112669 2.3418409e-038
-14.356345 273.74152 20.848974 2.3509528e-038
-9.5947027 271.67725 20.691753 2.3509528e-038
-4.9635987 272.901 20.78496 2.3509528e-038
-1.3448896 274.67599 20.920149 2.3509528e-038
5.8605862 270.36038 20.591457 2.3509528e-038
8.9532852 269.70358 20.541435 2.3509528e-038
13.64479 271.13284 20.650291 2.3509528e-038
17.243294 272.99585 20.792185 2.3509528e-038
-56.109444 281.34003 16.608824 2.3418409e-038
-52.884708 279.11685 16.477577 2.3418409e-038
-47.850555 277.64685 16.390797 2.3418409e-038
-43.265488 278.74567 16.455666 2.3418409e-038
-39.004883 282.4668 16.675343 2.3418409e-038
-34.243542 283.10208 16.712847 2.3418409e-038
-29.154854 280.79431 16.576607 2.3418409e-038
-24.285267 280.10175 16.535721 2.3418409e-038
-19.448877 279.54541 16.502878 2.3418409e-038
-14.491342 276.31561 16.312206 2.3509886e-038
-9.6646662 273.65826 16.155333 2.3509886e-038
-4.997148 274.74557 16.219521 2.3509528e-038
-1.6620013 276.36591 16.315178 2.3509528e-038
5.0420861 272.09143 16.062834 2.3509528e-038
8.9752531 270.36536 15.960936 2.3509528e-038
13.658404 271.40341 16.022217 2.3509528e-038
17.253695 273.12665 16.123949 2.3509528e-038
-56.654804 284.48062 11.921545 2.3418409e-038
-53.378036 281.72055 11.80588 2.3418409e-038
-48.170654 279.50418 11.713 2.3418409e-038
-43.511673 280.33176 11.747681 2.3418409e-038
-39.182838 283.75552 11.891157 2.3418409e-038
-34.397465 284.37463 11.917102 2.3418409e-038
-29.276373 281.96469 11.816111 2.3418409e-038
-24.353018 280.88318 11.770789 2.3418409e-038
-19.528643 280.69186 11.762771 2.3418409e-038
-14.599046 278.36926 11.66544 2.3418409e-038
-9.7381105 275.73788 11.555168 2.3509886e-038
-5.0351572 276.83533 11.601157 2.3509886e-038
-1.1839948 278.53531 11.672398 2.3509886e-038
4.1104631 274.68353 11.510984 2.3509528e-038
4.4085383 274.3605 11.497447 2.3509528e-038
9.0170774 271.62521 11.382821 2.3509528e-038
13.711332 272.45514 11.4176 2.3509528e-038
17.322792 274.21954 11.49154 2.3509528e-038
-76.585655 287.81116 7.1313963 2.3418409e-038
-73.847389 286.24689 7.0926371 2.3418409e-038
-69.790359 285.33981 7.0701609 2.3418409e-038
-57.277016 287.66318 7.1277304 2.3418409e-038
-53.920467 284.5834 7.0514183 2.3418409e-038
-48.508766 281.46603 6.9741769 2.3418409e-038
-43.685989 281.45483 6.9738989 2.3418409e-038
-39.193611 283.83353 7.0328388 2.3418409e-038
-34.418144 284.54556 7.0504818 2.3418409e-038
-29.358677 282.75739 7.0061736 2.3418409e-038
-24.397524 281.39651 6.9724541 2.3418409e-038
-19.54977 280.99554 6.9625192 2.3418409e-038
-14.660435 279.53979 6.9264479 2.3418409e-038
-9.8079395 277.71512 6.8812361 2.3509886e-038
-5.0767608 279.12271 6.9161139 2.3509886e-038
-0.29801184 281.16165 6.9666352 2.3509886e-038
4.4485502 276.85062 6.8598156 2.3509886e-038
9.0918398 273.87735 6.7861438 2.3509528e-038
13.810401 274.42368 6.7996812 2.3509528e-038
17.434328 275.97479 6.8381138 2.3509886e-038
-80.720924 290.755 2.2241874 2.3418409e-038
-79.734322 289.82358 2.2170622 2.3418409e-038
-73.542328 285.06442 2.1806562 2.3418409e-038
-68.335335 283.7179 2.1703558 2.3418409e-038
-66.16787 284.47879 2.1761763 2.3418409e-038
-57.474777 288.64859 2.2080739 2.3418409e-038
-54.204544 286.08267 2.1884456 2.3418409e-038
-48.747383 282.85056 2.1637208 2.3418409e-038
-43.758781 281.9238 2.1566312 2.3418409e-038
-39.093967 283.11194 2.16572 2.3418409e-038
-34.353237 284.00897 2.1725824 2.3418409e-038
-29.406422 283.21719 2.1665254 2.3418409e-038
-24.454947 282.05881 2.1576641 2.3418409e-038
-19.579653 281.42505 2.1528161 2.3418409e-038
-14.703485 280.36063 2.1446736 2.3509886e-038
-9.8559523 279.07462 2.1348357 2.3509886e-038
-5.0962901 280.19647 2.1434178 2.3509886e-038
-0.29948241 282.54907 2.1614146 2.3509886e-038
4.4916239 279.53128 2.1383293 2.3509886e-038
9.1828213 276.61801 2.1160436 2.3509886e-038
13.92284 276.65796 2.1163492 2.3509886e-038
17.580193 278.01016 2.1266932 2.3509886e-038
-82.085579 291.55414 -2.7635396 2.3418409e-038
-79.627052 289.43369 -2.7434404 2.3418409e-038
-73.636536 285.4296 -2.705487 2.3418409e-038
-68.502625 284.41248 -2.6958461 2.3418409e-038
-64.92115 285.99649 -2.7108605 2.3418409e-038
-57.417519 288.08548 -2.7306614 2.3418409e-038
-54.244503 286.29361 -2.7136765 2.3418409e-038
-48.902039 283.74796 -2.6895471 2.3418409e-038
-43.866768 282.61954 -2.6788514 2.3418409e-038
-39.102955 283.17703 -2.6841357 2.3418409e-038
-34.350719 283.98819 -2.6918242 2.3418409e-038
-29.45323 283.668 -2.6887896 2.3418409e-038
-24.52017 282.81107 -2.6806669 2.3418409e-038
-19.635324 282.22525 -2.6751142 2.3509886e-038
-14.759226 281.42352 -2.6675146 2.3509886e-038
-9.9014244 280.36218 -2.657455 2.3509886e-038
-5.1045027 280.64795 -2.6601636 2.3509886e-038
-0.29928643 282.3642 -2.6764312 2.3509886e-038
4.5181217 281.1803 -2.6652093 2.3509886e-038
9.2619896 279.00284 -2.6445701 2.3509886e-038
14.037879 278.94388 -2.644011 2.3509886e-038
17.825003 280.5152 -2.658905 2.3509886e-038
-82.895348 293.71167 -7.8147845 2.3509886e-038
-80.139793 291.29742 -7.7505488 2.3418409e-038
-74.083672 287.16278 -7.6405382 2.3418409e-038
-69.014069 286.53589 -7.6238589 2.3418409e-038
-64.543198 288.48923 -7.6758308 2.3418409e-038
-64.126045 288.62567 -7.679461 2.3418409e-038
-57.712479 288.13559 -7.6664214 2.3418409e-038
-54.296673 286.56894 -7.6247377 2.3418409e-038
-49.062721 284.68027 -7.5744867 2.3418409e-038
-44.066761 283.90802 -7.5539389 2.3418409e-038
-39.25367 284.26846 -7.5635295 2.3418409e-038
-34.44669 284.78159 -7.5771818 2.3509886e-038
-29.543371 284.53619 -7.5706525 2.3509886e-038
-24.614861 283.90323 -7.5538116 2.3509886e-038
-19.725655 283.52359 -7.5437107 2.3509886e-038
-14.849058 283.13638 -7.5334082 2.3509886e-038
-9.9717245 282.35275 -7.512558 2.3509886e-038
-5.1258464 281.82147 -7.4984217 2.3509886e-038
-0.29912707 282.21384 -7.508862 2.3509886e-038
4.5304399 281.94693 -7.50176 2.3509886e-038
9.3255424 280.91727 -7.4743638 2.3509886e-038
14.154014 281.25156 -7.4832582 2.3509886e-038
18.309366 283.2002 -7.5351062 2.3509886e-038
-83.047447 296.31363 -12.959378 2.3509886e-038
-81.040657 294.57196 -12.883205 2.3509886e-038
-74.798424 289.93329 -12.680331 2.3418409e-038
-69.628181 289.0856 -12.643257 2.3418409e-038
-65.05764 290.78864 -12.717741 2.3418409e-038
-61.995369 290.66119 -12.712166 2.3509886e-038
-59.632992 289.89294 -12.678566 2.3509886e-038
-54.441475 287.33319 -12.566615 2.3509886e-038
-49.235962 285.68549 -12.494552 2.3509886e-038
-44.267334 285.20023 -12.47333 2.3509886e-038
-39.403641 285.35452 -12.480078 2.3509886e-038
-34.555721 285.68298 -12.494442 2.3509886e-038
-29.66329 285.69113 -12.4948 2.3509886e-038
-24.73642 285.30527 -12.477922 2.3509886e-038
-19.831661 285.04727 -12.46664 2.3509886e-038
-14.94668 284.99783 -12.464477 2.3509886e-038
-10.043937 284.39746 -12.438219 2.3509886e-038
-5.1531515 283.32272 -12.391215 2.3509886e-038
-0.29967731 282.73297 -12.365422 2.3509886e-038
4.5415025 282.63538 -12.361155 2.3509886e-038
9.3746433 282.39633 -12.350699 2.3509886e-038
14.245807 283.07553 -12.380405 2.3509886e-038
19.189102 285.47891 -12.485518 2.3509886e-038
-81.534378 295.80997 -18.004084 2.3509886e-038
-81.344856 295.6777 -17.996033 2.3509886e-038
-75.316422 291.94116 -17.768616 2.3509886e-038
-70.046722 290.82333 -17.700581 2.3509886e-038
-65.295265 291.85074 -17.763111 2.3509886e-038
-60.094196 290.87231 -17.703562 2.3509886e-038
-54.511738 287.70401 -17.510727 2.3509886e-038
-49.302998 286.07446 -17.411545 2.3509886e-038
-44.367901 285.84818 -17.397772 2.3509886e-038
-39.495003 286.01614 -17.407997 2.3509886e-038
-34.649204 286.45584 -17.434757 2.3509886e-038
-29.782406 286.83835 -17.458038 2.3509886e-038
-24.850555 286.6217 -17.444853 2.3509886e-038
-19.913696 286.22635 -17.420792 2.3509886e-038
-15.007071 286.14932 -17.416103 2.3509886e-038
-10.087875 285.6416 -17.385202 2.3509886e-038
-5.1746035 284.50214 -17.315849 2.3509886e-038
-0.30069628 283.69434 -17.266682 2.3509886e-038
4.5558763 283.52994 -17.256678 2.3509886e-038
9.4083805 283.41263 -17.249538 2.3509886e-038
14.296814 284.08911 -17.29071 2.3509886e-038
19.316658 286.37018 -17.429546 2.3509886e-038
20.323174 287.06403 -17.471773 2.3509886e-038
-79.386612 294.76355 -22.989187 2.3509886e-038
-75.600471 293.04221 -22.854935 2.3509886e-038
-70.295959 291.85809 -22.762583 2.3509886e-038
-65.387764 292.26419 -22.794256 2.3509886e-038
-60.175518 291.26593 -22.7164 2.3509886e-038
-54.502628 287.65594 -22.434849 2.3509886e-038
-49.232399 285.66479 -22.279556 2.3509886e-038
-44.348003 285.72 -22.283861 2.3509886e-038
-39.552128 286.42981 -22.339222 2.3509886e-038
-34.748074 287.27322 -22.405001 2.3509886e-038
-29.891991 287.89377 -22.453398 2.3509886e-038
-24.950006 287.76874 -22.443649 2.3509886e-038
-19.98023 287.18268 -22.39794 2.3509886e-038
-15.043676 286.84729 -22.371782 2.3509886e-038
-10.117553 286.4819 -22.343285 2.3509886e-038
-5.1947331 285.60889 -22.275196 2.3509886e-038
-0.30206674 284.9873 -22.226717 2.3509886e-038
4.575511 284.75186 -22.208353 2.3509886e-038
9.4415274 284.41113 -22.181782 2.3509886e-038
14.331259 284.77356 -22.210047 2.3509886e-038
19.35232 286.8989 -22.375805 2.3509886e-038
21.536777 288.38663 -22.491835 2.3509886e-038
-77.717743 295.55887 -28.113649 2.3509886e-038
-76.044144 294.76196 -28.037846 2.3509886e-038
-70.579201 293.03412 -27.873493 2.3509886e-038
-65.526169 292.88287 -27.859106 2.3509886e-038
-60.328568 292.00674 -27.775768 2.3509886e-038
-54.649258 288.42984 -27.435532 2.3509886e-038
-49.258648 285.81711 -27.18701 2.3509886e-038
-44.326954 285.58435 -27.164871 2.3509886e-038
-39.578304 286.61938 -27.263325 2.3509886e-038
-34.816944 287.84259 -27.379675 2.3509886e-038
-29.971058 288.65527 -27.456978 2.3509886e-038
-25.037081 288.77304 -27.468178 2.3509886e-038
-20.062012 288.35818 -27.428719 2.3509886e-038
-15.099709 287.91571 -27.386629 2.3509886e-038
-10.154964 287.54123 -27.351011 2.3509886e-038
-5.2177033 286.87183 -27.287334 2.3509886e-038
-0.30373716 286.56323 -27.257982 2.3509886e-038
4.6019154 286.39514 -27.241991 2.3509886e-038
9.4875088 285.79626 -27.185026 2.3509886e-038
14.380563 285.75327 -27.180939 2.3509886e-038
19.425415 287.98251 -27.392984 2.3509886e-038
22.688181 290.7637 -27.657532 2.3509886e-038
-76.753677 297.03461 -33.341732 2.3509886e-038
-76.607346 296.94504 -33.331676 2.3509886e-038
-70.890724 294.32748 -33.037865 2.3509886e-038
-65.711815 293.71259 -32.968838 2.3509886e-038
-60.557812 293.11633 -32.901909 2.3509886e-038
-54.951191 290.02338 -32.554729 2.3509886e-038
-49.431835 286.82202 -32.195381 2.3509886e-038
-44.359444 285.7937 -32.079952 2.3509886e-038
-39.570438 286.56244 -32.166245 2.3509886e-038
-34.826694 287.92322 -32.318989 2.3509886e-038
-30.017181 289.09952 -32.451031 2.3509886e-038
-25.124655 289.78308 -32.52776 2.3509886e-038
-20.165379 289.84387 -32.534584 2.3509886e-038
-15.176677 289.38333 -32.482883 2.3509886e-038
-10.195978 288.70255 -32.406467 2.3509886e-038
-5.2400446 288.10013 -32.338848 2.3509886e-038
-0.30552682 288.25177 -32.355865 2.3509886e-038
4.6322131 288.28067 -32.359112 2.3509886e-038
9.545043 287.52939 -32.274784 2.3509886e-038
14.456695 287.26608 -32.245228 2.3509886e-038
19.528269 289.50732 -32.496807 2.3509886e-038
23.382395 293.26099 -32.918148 2.3509886e-038
-76.111404 297.27368 -38.460377 2.3509886e-038
-70.973228 294.67001 -38.123524 2.3509886e-038
-65.716484 293.73349 -38.002354 2.3509886e-038
-60.616352 293.39969 -37.959171 2.3509886e-038
-55.18541 291.25955 -37.682289 2.3509886e-038
-49.675442 288.2355 -37.291042 2.3509886e-038
-44.467476 286.48969 -37.065174 2.3509886e-038
-39.58363 286.65799 -37.086948 2.3509886e-038
-34.83828 288.01898 -37.263027 2.3509886e-038
-30.068113 289.59003 -37.466286 2.3509886e-038
-25.208307 290.74796 -37.616093 2.3509886e-038
-20.256641 291.15567 -37.668842 2.3509886e-038
-15.247374 290.73135 -37.613949 2.3509886e-038
-10.239419 289.93259 -37.510605 2.3509886e-038
-5.267005 289.58243 -37.465305 2.3509886e-038
-0.30730352 289.92795 -37.510006 2.3509886e-038
4.6545262 289.66931 -37.476543 2.3509886e-038
9.5856485 288.75256 -37.357937 2.3509886e-038
14.531365 288.74985 -37.357586 2.3509886e-038
19.63195 291.0444 -37.654453 2.3509886e-038
23.243256 294.24091 -38.068001 2.3509886e-038
-75.648567 297.00287 -43.512508 2.3509886e-038
-70.899117 294.36234 -43.125656 2.3509886e-038
-65.55677 293.01962 -42.92894 2.3509886e-038
-60.479843 292.73895 -42.887817 2.3509886e-038
-55.245037 291.57428 -42.71719 2.3509886e-038
-49.885708 289.45557 -42.406788 2.3509886e-038
-44.634457 287.56549 -42.129883 2.3509886e-038
-39.63348 287.01898 -42.049812 2.3509886e-038
-34.836571 288.00488 -42.194252 2.3509886e-038
-30.094786 289.84692 -42.464123 2.3509886e-038
-25.275229 291.51981 -42.709206 2.3509886e-038
-20.330292 292.21423 -42.810947 2.3509886e-038
-15.309092 291.90814 -42.766102 2.3509886e-038
-10.291917 291.41913 -42.694458 2.3509886e-038
-5.3008256 291.44189 -42.697796 2.3509886e-038
-0.30901647 291.54407 -42.712765 2.3509886e-038
4.6710238 290.69598 -42.588516 2.3509886e-038
9.6151361 289.64081 -42.433926 2.3509886e-038
14.597872 290.07138 -42.497005 2.3509886e-038
19.73947 292.6384 -42.873089 2.3509886e-038
22.543486 294.7756 -43.186199 2.3509886e-038
-74.86235 296.70465 -48.550877 2.3509886e-038
-70.817322 294.02274 -48.112026 2.3509886e-038
-65.343025 292.06421 -47.791546 2.3509886e-038
-60.217953 291.47134 -47.69453 2.3509886e-038
-55.073917 290.67111 -47.563587 2.3509886e-038
-49.885357 289.45352 -47.364349 2.3509886e-038
-44.724705 288.14694 -47.150547 2.3509886e-038
-39.696842 287.47784 -47.041061 2.3509886e-038
-34.860924 288.20618 -47.16024 2.3509886e-038
-30.149126 290.3703 -47.514359 2.3509886e-038
-25.374573 292.66559 -47.88995 2.3509886e-038
-20.424215 293.56424 -48.036995 2.3509886e-038
-15.38189 293.29623 -47.993145 2.3509886e-038
-10.355326 293.21454 -47.979774 2.3509886e-038
-5.3356867 293.35858 -48.003349 2.3509886e-038
-0.3105706 293.01031 -47.946362 2.3509886e-038
4.6908245 291.92828 -47.769306 2.3509886e-038
9.6613417 291.03271 -47.622757 2.3509886e-038
14.692721 291.95609 -47.773853 2.3509886e-038
19.918743 295.29614 -48.320393 2.3509886e-038
21.725958 296.86789 -48.577583 2.3509886e-038
-73.136978 295.48038 -53.411629 2.3509886e-038
-70.751305 293.74863 -53.098595 2.3509886e-038
-65.136864 291.14276 -52.627556 2.3509886e-038
-59.893082 289.89886 -52.402706 2.3509886e-038
-54.744644 288.93329 -52.228165 2.3509886e-038
-49.671562 288.21298 -52.097961 2.3509886e-038
-44.653454 287.6879 -52.003044 2.3509886e-038
-39.70607 287.54468 -51.977158 2.3509886e-038
-34.906059 288.57935 -52.164185 2.3509886e-038
-30.228895 291.13855 -52.626797 2.3509886e-038
-25.481953 293.90408 -53.126701 2.3509886e-038
-20.535608 295.16534 -53.354679 2.3509886e-038
-15.479823 295.1636 -53.35437 2.3509886e-038
-10.425384 295.19824 -53.36063 2.3509886e-038
-5.3664169 295.04816 -53.3335 2.3509886e-038
-0.31194735 294.30923 -53.199932 2.3509886e-038
4.7137995 293.35809 -53.028004 2.3509886e-038
9.7244034 292.93234 -52.951042 2.3509886e-038
14.818664 294.45868 -53.226948 2.3509886e-038
20.140909 298.58972 -53.973686 2.3509886e-038
20.866163 299.35004 -54.111115 2.3509886e-038
-70.53595 293.6676 -58.113972 2.3509886e-038
-65.059715 290.79791 -57.546085 2.3509886e-038
-59.684193 288.88776 -57.168087 2.3509886e-038
-54.480263 287.5379 -56.900959 2.3509886e-038
-49.444969 286.89822 -56.774376 2.3509886e-038
-44.509933 286.76321 -56.747662 2.3509886e-038
-39.650169 287.13983 -56.822189 2.3509886e-038
-34.917183 288.67133 -57.125252 2.3509886e-038
-30.268372 291.51874 -57.688732 2.3509886e-038
-25.544962 294.63086 -58.304585 2.3509886e-038
-20.635872 296.60645 -58.695541 2.3509886e-038
-15.585836 297.185 -58.810028 2.3509886e-038
-10.492818 297.10767 -58.794727 2.3509886e-038
-5.3940563 296.56778 -58.687885 2.3509886e-038
-0.31338343 295.66412 -58.509064 2.3509886e-038
4.7395201 294.9588 -58.369484 2.3509886e-038
9.7984571 295.16306 -58.409908 2.3509886e-038
14.975998 297.58505 -58.889191 2.3509886e-038
20.036797 302.26871 -59.816044 2.3509886e-038
-67.906624 293.56073 -63.121037 2.3509886e-038
-65.385719 292.25507 -62.84029 2.3509886e-038
-59.813736 289.5148 -62.251083 2.3509886e-038
-54.476048 287.51566 -61.821228 2.3509886e-038
-49.411564 286.70438 -61.64679 2.3509886e-038
-44.481541 286.58032 -61.620113 2.3509886e-038
-39.644783 287.10083 -61.732033 2.3509886e-038
-34.939407 288.85504 -62.109222 2.3509886e-038
-30.297565 291.79993 -62.742428 2.3509886e-038
-25.595018 295.20819 -63.475266 2.3509886e-038
-20.724358 297.8783 -64.049385 2.3509886e-038
-15.676204 298.90811 -64.270813 2.3509886e-038
-10.549195 298.70404 -64.226936 2.3509886e-038
-5.4196806 297.97659 -64.070526 2.3509886e-038
-0.31502283 297.21082 -63.905865 2.3509886e-038
4.7715235 296.95053 -63.849895 2.3509886e-038
9.8943424 298.05145 -64.086617 2.3509886e-038
15.20203 302.07648 -64.952072 2.3509886e-038
19.313616 307.34436 -66.084763 2.3509886e-038
-65.701622 295.96057 -68.706352 2.3509886e-038
-60.32563 291.99252 -67.785179 2.3509886e-038
-54.748302 288.95258 -67.079475 2.3509886e-038
-49.604832 287.82584 -66.817902 2.3509886e-038
-44.649372 287.66162 -66.779778 2.3509886e-038
-39.799946 288.22452 -66.910454 2.3509886e-038
-35.066803 289.90826 -67.301331 2.3509886e-038
-30.38677 292.65909 -67.939919 2.3509886e-038
-25.669809 296.0708 -68.731949 2.3509886e-038
-20.799728 298.96161 -69.403038 2.3509886e-038
-15.738976 300.10501 -69.668472 2.3509886e-038
-10.591545 299.9032 -69.62162 2.3509886e-038
-5.4431353 299.26617 -69.47374 2.3509886e-038
-0.31680524 298.89243 -69.386978 2.3509886e-038
4.811522 299.43976 -69.514038 2.3509886e-038
10.024799 301.98126 -70.104042 2.3509886e-038
15.52562 308.5065 -71.618858 2.3509886e-038
18.462578 313.77417 -72.841728 2.3509886e-038
-62.712818 296.6879 -73.956978 2.3509886e-038
-60.980537 295.16245 -73.576721 2.3509886e-038
-55.213764 291.40918 -72.641129 2.3509886e-038
-49.963612 289.90756 -72.266808 2.3509886e-038
-44.95121 289.60623 -72.191696 2.3509886e-038
-40.077847 290.237 -72.34893 2.3509886e-038
-35.288406 291.7403 -72.723663 2.3509886e-038
-30.536865 294.10468 -73.313042 2.3509886e-038
-25.767916 297.20236 -74.08522 2.3509886e-038
-20.870197 299.97449 -74.776245 2.3509886e-038
-15.797654 301.22388 -75.087685 2.3509886e-038
-10.637248 301.19727 -75.081047 2.3509886e-038
-5.4719911 300.85266 -74.995148 2.3509886e-038
-0.31906092 301.0206 -75.03701 2.3509886e-038
4.8622322 302.59564 -75.429634 2.3509886e-038
10.189634 306.94666 -76.514236 2.3509886e-038
15.921524 316.37338 -78.864082 2.3509886e-038
17.186634 319.22281 -79.574379 2.3509886e-038
-58.791775 296.6969 -79.041145 2.3509886e-038
-55.962242 295.35956 -78.684868 2.3509886e-038
-50.581623 293.4935 -78.187752 2.3509886e-038
-45.397881 292.48401 -77.918823 2.3509886e-038
-40.413532 292.668 -77.967827 2.3509886e-038
-35.54541 293.86505 -78.286728 2.3509886e-038
-30.73675 296.02979 -78.863419 2.3509886e-038
-25.918692 298.94138 -79.639076 2.3509886e-038
-20.995188 301.77106 -80.392914 2.3509886e-038
-15.919054 303.53867 -80.863815 2.3509886e-038
-10.733562 303.92441 -80.966576 2.3509886e-038
-5.5269566 303.87469 -80.953339 2.3509886e-038
-0.32274869 304.49988 -81.119881 2.3509886e-038
4.9309497 306.87222 -81.751892 2.3509886e-038
10.380219 312.68771 -83.301155 2.3509886e-038
15.204155 321.5535 -85.663033 2.3509886e-038
-54.262749 301.62943 -85.521599 2.3509886e-038
-51.729256 300.1525 -85.102852 2.3509886e-038
-46.141457 297.27463 -84.286873 2.3509886e-038
-40.901268 296.2001 -83.982216 2.3509886e-038
-35.905563 296.84256 -84.164368 2.3509886e-038
-31.045712 299.00543 -84.777611 2.3509886e-038
-26.198029 302.16321 -85.672943 2.3509886e-038
-21.258657 305.55795 -86.635468 2.3509886e-038
-16.172979 308.38043 -87.435722 2.3509886e-038
-10.935712 309.64838 -87.795227 2.3509886e-038
-5.6383934 310.00156 -87.89537 2.3509886e-038
-0.32932207 310.70154 -88.093842 2.3509886e-038
5.0290165 312.97528 -88.738518 2.3509886e-038
10.598313 319.25748 -90.519722 2.3509886e-038
11.583067 320.85852 -90.973663 2.3509886e-038
-43.84359 302.15756 -90.846802 2.3509886e-038
-41.64217 301.56558 -90.668823 2.3509886e-038
-36.536621 302.05972 -90.817383 2.3509886e-038
-31.617075 304.5083 -91.553574 2.3509886e-038
-26.720308 308.18707 -92.659637 2.3509886e-038
-21.750406 312.62604 -93.994263 2.3509886e-038
-16.612144 316.75427 -95.235458 2.3509886e-038
-11.264987 318.97189 -95.902214 2.3509886e-038
-5.8239369 320.20279 -96.272293 2.3509886e-038
-0.34060293 321.34457 -96.615585 2.3509886e-038
2.8838258 321.95099 -96.797905 2.3509886e-038
-79.78183 289.99631 3.839834 2.3418409e-038
-81.344818 295.67755 -18.470741 2.3509886e-038
-73.996376 286.8244 8.1365938 2.3418409e-038
-76.662758 297.15982 -34.084366 2.3509886e-038
-68.616684 284.88602 6.0918851 2.3418409e-038
-70.759476 293.78256 -57.744637 2.3509886e-038
-64.379036 287.75549 -6.1860428 2.3418409e-038
-66.105751 295.47339 -67.667534 2.3509886e-038
-59.924255 290.04977 -12.857099 2.3509886e-038
-61.228207 296.36124 -75.851135 2.3509886e-038
-52.08873 274.91577 70.850136 2.3509886e-038
-56.608112 298.76834 -82.277161 2.3509886e-038
-47.014275 272.79443 72.253616 2.3509886e-038
-52.209267 302.93771 -87.435257 2.3509886e-038
-42.093266 271.19342 61.859104 9.1476764e-041
-46.9711 302.61975 -89.878075 2.3509886e-038
-37.83287 273.97928 44.157513 2.3509528e-038
-41.756592 302.39423 -91.615196 2.3509886e-038
-32.53738 268.99673 81.070419 9.1476764e-041
-36.903992 305.09686 -94.003334 2.3509886e-038
-27.854548 268.27087 83.01297 9.1476764e-041
-32.143906 309.58231 -96.658554 2.3509886e-038
-23.388191 269.75507 76.787155 9.1476764e-041
-27.24868 314.28122 -98.829872 2.3509886e-038
-18.869171 271.21304 72.980515 9.1476764e-041
-22.230129 319.52127 -100.31389 2.3509886e-038
-14.203369 270.82465 71.921089 9.1476764e-041
-16.971449 323.60535 -100.89207 2.3509886e-038
-9.6129742 272.19458 68.901505 2.3509886e-038
-11.460096 324.49652 -100.31294 2.3509886e-038
-5.0047812 275.16525 46.421108 2.3509528e-038
-5.9031534 324.55817 -99.568161 2.3509886e-038
-0.2963762 279.61853 9.6063042 2.3509886e-038
-0.34311047 323.71033 -98.309349 2.3509886e-038
4.400444 273.85678 12.76523 2.3509528e-038
5.1541719 320.76422 -95.528984 2.3509886e-038
9.1345425 275.16367 43.898487 2.3509886e-038
10.63878 320.47647 -91.763176 2.3509886e-038
13.915292 276.50797 43.395866 2.3509886e-038
16.160339 321.11887 -83.278084 2.3509886e-038
19.266613 285.62827 -12.881972 2.3509886e-038
20.311621 301.12054 -57.812977 2.3509886e-038
