# .PCD v0.7 - Point Cloud Data file format
VERSION 0.7
FIELDS x y z rgb
SIZE 4 4 4 4
TYPE F F F F
COUNT 1 1 1 1
WIDTH 763
HEIGHT 1
VIEWPOINT 0 0 0 1 0 0 0
POINTS 763
DATA ascii
-75.191582 275.26212 59.634701 2.3418052e-038
-101.75514 284.28113 -12.049952 9.1476764e-041
-29.793564 275.04254 75.131592 3.5733111e-043
43.220207 269.9064 25.423653 2.3509528e-038
5.1222773 271.89948 64.028473 2.3418409e-038
-35.163937 278.06717 78.654839 3.5733111e-043
-35.107456 278.0174 78.640762 3.5733111e-043
-30.128139 275.77145 78.00547 3.5733111e-043
-26.58816 276.66013 78.256828 3.5733111e-043
-36.439888 279.28204 74.242989 3.5733111e-043
-35.122559 278.13699 73.938591 3.5733111e-043
-30.165775 276.11597 73.401329 3.5733111e-043
-25.578079 277.35074 73.729576 3.5733111e-043
-25.179289 277.57556 73.789345 3.5733111e-043
-36.297096 277.96136 69.158913 3.5733111e-043
-34.999184 277.16 68.959518 3.5733111e-043
-30.162815 276.08887 68.693016 3.5733111e-043
-25.588697 277.46585 69.035622 3.5733111e-043
-24.226919 278.4371 69.277283 3.5733111e-043
1.856724 271.03235 67.434921 2.3418409e-038
2.6933484 270.8974 67.401344 2.3418409e-038
7.3115983 271.10278 67.452446 2.3418409e-038
8.4080763 271.50327 67.552094 2.3418409e-038
-79.701889 276.37576 64.058411 2.3418052e-038
-76.928749 275.2117 63.788601 2.3418052e-038
-72.160828 274.90027 63.716419 2.3418052e-038
-72.03968 274.93835 63.725246 2.3418052e-038
-36.008068 277.03677 64.211624 3.5733111e-043
-34.926704 276.58603 64.10714 3.5733111e-043
-30.173664 276.18817 64.014923 3.5733111e-043
-25.60969 277.69348 64.363831 3.5733111e-043
-23.628321 279.35632 64.749245 3.5733111e-043
-0.2857503 271.6192 62.955933 2.3418409e-038
2.6981218 271.3775 62.89991 2.3418409e-038
7.3395171 272.13797 63.076176 2.3418409e-038
9.952877 273.694 63.436829 2.3418409e-038
-80.73497 276.68774 59.419403 2.3418052e-038
-76.907196 275.13458 59.085861 2.3418052e-038
-72.145027 274.84009 59.022617 2.3418052e-038
-69.169792 276.30447 59.337097 2.3418052e-038
-35.969593 277.15189 59.519077 3.5733111e-043
-34.951595 276.78311 59.439884 3.5733111e-043
-30.208628 276.50818 59.380844 3.5733111e-043
-25.655184 278.1868 59.741329 3.5733111e-043
-23.3248 280.46057 60.229626 3.5733111e-043
-1.5139318 272.02533 58.418137 2.3418409e-038
2.703109 271.87915 58.386742 2.3418409e-038
7.3611455 272.93991 58.614548 2.3418409e-038
10.092448 274.37259 58.922215 2.3418409e-038
-80.320786 277.28625 54.826439 2.3418052e-038
-77.064209 275.69632 54.512066 2.3418052e-038
-72.122688 274.75497 54.325939 2.3418052e-038
-67.766838 276.069 54.585758 2.3418052e-038
-67.144615 276.52518 54.675953 2.3418052e-038
-36.289085 277.9978 54.967125 3.5733111e-043
-35.039173 277.47665 54.864086 3.5733111e-043
-30.264605 277.02057 54.773903 3.5733111e-043
-25.722513 278.91687 55.148846 3.5733111e-043
-23.081476 281.68292 55.695766 3.5733111e-043
-2.5259595 272.96921 53.972851 2.3418409e-038
-1.9318153 272.65503 53.910728 2.3418409e-038
2.7091401 272.48572 53.877254 2.3418409e-038
7.3829308 273.74768 54.126774 2.3418409e-038
9.6029081 274.74573 54.324112 2.3418409e-038
-79.368858 277.75528 50.189697 2.3418052e-038
-77.312126 276.58322 49.977905 2.3418052e-038
-72.256439 275.2645 49.739613 2.3418052e-038
-67.845695 276.39026 49.943039 2.3418052e-038
-65.624229 278.50537 50.325233 2.3418052e-038
-37.000191 279.62189 50.526989 3.5733111e-043
-35.180725 278.59763 50.341904 3.5733111e-043
-30.332689 277.64377 50.169544 3.5733111e-043
-25.758152 279.30331 50.469418 3.5733111e-043
-22.581493 281.99689 50.956139 3.5733111e-043
-3.5356526 273.60043 49.438923 2.3418409e-038
-1.9340428 272.96942 49.324902 2.3418409e-038
2.7143352 273.00827 49.331917 2.3418409e-038
7.4094791 274.73206 49.643406 2.3418409e-038
8.9252253 275.68518 49.815632 2.3418409e-038
-77.82708 277.00107 45.336761 2.3418052e-038
-77.368034 276.78323 45.301102 2.3418052e-038
-72.437904 275.95584 45.165684 2.3418052e-038
-68.072319 277.31348 45.38789 2.3418052e-038
-64.004631 280.17749 45.856644 2.3418052e-038
-63.82449 280.39706 45.892578 2.3418052e-038
-37.93895 281.85123 46.130581 3.5733111e-043
-35.344193 279.89212 45.809937 3.5733111e-043
-30.40377 278.29437 45.548435 3.5733111e-043
-25.760927 279.33337 45.718487 3.5733111e-043
-21.768194 281.34937 46.048443 3.5733111e-043
-4.6256995 273.55481 44.772705 2.3418409e-038
-1.9330887 272.83475 44.654858 2.3418409e-038
2.7163503 273.21094 44.716431 2.3418409e-038
7.425632 275.33096 45.063412 2.3418409e-038
8.3544216 276.1882 45.203716 2.3418409e-038
-76.295349 276.50162 40.546879 2.3418052e-038
-72.554077 276.39835 40.531734 2.3418052e-038
-68.165474 277.69296 40.721581 2.3418052e-038
-63.843773 279.47336 40.982662 2.3418052e-038
-61.666035 281.27121 41.246304 2.3418052e-038
-38.559853 283.67444 41.598717 3.5733111e-043
-35.478436 280.9552 41.199959 3.5733111e-043
-30.487303 279.05899 40.921898 3.5733111e-043
-25.796875 279.72321 41.019299 3.5733111e-043
-21.144161 281.16931 41.231361 3.5733111e-043
-5.8702016 274.08514 40.19252 2.3418409e-038
-1.932372 272.73361 39.994324 2.3418409e-038
2.7147841 273.05341 40.041222 2.3418409e-038
7.4195776 275.10648 40.342293 2.3418409e-038
8.0156174 275.76904 40.439453 2.3418409e-038
-75.146622 277.16556 35.924797 2.3418052e-038
-72.689217 276.91324 35.89209 2.3418052e-038
-68.133026 277.56079 35.976025 2.3418052e-038
-63.690826 278.80386 36.137146 2.3418052e-038
-59.539436 281.07498 36.431515 2.3418052e-038
-38.252075 283.80624 36.785526 3.5733111e-043
-35.552464 281.54144 36.491974 3.5733111e-043
-30.571224 279.82715 36.269775 3.5733111e-043
-25.862925 280.43939 36.349133 3.5733111e-043
-21.177212 281.62927 36.503361 2.3509886e-038
-21.016068 281.68762 36.510921 2.3509886e-038
-7.2788467 274.66391 35.600544 2.3418409e-038
-6.6116123 274.19604 35.539902 2.3418409e-038
-1.9297862 272.36865 35.303043 2.3418409e-038
2.7105429 272.62683 35.336506 2.3418409e-038
7.4059863 274.60254 35.59259 2.3418409e-038
7.7746758 275.03592 35.648762 2.3418409e-038
-74.102066 278.2561 31.328127 2.3418052e-038
-72.989944 278.05884 31.305912 2.3418052e-038
-68.218689 277.90976 31.289131 2.3418052e-038
-63.607365 278.43851 31.348661 2.3418052e-038
-59.066429 279.38541 31.455271 2.3418052e-038
-57.417103 279.97937 31.522144 2.3418052e-038
-37.508018 283.00339 31.86261 3.5733111e-043
-35.551376 281.53284 31.697042 3.5733111e-043
-30.610991 280.19113 31.545986 3.5733111e-043
-25.930677 281.17404 31.656645 3.5733111e-043
-21.365309 282.68213 31.826441 2.3509886e-038
-8.7888918 275.42978 31.009918 2.3509886e-038
-6.6012325 273.76559 30.822552 2.3418409e-038
-1.9287515 272.2226 30.648829 2.3418409e-038
2.711585 272.73163 30.706139 2.3418409e-038
7.3332496 275.04678 30.966799 2.3418409e-038
-73.107399 280.04092 26.760674 2.3418052e-038
-68.499352 279.05313 26.666279 2.3418052e-038
-63.688747 278.79477 26.64159 2.3418052e-038
-59.037388 279.24805 26.684906 2.3418052e-038
-55.616764 280.66953 26.820744 2.3418052e-038
-37.046036 283.36453 27.078276 3.5733111e-043
-35.624504 282.11191 26.958576 3.5733111e-043
-30.651102 280.55829 26.810112 3.5733111e-043
-26.030228 282.25351 26.972107 3.5733111e-043
-21.944633 284.40726 27.177919 2.3509886e-038
-10.307065 276.96426 26.466669 2.3509886e-038
-6.6116438 274.19736 26.202263 2.3418409e-038
-1.9350202 273.10739 26.098104 2.3418409e-038
2.7258668 274.16809 26.199467 2.3418409e-038
6.5974069 276.35873 26.408802 2.3418409e-038
38.117626 270.46292 25.845402 2.3509528e-038
39.481491 270.12033 25.812662 2.3509528e-038
44.103222 270.25674 25.825699 2.3509528e-038
48.573624 272.33997 26.024771 2.3509528e-038
-71.93428 282.07053 22.151649 2.3418052e-038
-68.881989 280.61194 22.037102 2.3418052e-038
-63.859917 279.54407 21.953239 2.3418052e-038
-59.180943 279.92706 21.98332 2.3418052e-038
-54.873474 282.2883 22.168755 2.3418052e-038
-53.94701 283.73749 22.28256 2.3418052e-038
-37.067318 284.55057 22.346413 3.5733111e-043
-35.755291 283.14764 22.236237 3.5733111e-043
-30.726255 281.24619 22.086912 3.5733111e-043
-26.16474 283.71207 22.280563 3.5733111e-043
-22.354628 286.63632 22.510212 2.3509886e-038
-11.696192 278.43817 21.866392 2.3509886e-038
-11.446028 278.21927 21.849201 2.3509886e-038
-6.637146 275.255 21.616411 2.3418409e-038
-1.9492667 275.1181 21.605661 2.3418409e-038
2.7576435 277.3642 21.782049 2.3418409e-038
5.5877957 279.46033 21.946665 2.3418409e-038
34.242241 272.48618 21.39897 2.3509528e-038
35.127792 272.02374 21.362652 2.3509528e-038
39.625946 271.10864 21.290787 2.3509528e-038
44.423725 272.22076 21.378124 2.3509528e-038
47.274643 273.64496 21.489971 2.3509528e-038
-70.217636 282.68338 17.386381 2.3418052e-038
-69.240616 282.07291 17.348833 2.3418052e-038
-64.023773 280.26132 17.237411 2.3418052e-038
-59.305988 280.51852 17.253233 2.3418052e-038
-54.974331 282.80716 17.393995 2.3418052e-038
-51.862724 287.74854 17.697914 2.3418052e-038
-37.97131 286.77518 17.638046 3.5733111e-043
-35.919022 284.44421 17.49468 3.5733111e-043
-30.848988 282.3696 17.367083 3.5733111e-043
-26.23303 284.45255 17.495195 2.3509886e-038
-21.921516 286.97641 17.650423 2.3509886e-038
-13.27888 279.69861 17.202805 2.3509886e-038
-11.450898 278.33765 17.119099 2.3509886e-038
-6.6702046 276.62598 17.013824 2.3418409e-038
-1.9689505 277.89627 17.091951 2.3418409e-038
2.8033152 281.95786 17.341759 2.3418409e-038
4.3817487 283.90378 17.461441 2.3418409e-038
30.133814 272.15594 16.738894 2.3509528e-038
30.501623 272.07477 16.7339 2.3509528e-038
35.082756 271.67499 16.709312 2.3509528e-038
39.820011 272.43637 16.756142 2.3509528e-038
44.997528 275.73694 16.959143 2.3509528e-038
45.242603 275.98883 16.974634 2.3509528e-038
-68.285782 282.51999 12.565718 2.3418052e-038
-64.226784 281.14999 12.504784 2.3418052e-038
-59.467079 281.28049 12.510589 2.3418052e-038
-55.013958 283.01102 12.587558 2.3418052e-038
-50.811863 286.48914 12.742254 2.3418052e-038
-47.951309 289.14111 12.860207 2.3509886e-038
-40.606499 288.77972 12.844134 2.3509886e-038
-36.042152 285.41931 12.694672 2.3509886e-038
-30.992908 283.68695 12.61762 2.3509886e-038
-26.207422 284.1749 12.639323 2.3509886e-038
-21.435951 285.07019 12.679143 2.3509886e-038
-17.928911 283.57532 12.612656 2.3509886e-038
-17.752289 283.46277 12.60765 2.3509886e-038
-16.436586 282.57178 12.56802 2.3509886e-038
-11.493382 279.3703 12.425629 2.3509886e-038
-6.713522 278.42245 12.383471 2.3418409e-038
-1.9889907 280.72473 12.485869 2.3418409e-038
2.8515897 286.81332 12.756673 2.3418409e-038
3.0877762 287.22333 12.77491 2.3418409e-038
25.738808 271.83694 12.090565 2.3509528e-038
25.839645 271.76743 12.087474 2.3509528e-038
30.315569 270.41516 12.027328 2.3509528e-038
35.018425 271.17682 12.061204 2.3509528e-038
39.922741 273.13922 12.148486 2.3509528e-038
42.188099 274.96994 12.229912 2.3509528e-038
-66.745514 283.88733 7.7926359 2.3418052e-038
-64.726418 283.33713 7.7775331 2.3418052e-038
-59.856884 283.1243 7.7716908 2.3418052e-038
-55.160648 283.76566 7.7892957 2.3418052e-038
-50.512711 284.8024 7.8177547 2.3509886e-038
-45.810947 285.72382 7.8430467 2.3509886e-038
-41.0084 286.16086 7.8550439 2.3509886e-038
-36.094479 285.83368 7.8460631 2.3509886e-038
-31.120647 284.85617 7.8192306 2.3509886e-038
-26.193558 284.02454 7.7964025 2.3509886e-038
-21.330811 283.67194 7.7867236 2.3509886e-038
-16.451147 282.82208 7.7633953 2.3509886e-038
-11.555868 280.88919 7.7103376 2.3509886e-038
-6.7539926 280.10086 7.6886983 2.3509886e-038
-2.0022542 282.59677 7.7572107 2.3509886e-038
2.0237072 288.66077 7.9236655 2.3509886e-038
21.293213 274.18124 7.5262065 2.3509528e-038
21.394316 274.10175 7.5240235 2.3509528e-038
25.786718 271.21078 7.4446683 2.3509528e-038
30.31591 270.41818 7.4229121 2.3509528e-038
35.088959 271.72302 7.4587293 2.3509528e-038
38.915577 273.91211 7.5188184 2.3509528e-038
-65.765625 286.83942 2.9894965 2.3418052e-038
-65.503738 286.73981 2.9884582 2.3418052e-038
-60.347092 285.44299 2.9749424 2.3418052e-038
-55.39706 284.98181 2.9701362 2.3509886e-038
-50.526642 284.88095 2.969085 2.3509886e-038
-45.679176 284.90195 2.9693036 2.3509886e-038
-40.903721 285.43036 2.9748111 2.3509886e-038
-36.117744 286.01791 2.9809346 2.3509886e-038
-31.194267 285.53003 2.9758496 2.3509886e-038
-26.223587 284.35016 2.963553 2.3509886e-038
-21.331717 283.68399 2.95661 2.3509886e-038
-16.481041 283.336 2.9529829 2.3509886e-038
-11.604774 282.07797 2.9398718 2.3509886e-038
-6.7785392 281.11884 2.9298754 2.3509886e-038
-2.0044451 282.90594 2.9485009 2.3509528e-038
2.1196654 287.90204 3.0005713 2.3509528e-038
16.200388 276.4689 2.8814127 2.3509528e-038
16.840754 275.96506 2.8761618 2.3509528e-038
21.347479 273.50165 2.8504875 2.3509528e-038
25.854851 271.92737 2.83408 2.3509528e-038
30.486961 271.944 2.8342533 2.3509528e-038
35.432621 274.38428 2.8596869 2.3509528e-038
35.705841 274.60785 2.8620164 2.3509528e-038
-65.170174 289.23874 -1.9105155 2.3509886e-038
-60.681557 287.02499 -1.8958931 2.3509886e-038
-55.566288 285.85242 -1.8881477 2.3509886e-038
-50.645206 285.54947 -1.8861468 2.3509886e-038
-45.783146 285.55042 -1.886153 2.3509886e-038
-40.982269 285.97849 -1.8889806 2.3509886e-038
-36.164318 286.38672 -1.891677 2.3509886e-038
-31.231251 285.86856 -1.8882544 2.3509886e-038
-26.268106 284.83289 -1.8814135 2.3509886e-038
-21.38167 284.3483 -1.8782127 2.3509886e-038
-16.528646 284.15445 -1.8769321 2.3509886e-038
-11.648944 283.15158 -1.8703078 2.3509886e-038
-6.7990861 281.97095 -1.8625094 2.3509886e-038
-2.0014715 282.48627 -1.8659133 2.3509528e-038
2.8296359 284.60519 -1.8799095 2.3509528e-038
7.6471515 283.54456 -1.8729037 2.3509528e-038
12.29245 279.39063 -1.8454657 2.3509528e-038
16.878447 276.5827 -1.8269185 2.3509528e-038
21.445515 274.75769 -1.8148636 2.3509528e-038
26.04723 273.95068 -1.8095331 2.3509528e-038
30.782761 274.58252 -1.8137064 2.3509528e-038
32.308338 275.30923 -1.8185066 2.3509528e-038
-109.08401 282.86905 -6.6850095 9.1476764e-041
-107.90418 282.70041 -6.6810246 9.1476764e-041
-103.40553 283.56433 -6.7014413 9.1476764e-041
-99.535881 286.32227 -6.7666192 9.1476764e-041
-99.095978 286.75726 -6.7768993 9.1476764e-041
-64.86618 290.46381 -6.8644958 2.3509886e-038
-60.901737 288.06647 -6.8078399 2.3509886e-038
-55.68705 286.47363 -6.7701964 2.3509886e-038
-50.759743 286.19525 -6.7636175 2.3509886e-038
-45.931721 286.47705 -6.7702775 2.3509886e-038
-41.11919 286.93396 -6.781075 2.3509886e-038
-36.252884 287.08807 -6.7847176 2.3509886e-038
-31.301788 286.51422 -6.7711558 2.3509886e-038
-26.34886 285.70853 -6.7521148 2.3509886e-038
-21.45841 285.36884 -6.7440867 2.3509886e-038
-16.594511 285.28671 -6.7421465 2.3509886e-038
-11.709691 284.62814 -6.7265825 2.3509886e-038
-6.8365979 283.52664 -6.7005501 2.3509886e-038
-2.0051973 283.01212 -6.6883907 2.3509528e-038
2.8142169 283.05435 -6.6893892 2.3509528e-038
7.6084967 282.11133 -6.6671028 2.3509528e-038
12.32563 280.14478 -6.6206274 2.3509528e-038
16.992065 278.44458 -6.5804472 2.3509528e-038
21.641455 277.26807 -6.5526423 2.3509528e-038
26.335718 276.98486 -6.5459499 2.3509528e-038
29.016422 277.63361 -6.5612812 2.3509886e-038
-109.95101 281.54941 -11.44791 9.1476764e-041
-107.36644 281.29156 -11.437428 9.1476764e-041
-103.10645 282.74417 -11.49649 9.1476764e-041
-99.212532 285.39212 -11.604157 9.1476764e-041
-95.34404 288.38971 -11.726041 9.1476764e-041
-92.986687 290.20395 -11.799808 9.1476764e-041
-64.989525 291.84018 -11.866337 2.3509886e-038
-61.196899 289.46259 -11.769664 2.3509886e-038
-55.880165 287.4671 -11.688526 2.3509886e-038
-50.895966 286.96332 -11.668042 2.3509886e-038
-46.045033 287.18378 -11.677007 2.3509886e-038
-41.206474 287.54303 -11.691613 2.3509886e-038
-36.335835 287.74496 -11.699824 2.3509886e-038
-31.41065 287.51062 -11.690296 2.3509886e-038
-26.461226 286.92691 -11.666562 2.3509886e-038
-21.542471 286.48676 -11.648664 2.3509886e-038
-16.660135 286.41492 -11.645744 2.3509886e-038
-11.772076 286.14456 -11.634751 2.3509886e-038
-6.8827605 285.4411 -11.606149 2.3509886e-038
-2.016871 284.65973 -11.574378 2.3509886e-038
2.824038 284.04218 -11.549268 2.3509528e-038
7.6343904 283.07141 -11.509796 2.3509528e-038
12.394057 281.70004 -11.454036 2.3509528e-038
17.131624 280.73151 -11.414654 2.3509528e-038
21.901472 280.59937 -11.409281 2.3509528e-038
26.150442 281.9881 -11.465747 2.3509886e-038
-108.10327 281.31076 -16.228233 9.1476764e-041
-107.38718 281.34595 -16.230261 9.1476764e-041
-103.10486 282.73981 -16.310671 9.1476764e-041
-99.000343 284.78177 -16.428465 9.1476764e-041
-95.06134 287.53464 -16.587273 9.1476764e-041
-91.077431 290.4433 -16.755068 9.1476764e-041
-88.522186 292.24088 -16.858768 9.1476764e-041
-65.417686 293.74753 -16.945683 2.3509886e-038
-61.522949 291.00482 -16.78746 2.3509886e-038
-56.082397 288.50745 -16.643393 2.3509886e-038
-51.012611 287.621 -16.592255 2.3509886e-038
-46.084057 287.42719 -16.581076 2.3509886e-038
-41.204655 287.53033 -16.587027 2.3509886e-038
-36.367603 287.99655 -16.61392 2.3509886e-038
-31.501387 288.34119 -16.633802 2.3509886e-038
-26.551319 287.90384 -16.608574 2.3509886e-038
-21.593113 287.16022 -16.565676 2.3509886e-038
-16.691555 286.95508 -16.553841 2.3509886e-038
-11.801038 286.84854 -16.547695 2.3509886e-038
-6.9087939 286.52075 -16.528786 2.3509886e-038
-2.0259488 285.94098 -16.49534 2.3509886e-038
2.8356483 285.20996 -16.453167 2.3509886e-038
7.6633739 284.14606 -16.391794 2.3509528e-038
12.451408 283.00354 -16.325884 2.3509528e-038
17.257782 282.7988 -16.314072 2.3509528e-038
22.179903 284.16656 -16.392979 2.3509886e-038
23.584841 285.1116 -16.447495 2.3509886e-038
-105.82789 283.67572 -21.194956 9.1476764e-041
-103.43646 283.64914 -21.19297 9.1476764e-041
-98.962219 284.67209 -21.269398 9.1476764e-041
-94.909996 287.07687 -21.449072 9.1476764e-041
-90.937622 289.99747 -21.667286 9.1476764e-041
-86.729599 292.4588 -21.851187 9.1476764e-041
-84.534637 294.01617 -21.967546 9.1476764e-041
-65.952888 295.00049 -22.04109 2.3509886e-038
-61.651485 291.61279 -21.787977 2.3509886e-038
-56.148411 288.84702 -21.581331 2.3509886e-038
-51.060562 287.89133 -21.509926 2.3509886e-038
-46.118835 287.6441 -21.491455 2.3509886e-038
-41.242577 287.79495 -21.502724 2.3509886e-038
-36.435497 288.53418 -21.557959 2.3509886e-038
-31.600054 289.24432 -21.611015 2.3509886e-038
-26.640078 288.86627 -21.582769 2.3509886e-038
-21.644173 287.83926 -21.506035 2.3509886e-038
-16.719414 287.43405 -21.47576 2.3509886e-038
-11.821936 287.35651 -21.469965 2.3509886e-038
-6.922585 287.09268 -21.450254 2.3509886e-038
-2.0308084 286.62686 -21.415451 2.3509886e-038
2.8430738 285.95679 -21.365387 2.3509886e-038
7.6849108 284.94461 -21.289762 2.3509886e-038
12.501855 284.15012 -21.2304 2.3509886e-038
17.38097 284.81741 -21.280258 2.3509886e-038
21.359081 287.08627 -21.449776 2.3509886e-038
-102.54112 285.52591 -26.195011 9.1476764e-041
-99.247795 285.49359 -26.192047 9.1476764e-041
-94.949638 287.19678 -26.348305 9.1476764e-041
-90.815926 289.60938 -26.569643 9.1476764e-041
-86.553802 291.866 -26.776672 9.1476764e-041
-82.163658 293.93954 -26.966904 9.1476764e-041
-79.797661 295.26151 -27.088184 9.1476764e-041
-67.38192 296.59882 -27.210875 2.3509886e-038
-61.697945 291.83255 -26.773602 2.3509886e-038
-56.148209 288.84598 -26.499607 2.3509886e-038
-51.082611 288.01566 -26.423429 2.3509886e-038
-46.189159 288.08273 -26.429581 2.3509886e-038
-41.340946 288.48138 -26.466156 2.3509886e-038
-36.536892 289.33716 -26.544668 2.3509886e-038
-31.707119 290.2243 -26.626059 2.3509886e-038
-26.753399 290.09506 -26.614201 2.3509886e-038
-21.739523 289.1073 -26.523579 2.3509886e-038
-16.787498 288.60452 -26.477455 2.3509886e-038
-11.865007 288.40344 -26.459007 2.3509886e-038
-6.941803 287.88968 -26.411873 2.3509886e-038
-2.0361066 287.3746 -26.364616 2.3509886e-038
2.8518379 286.83829 -26.315413 2.3509886e-038
7.713891 286.01917 -26.240265 2.3509886e-038
12.564407 285.57187 -26.199228 2.3509886e-038
17.503506 286.82538 -26.31423 2.3509886e-038
19.658943 288.41699 -26.460247 2.3509886e-038
-99.179321 288.78955 -31.411797 9.1476764e-041
-95.591141 289.13715 -31.449608 9.1476764e-041
-90.952293 290.04425 -31.548273 9.1476764e-041
-86.490013 291.65088 -31.723026 9.1476764e-041
-82.052055 293.54025 -31.928532 9.1476764e-041
-77.642357 295.78244 -32.172421 9.1476764e-041
-73.172562 298.09088 -32.423508 9.1476764e-041
-67.68956 296.30814 -32.229599 2.3509886e-038
-61.844269 292.52466 -31.818069 2.3509886e-038
-56.334251 289.80307 -31.522039 2.3509886e-038
-51.209702 288.73224 -31.405565 2.3509886e-038
-46.278652 288.6409 -31.39563 2.3509886e-038
-41.426022 289.07504 -31.44285 2.3509886e-038
-36.61903 289.98761 -31.542114 2.3509886e-038
-31.793856 291.01825 -31.654217 2.3509886e-038
-26.866968 291.32654 -31.687748 2.3509886e-038
-21.869394 290.83441 -31.634214 2.3509886e-038
-16.887285 290.32001 -31.578264 2.3509886e-038
-11.916328 289.65091 -31.505487 2.3509886e-038
-6.964138 288.81598 -31.414673 2.3509886e-038
-2.044055 288.49646 -31.379919 2.3509886e-038
2.8663149 288.2944 -31.357941 2.3509886e-038
7.7601991 287.73621 -31.297226 2.3509886e-038
12.654874 287.62802 -31.285458 2.3509886e-038
17.649956 289.22525 -31.45919 2.3509886e-038
18.523132 289.87283 -31.529627 2.3509886e-038
-95.389519 292.55679 -36.803078 9.1476764e-041
-91.430267 291.56848 -36.678749 9.1476764e-041
-86.63768 292.14886 -36.751759 9.1476764e-041
-82.079773 293.63943 -36.93927 9.1476764e-041
-77.484856 295.1824 -37.133373 9.1476764e-041
-72.730988 296.29199 -37.272961 9.1476764e-041
-67.507835 295.51263 -37.174919 9.1476764e-041
-62.007565 293.29706 -36.896198 2.3509886e-038
-56.634552 291.34793 -36.651005 2.3509886e-038
-51.450718 290.09113 -36.492905 2.3509886e-038
-46.388947 289.3288 -36.396999 2.3509886e-038
-41.478397 289.44055 -36.411057 2.3509886e-038
-36.691032 290.5578 -36.551609 2.3509886e-038
-31.885326 291.8555 -36.714855 2.3509886e-038
-26.972664 292.47263 -36.792492 2.3509886e-038
-21.978287 292.28253 -36.768574 2.3509886e-038
-16.966417 291.68042 -36.692833 2.3509886e-038
-11.961443 290.74753 -36.575474 2.3509886e-038
-6.991807 289.96344 -36.476841 2.3509886e-038
-2.0534995 289.82944 -36.459984 2.3509886e-038
2.8791575 289.58609 -36.429367 2.3509886e-038
7.7920623 288.91763 -36.345276 2.3509886e-038
12.718009 289.06302 -36.363564 2.3509886e-038
17.650356 291.17984 -36.62986 2.3509886e-038
-91.27935 294.25516 -42.027168 9.1476764e-041
-87.180923 293.98068 -41.987965 9.1476764e-041
-82.328842 294.53046 -42.066486 9.1476764e-041
-77.494637 295.2197 -42.164925 9.1476764e-041
-72.559242 295.59238 -42.218151 9.1476764e-041
-67.407608 295.07388 -42.1441 9.1476764e-041
-62.113171 293.79657 -41.961666 2.3509886e-038
-56.893795 292.68155 -41.802414 2.3509886e-038
-51.708885 291.54672 -41.640335 2.3509886e-038
-46.528294 290.19791 -41.447689 2.3509886e-038
-41.524456 289.76193 -41.385418 2.3509886e-038
-36.727432 290.84604 -41.540257 2.3509886e-038
-31.94873 292.43585 -41.767323 2.3509886e-038
-27.064884 293.4726 -41.915394 2.3509886e-038
-22.065804 293.44638 -41.911655 2.3509886e-038
-17.025341 292.69342 -41.804108 2.3509886e-038
-12.009879 291.92484 -41.694336 2.3509886e-038
-7.028296 291.47672 -41.630337 2.3509886e-038
-2.0633962 291.22626 -41.594566 2.3509886e-038
2.8882473 290.50034 -41.490883 2.3509886e-038
7.808682 289.53387 -41.352844 2.3509886e-038
12.755675 289.9191 -41.407867 2.3509886e-038
16.997082 292.14877 -41.726322 2.3509886e-038
-88.351501 297.25104 -47.516502 9.1476764e-041
-88.126892 297.17059 -47.503639 9.1476764e-041
-82.653519 295.69196 -47.267277 9.1476764e-041
-77.430473 294.97525 -47.15271 9.1476764e-041
-72.356796 294.76761 -47.119518 9.1476764e-041
-67.245384 294.3638 -47.054966 9.1476764e-041
-62.064007 293.56403 -46.92712 9.1476764e-041
-56.936909 292.90332 -46.821507 2.3509886e-038
-51.800297 292.06213 -46.687038 2.3509886e-038
-46.626022 290.80746 -46.486473 2.3509886e-038
-41.589642 290.2168 -46.392056 2.3509886e-038
-36.769073 291.17581 -46.545357 2.3509886e-038
-32.019695 293.08539 -46.850609 2.3509886e-038
-27.179846 294.71915 -47.111771 2.3509886e-038
-22.181152 294.98038 -47.15353 2.3509886e-038
-17.104313 294.05109 -47.004974 2.3509886e-038
-12.072882 293.45627 -46.909889 2.3509886e-038
-7.0674629 293.10104 -46.853111 2.3509886e-038
-2.0719657 292.43576 -46.746765 2.3509886e-038
2.8963532 291.31564 -46.567707 2.3509886e-038
7.8329744 290.4346 -46.426868 2.3509886e-038
12.820508 291.39267 -46.580025 2.3509886e-038
16.803453 294.18933 -47.027077 2.3509886e-038
-85.094742 297.61905 -52.643044 9.1476764e-041
-82.834938 296.341 -52.416985 9.1476764e-041
-77.243004 294.26108 -52.04908 9.1476764e-041
-72.07151 293.60541 -51.933109 9.1476764e-041
-66.980591 293.20465 -51.862225 9.1476764e-041
-61.836071 292.4859 -51.735088 2.3509886e-038
-56.740841 291.89471 -51.63052 2.3509886e-038
-51.667194 291.31168 -51.527393 2.3509886e-038
-46.588589 290.57394 -51.396904 2.3509886e-038
-41.622536 290.44635 -51.374332 2.3509886e-038
-36.840576 291.74207 -51.603519 2.3509886e-038
-32.128208 294.07864 -52.016815 2.3509886e-038
-27.310915 296.14038 -52.381496 2.3509886e-038
-22.312502 296.72714 -52.485283 2.3509886e-038
-17.205446 295.78973 -52.319469 2.3509886e-038
-12.140399 295.09741 -52.197018 2.3509886e-038
-7.1014824 294.51187 -52.093445 2.3509886e-038
-2.0794804 293.49637 -51.913822 2.3509886e-038
2.9065752 292.34378 -51.709949 2.3509886e-038
7.8734226 291.93433 -51.637531 2.3509886e-038
12.926998 293.81305 -51.969837 2.3509886e-038
16.901815 297.77423 -52.670494 2.3509886e-038
-81.233665 295.58405 -57.316154 9.1476764e-041
-77.163361 293.95767 -57.000786 9.1476764e-041
-71.893036 292.87836 -56.7915 9.1476764e-041
-66.740807 292.155 -56.65123 9.1476764e-041
-61.572823 291.24072 -56.473949 2.3509886e-038
-56.488426 290.59619 -56.348965 2.3509886e-038
-51.460464 290.14609 -56.261688 2.3509886e-038
-46.467255 289.8172 -56.197914 2.3509886e-038
-41.602001 290.30304 -56.292126 2.3509886e-038
-36.894466 292.16882 -56.653912 2.3509886e-038
-32.210476 294.8317 -57.170265 2.3509886e-038
-27.396492 297.06833 -57.603966 2.3509886e-038
-22.41041 298.02917 -57.790283 2.3509886e-038
-17.299599 297.40836 -57.669899 2.3509886e-038
-12.200463 296.5574 -57.50489 2.3509886e-038
-7.1318841 295.77271 -57.352734 2.3509886e-038
-2.0879939 294.69794 -57.144329 2.3509886e-038
2.9204767 293.742 -56.958965 2.3509886e-038
7.9281611 293.96396 -57.002007 2.3509886e-038
13.076496 297.21094 -57.631618 2.3509886e-038
17.034964 303.0867 -58.770977 2.3509886e-038
-77.619553 295.11429 -62.250145 9.1476764e-041
-77.449326 295.04709 -62.23597 9.1476764e-041
-71.94519 293.09082 -61.823322 9.1476764e-041
-66.656242 291.78482 -61.54784 2.3509886e-038
-61.458614 290.7005 -61.319118 2.3509886e-038
-56.365234 289.96243 -61.163437 2.3509886e-038
-51.356499 289.55991 -61.078529 2.3509886e-038
-46.423813 289.54626 -61.075649 2.3509886e-038
-41.618252 290.41644 -61.259205 2.3509886e-038
-36.936924 292.50504 -61.69976 2.3509886e-038
-32.256836 295.25601 -62.280045 2.3509886e-038
-27.452847 297.67938 -62.791222 2.3509886e-038
-22.492132 299.11603 -63.09425 2.3509886e-038
-17.384846 298.8739 -63.043186 2.3509886e-038
-12.257011 297.93192 -62.844486 2.3509886e-038
-7.1630716 297.06613 -62.661858 2.3509886e-038
-2.0977094 296.06921 -62.451572 2.3509886e-038
2.9375243 295.45663 -62.322365 2.3509886e-038
8.0004215 296.64328 -62.572666 2.3509886e-038
13.285267 301.95602 -63.693314 2.3509886e-038
16.850285 309.06134 -65.192078 2.3509886e-038
-74.010239 295.42612 -67.346306 2.3509886e-038
-72.293449 294.50955 -67.13736 2.3509886e-038
-66.841949 292.59778 -66.701538 2.3509886e-038
-61.601456 291.37613 -66.42305 2.3509886e-038
-56.452583 290.4118 -66.203224 2.3509886e-038
-51.430634 289.97791 -66.104309 2.3509886e-038
-46.532387 290.22342 -66.160278 2.3509886e-038
-41.739277 291.26099 -66.396805 2.3509886e-038
-37.036877 293.29657 -66.86084 2.3509886e-038
-32.340927 296.02576 -67.482994 2.3509886e-038
-27.541361 298.63919 -68.078758 2.3509886e-038
-22.588556 300.39832 -68.479774 2.3509886e-038
-17.469711 300.33289 -68.464859 2.3509886e-038
-12.312056 299.2699 -68.222534 2.3509886e-038
-7.1950326 298.3916 -68.022324 2.3509886e-038
-2.1088092 297.63586 -67.850037 2.3509886e-038
2.9591489 297.63165 -67.849075 2.3509886e-038
8.0990143 300.29892 -68.457123 2.3509886e-038
13.552756 308.03568 -70.22081 2.3509886e-038
16.009159 313.51419 -71.469719 2.3509886e-038
-70.27002 296.33524 -72.599403 2.3509886e-038
-67.439919 295.21536 -72.325035 2.3509886e-038
-62.037724 293.43973 -71.890022 2.3509886e-038
-56.748955 291.93646 -71.521736 2.3509886e-038
-51.669819 291.32648 -71.372292 2.3509886e-038
-46.766006 291.68051 -71.45903 2.3509886e-038
-41.960304 292.80331 -71.734108 2.3509886e-038
-37.212315 294.68588 -72.195313 2.3509886e-038
-32.462086 297.13477 -72.795273 2.3509886e-038
-27.636124 299.66672 -73.415581 2.3509886e-038
-22.672201 301.51065 -73.867325 2.3509886e-038
-17.545187 301.63043 -73.896667 2.3509886e-038
-12.368135 300.63303 -73.652313 2.3509886e-038
-7.2326069 299.94989 -73.484947 2.3509886e-038
-2.1235893 299.72186 -73.429092 2.3509886e-038
2.9900465 300.73935 -73.678368 2.3509886e-038
8.2422409 305.60959 -74.871529 2.3509886e-038
13.93957 316.82745 -77.619797 2.3509886e-038
14.548937 318.37567 -77.9991 2.3509886e-038
-66.661087 300.1817 -78.653107 2.3509886e-038
-63.022614 298.09827 -78.107201 2.3509886e-038
-57.379265 295.17899 -77.342293 2.3509886e-038
-52.104076 293.77493 -76.974403 2.3509886e-038
-47.104313 293.79056 -76.9785 2.3509886e-038
-42.226551 294.66122 -77.206635 2.3509886e-038
-37.407009 296.22766 -77.617065 2.3509886e-038
-32.604839 298.44141 -78.197105 2.3509886e-038
-27.759764 301.00739 -78.869438 2.3509886e-038
-22.790724 303.08688 -79.414307 2.3509886e-038
-17.664738 303.6857 -79.571213 2.3509886e-038
-12.462586 302.92883 -79.372894 2.3509886e-038
-7.292654 302.44012 -79.24485 2.3509886e-038
-2.1459453 302.8772 -79.35936 2.3509886e-038
3.0367455 305.43634 -80.029915 2.3509886e-038
8.4555473 313.51865 -82.147621 2.3509886e-038
12.781236 324.81006 -85.106178 2.3509886e-038
-62.203304 305.29721 -85.191902 2.3509886e-038
-58.727318 302.11383 -84.303604 2.3509886e-038
-52.956188 298.57935 -83.317314 2.3509886e-038
-47.69286 297.46133 -83.005341 2.3509886e-038
-42.636063 297.51886 -83.021393 2.3509886e-038
-37.680374 298.39246 -83.26516 2.3509886e-038
-32.83149 300.51602 -83.857735 2.3509886e-038
-27.996635 303.57584 -84.711563 2.3509886e-038
-23.038736 306.3851 -85.495476 2.3509886e-038
-17.913689 307.96555 -85.936501 2.3509886e-038
-12.670112 307.97318 -85.938622 2.3509886e-038
-7.4251842 307.93643 -85.928375 2.3509886e-038
-2.1893957 309.00977 -86.227882 2.3509886e-038
3.114445 313.25134 -87.411476 2.3509886e-038
8.7362328 323.92603 -90.390205 2.3509886e-038
10.140191 327.63379 -91.424843 2.3509886e-038
-54.649502 306.75009 -90.820541 2.3509886e-038
-54.366943 306.53348 -90.756416 2.3509886e-038
-48.722832 303.88528 -89.972343 2.3509886e-038
-43.460159 303.26947 -89.790024 2.3509886e-038
-38.318027 303.44202 -89.84111 2.3509886e-038
-33.346638 305.23129 -90.370872 2.3509886e-038
-28.480402 308.82147 -91.433823 2.3509886e-038
-23.534554 312.97882 -92.664711 2.3509886e-038
-18.38228 316.02145 -93.565544 2.3509886e-038
-13.058041 317.40256 -93.974464 2.3509886e-038
-7.6792936 318.47482 -94.291924 2.3509886e-038
-2.2708106 320.50058 -94.891701 2.3509886e-038
3.2447023 326.35266 -96.624344 2.3509886e-038
4.8766699 329.1546 -97.453926 2.3509886e-038
-40.947903 312.75256 -97.923119 2.3509886e-038
-39.46489 312.52411 -97.851585 2.3509886e-038
-34.163879 312.71173 -97.910332 2.3509886e-038
-29.152803 316.11252 -98.975113 2.3509886e-038
-24.222647 322.12958 -100.85906 2.3509886e-038
-19.019619 326.9783 -102.3772 2.3509886e-038
-18.302923 327.44788 -102.52422 2.3509886e-038
-108.07333 283.14359 -5.8324466 9.1476764e-041
-107.51836 281.68961 -17.504517 9.1476764e-041
-103.61554 284.14023 -5.0561109 9.1476764e-041
-103.90475 284.93332 -24.29558 9.1476764e-041
-99.556984 286.38297 -6.5104442 9.1476764e-041
-99.975143 287.58585 -30.033997 9.1476764e-041
-95.584106 289.11588 -9.4378719 9.1476764e-041
-96.53186 291.98257 -35.440773 9.1476764e-041
-91.214554 290.88058 -13.632424 9.1476764e-041
-92.112083 293.7428 -40.820694 9.1476764e-041
-86.87751 292.95758 -18.943102 9.1476764e-041
-88.186623 297.37198 -47.814766 9.1476764e-041
-76.962425 275.33218 65.789253 2.3418052e-038
-77.352028 276.72595 43.951538 2.3418052e-038
-82.330444 294.53619 -24.486357 9.1476764e-041
-82.874901 296.48401 -55.38343 9.1476764e-041
-72.159721 274.89606 63.855171 2.3418052e-038
-73.369011 279.5029 27.934616 2.3418052e-038
-77.836845 296.52338 -28.933773 9.1476764e-041
-77.47348 295.1391 -62.467545 9.1476764e-041
-67.836319 276.35208 56.393066 2.3418052e-038
-69.364761 282.57864 15.281476 2.3418052e-038
-73.339645 298.77155 -31.171019 9.1476764e-041
-72.543251 295.52719 -69.316353 2.3509886e-038
-64.030319 280.28998 46.343033 2.3418052e-038
-65.634735 287.31323 2.1981685 2.3509886e-038
-67.840141 296.96732 -28.059456 2.3509886e-038
-68.115166 298.17123 -76.066956 2.3509886e-038
-59.410156 281.01126 36.143845 2.3418052e-038
-64.18734 303.60742 -82.708351 2.3509886e-038
-54.802437 281.92288 24.57165 2.3418052e-038
-59.514927 306.16559 -87.598274 2.3509886e-038
-51.169132 288.50348 16.544069 2.3418052e-038
-54.412083 306.78799 -90.968506 2.3509886e-038
-46.311329 288.8447 11.817504 2.3509886e-038
-49.402718 308.12573 -93.74234 2.3509886e-038
-41.371082 288.69168 12.029767 2.3509886e-038
-44.55825 310.93207 -96.359413 2.3509886e-038
-35.104462 277.99368 78.73037 3.5733111e-043
-39.550896 313.20517 -98.382378 2.3509886e-038
-30.052109 275.07553 81.345276 3.5733111e-043
-34.373379 314.62936 -99.723785 2.3509886e-038
-25.574486 277.31177 75.271935 3.5733111e-043
-29.337805 318.11853 -101.02595 2.3509886e-038
-21.142681 281.17004 41.217018 3.5733111e-043
-21.233326 282.37552 33.024982 2.3509886e-038
-21.548616 286.56845 16.299379 2.3509886e-038
-24.348639 323.80511 -102.30683 2.3509886e-038
-16.436193 282.565 12.894765 2.3509886e-038
-19.034775 327.23886 -102.57172 2.3509886e-038
-11.445274 278.20099 22.712933 2.3509886e-038
-13.502825 328.21399 -102.16638 2.3509886e-038
-6.6168165 274.4119 37.704475 2.3418409e-038
-7.9385014 329.22464 -101.90179 2.3509886e-038
-1.9294506 272.32129 56.625191 2.3418409e-038
-2.3349986 329.56003 -100.95146 2.3509886e-038
2.6927931 270.84155 68.328049 2.3418409e-038
2.8596637 287.6254 11.88025 2.3418409e-038
2.8549447 287.15076 1.1570586 2.3509528e-038
3.2753425 329.43445 -98.613998 2.3509886e-038
7.3056345 270.88165 68.688301 2.3418409e-038
7.416049 274.97565 31.634529 2.3418409e-038
7.657433 283.92581 -1.3416072 2.3509528e-038
8.847662 328.05768 -93.318352 2.3509886e-038
12.301023 279.58548 0.13731073 2.3509528e-038
14.089534 320.2359 -79.950401 2.3509886e-038
16.846188 276.05411 3.4387872 2.3509528e-038
17.760004 291.02859 -35.920734 2.3509886e-038
21.397551 274.14316 7.6296954 2.3509528e-038
22.336393 286.17154 -19.102516 2.3509886e-038
25.842697 271.79953 12.201118 2.3509528e-038
26.717186 280.99695 -10.434542 2.3509886e-038
30.529057 272.31946 17.166576 2.3509528e-038
30.956146 276.12909 -3.7277558 2.3509528e-038
35.127792 272.02374 22.455063 2.3509528e-038
35.473175 274.6983 2.5261471 2.3509528e-038
39.482193 270.12509 27.16559 2.3509528e-038
40.081005 274.22202 9.1693201 2.3509528e-038
44.177547 270.71222 30.347034 2.3509528e-038
45.045368 276.03009 16.637905 2.3509528e-038
