# .PCD v0.7 - Point Cloud Data file format
VERSION 0.7
FIELDS x y z rgb
SIZE 4 4 4 4
TYPE F F F F
COUNT 1 1 1 1
WIDTH 685
HEIGHT 1
VIEWPOINT 0 0 0 1 0 0 0
POINTS 685
DATA ascii
0 0 0 3.5733111e-043
-76.482063 284.89841 -1.3417907 9.1476764e-041
0 0 0 3.5733111e-043
10.504419 278.79651 36.765469 2.3509528e-038
-29.638195 273.60825 73.451187 2.3418409e-038
-31.88908 270.7468 80.976006 2.3418409e-038
-31.523422 270.70334 80.963005 2.3418409e-038
-29.346554 270.74149 80.974419 2.3418409e-038
-37.202057 274.48883 77.41375 2.3418409e-038
-36.590191 274.07336 77.296577 2.3418409e-038
-31.676088 272.01434 76.715881 2.3418409e-038
-27.090441 272.5535 76.867935 2.3418409e-038
-25.435081 273.42932 77.114944 2.3418409e-038
-38.116646 276.71939 73.323372 2.3418409e-038
-36.803326 275.66977 73.045258 2.3418409e-038
-31.812307 273.18411 72.386612 2.3418409e-038
-27.236528 274.02325 72.608971 2.3418409e-038
-22.696466 275.64359 73.038307 2.3418409e-038
-18.744385 274.78336 72.810364 2.3418409e-038
-55.772087 273.81818 67.884621 2.3509886e-038
-55.231213 273.79407 67.878647 2.3509886e-038
-50.834305 275.27057 68.244713 2.3509886e-038
-48.376266 277.14096 68.708412 2.3509886e-038
-38.3918 277.79129 68.869637 2.3418409e-038
-36.920475 276.5473 68.561234 2.3418409e-038
-31.917368 274.0863 67.951096 2.3418409e-038
-27.364708 275.31287 68.255196 2.3418409e-038
-22.769388 276.52921 68.55674 2.3418409e-038
-17.929735 274.63849 68.087997 2.3418409e-038
-13.140284 272.45181 67.545883 2.3418409e-038
-11.989422 272.38135 67.528412 2.3418409e-038
-57.636032 275.65216 63.638039 2.3509886e-038
-55.492004 275.08685 63.507526 2.3509886e-038
-51.037987 276.37354 63.804573 2.3509886e-038
-47.067497 279.03363 64.418694 2.3509886e-038
-38.408447 277.73181 64.118156 2.3418409e-038
-36.926735 276.59418 63.855522 2.3418409e-038
-31.963173 274.47964 63.367352 2.3418409e-038
-27.413031 275.79904 63.671947 2.3418409e-038
-22.82757 277.23581 64.003647 2.3418409e-038
-17.988802 275.54324 63.612892 2.3418409e-038
-13.190619 273.49548 63.140141 2.3418409e-038
-10.275736 273.68753 63.184479 2.3418409e-038
-58.153973 275.44867 58.893276 2.3509886e-038
-55.369816 274.48114 58.686409 2.3509886e-038
-50.888462 275.56387 58.917904 2.3509886e-038
-46.61515 278.10803 59.461864 2.3509886e-038
-46.3606 278.26776 59.496017 2.3509886e-038
-38.440174 277.9426 59.426498 2.3509886e-038
-36.983391 277.01855 59.228928 2.3509886e-038
-32.014122 274.91714 58.779633 2.3418409e-038
-27.426971 275.9393 58.998173 2.3418409e-038
-22.87286 277.78583 59.392979 2.3418409e-038
-18.037567 276.29019 59.073196 2.3418409e-038
-13.218951 274.08292 58.601269 2.3418409e-038
-9.3560286 274.46271 58.682465 2.3418409e-038
-58.225662 274.32672 53.974724 2.3509886e-038
-55.200989 273.64423 53.840446 2.3509886e-038
-50.745026 274.78714 54.065311 2.3509886e-038
-46.468361 277.2323 54.54641 2.3509886e-038
-45.899044 277.66891 54.632317 2.3509886e-038
-38.537552 278.60959 54.817398 2.3509886e-038
-37.089546 277.81366 54.660797 2.3509886e-038
-32.084373 275.52045 54.209599 2.3509886e-038
-27.453316 276.20435 54.344154 2.3418409e-038
-22.927748 278.45245 54.78648 2.3418409e-038
-18.092014 277.12418 54.525135 2.3418409e-038
-13.235698 274.43015 53.995075 2.3418409e-038
-8.5731821 274.58539 54.02562 2.3418409e-038
-58.268391 273.86542 49.213173 2.3509886e-038
-55.19046 273.59201 49.16404 2.3509886e-038
-50.766418 274.90298 49.399612 2.3509886e-038
-46.472328 277.25595 49.822441 2.3509886e-038
-45.365475 278.08078 49.970665 2.3509886e-038
-38.643604 279.05374 50.145504 2.3509886e-038
-37.161629 278.35364 50.019691 2.3509886e-038
-32.145596 276.04617 49.605049 2.3509886e-038
-27.472879 276.40115 49.668839 2.3418409e-038
-22.947863 278.69675 50.081348 2.3418409e-038
-18.129925 277.70486 49.903111 2.3418409e-038
-13.252407 274.77661 49.376904 2.3418409e-038
-8.5499792 274.26013 49.284096 2.3418409e-038
-7.7631497 274.73364 49.369183 2.3418409e-038
-58.210098 273.42355 44.470512 2.3509886e-038
-55.168331 273.48233 44.480072 2.3509886e-038
-50.816952 275.17661 44.755638 2.3509886e-038
-46.55769 277.76523 45.176655 2.3509886e-038
-44.515652 279.26947 45.42131 2.3509886e-038
-39.062218 279.81125 45.50943 2.3509886e-038
-37.248848 279.0069 45.378605 2.3509886e-038
-32.210892 276.60687 44.988258 2.3509886e-038
-27.485575 276.5289 44.975574 2.3418409e-038
-22.914515 278.29172 45.262287 2.3418409e-038
-18.111094 277.41641 45.119923 2.3418409e-038
-13.240829 274.53653 44.651531 2.3418409e-038
-8.5298386 273.61407 44.501503 2.3418409e-038
-6.9793563 274.40405 44.629982 2.3418409e-038
-58.126167 273.03146 39.750172 2.3509886e-038
-55.149277 273.38788 39.802059 2.3509886e-038
-50.863106 275.42654 40.098866 2.3509886e-038
-46.649883 278.31525 40.519424 2.3509886e-038
-42.33646 281.1452 40.931438 2.3509886e-038
-40.727043 281.18179 40.93676 2.3509886e-038
-37.380867 279.99576 40.764091 2.3509886e-038
-32.315918 277.50879 40.402016 2.3509886e-038
-27.534832 277.02444 40.331501 2.3509886e-038
-22.885355 277.93759 40.464443 2.3418409e-038
-18.073856 276.84604 40.305531 2.3418409e-038
-13.21875 274.07877 39.902641 2.3418409e-038
-8.5050478 272.81888 39.719215 2.3418409e-038
-6.2258792 273.85074 39.869446 2.3418409e-038
7.3789258 283.55688 41.282547 2.3509528e-038
10.393079 280.54819 40.844517 2.3509528e-038
14.999462 277.25104 40.364491 2.3509528e-038
15.672727 277.06427 40.337299 2.3509528e-038
-58.306644 274.08875 35.229488 2.3509886e-038
-55.271526 273.99387 35.217297 2.3509886e-038
-50.8708 275.4682 35.406799 2.3509886e-038
-46.587132 277.94086 35.724617 2.3509886e-038
-42.257988 280.67178 36.07563 2.3509886e-038
-37.449944 280.51318 36.055244 2.3509886e-038
-32.433453 278.51813 35.798813 2.3509886e-038
-27.620159 277.88293 35.717171 2.3509886e-038
-22.909159 278.22668 35.761353 2.3418409e-038
-18.08672 277.04309 35.609222 2.3418409e-038
-13.233681 274.38831 35.267994 2.3418409e-038
-8.5034761 272.76843 35.059788 2.3418409e-038
-5.4743404 273.83734 35.197178 2.3418409e-038
6.2858887 282.85733 36.356544 2.3509528e-038
10.346685 279.29587 35.898777 2.3509528e-038
14.893963 275.30096 35.385303 2.3509528e-038
16.92378 274.54736 35.288437 2.3509528e-038
-58.423096 275.41797 30.70307 2.3509886e-038
-55.418858 274.72424 30.625732 2.3509886e-038
-50.857838 275.39801 30.700842 2.3509886e-038
-46.494678 277.38928 30.922827 2.3509886e-038
-42.130238 279.8233 31.194166 2.3509886e-038
-37.456116 280.55942 31.276226 2.3509886e-038
-32.504597 279.12906 31.116772 2.3509886e-038
-27.692122 278.60696 31.058569 2.3509886e-038
-22.979239 279.07779 31.111057 2.3509886e-038
-18.142685 277.90033 30.979797 2.3418409e-038
-13.263764 275.01212 30.657822 2.3418409e-038
-8.5088692 272.94144 30.426989 2.3418409e-038
-4.934617 273.49475 30.48867 2.3418409e-038
5.8244629 280.70822 31.292814 2.3509528e-038
10.286939 277.68307 30.955578 2.3509528e-038
14.841003 274.32205 30.580896 2.3509528e-038
17.533558 273.9028 30.534159 2.3509528e-038
-58.180042 276.13214 26.073225 2.3509886e-038
-55.59206 275.58286 26.02136 2.3509886e-038
-50.980072 276.05994 26.066408 2.3509886e-038
-46.603439 278.03818 26.253199 2.3509886e-038
-42.252048 280.63235 26.498148 2.3509886e-038
-37.557365 281.31781 26.562872 2.3509886e-038
-32.571404 279.70276 26.410376 2.3509886e-038
-27.742582 279.11459 26.354839 2.3509886e-038
-23.049616 279.9325 26.432068 2.3509886e-038
-18.199099 278.76447 26.321777 2.3418409e-038
-13.295079 275.66138 26.028774 2.3418409e-038
-8.53092 273.64877 25.838737 2.3418409e-038
-4.7362981 274.25247 25.895742 2.3418409e-038
5.6825247 281.82776 26.611023 2.3509528e-038
10.305764 278.19125 26.267651 2.3509528e-038
14.866903 274.80081 25.947517 2.3509528e-038
17.819832 274.78226 25.945768 2.3509528e-038
-57.864441 277.39963 21.461843 2.3509886e-038
-55.889893 277.0593 21.435511 2.3509886e-038
-51.256233 277.55536 21.47389 2.3509886e-038
-46.883446 279.70868 21.64049 2.3509886e-038
-42.556046 282.65146 21.868166 2.3509886e-038
-37.754192 282.79211 21.879047 2.3509886e-038
-32.667484 280.52783 21.703863 2.3509886e-038
-27.800804 279.70038 21.639845 2.3509886e-038
-23.131712 280.92953 21.734943 2.3509886e-038
-18.286963 280.11029 21.671562 2.3509886e-038
-13.355867 276.92175 21.42487 2.3418409e-038
-8.5742025 275.03717 21.279062 2.3418409e-038
-4.7107205 276.44568 21.388037 2.3418409e-038
5.4939308 283.74332 21.952641 2.3509528e-038
5.6708069 283.67517 21.947367 2.3509528e-038
10.348227 279.33746 21.611769 2.3509528e-038
14.906998 275.5419 21.318113 2.3509528e-038
18.041967 275.58401 21.321371 2.3509528e-038
-57.493862 278.62079 16.80442 2.3509886e-038
-56.151043 278.35388 16.788322 2.3509886e-038
-51.484909 278.79364 16.814846 2.3509886e-038
-47.10183 281.0116 16.948618 2.3509886e-038
-42.823719 284.42932 17.154751 2.3509886e-038
-38.115166 285.49594 17.219082 2.3509886e-038
-32.910378 282.61365 17.045242 2.3509886e-038
-27.923323 280.93301 16.94388 2.3509886e-038
-23.250557 282.37289 17.030722 2.3509886e-038
-18.427156 282.25772 17.023773 2.3509886e-038
-13.451386 278.90225 16.821398 2.3509886e-038
-8.6146421 276.33438 16.666523 2.3509886e-038
-4.6409359 277.85437 16.758198 2.3509528e-038
4.9846926 283.24905 17.083565 2.3509528e-038
5.6551499 282.89197 17.062029 2.3509528e-038
10.325971 278.73672 16.811413 2.3509528e-038
14.894748 275.31549 16.60507 2.3509528e-038
18.211294 275.55548 16.619545 2.3509528e-038
-57.18362 279.33765 12.083531 2.3509886e-038
-56.331871 279.25027 12.079752 2.3509886e-038
-51.669594 279.7937 12.10326 2.3509886e-038
-47.229549 281.77356 12.188904 2.3509886e-038
-42.94463 285.23236 12.338525 2.3509886e-038
-38.384151 287.51071 12.437081 2.3509886e-038
-33.153366 284.70029 12.315507 2.3509886e-038
-28.058832 282.29636 12.211519 2.3509886e-038
-23.311789 283.11652 12.246997 2.3509886e-038
-18.504566 283.44342 12.261138 2.3509886e-038
-13.530381 280.54013 12.135549 2.3509886e-038
-8.6533623 277.57639 12.007343 2.3509886e-038
-4.3445883 279.10739 12.073572 2.3509528e-038
4.2438812 283.43185 12.260638 2.3509528e-038
5.6488199 282.57529 12.223584 2.3509528e-038
10.310028 278.30634 12.038919 2.3509528e-038
14.879894 275.04092 11.897665 2.3509528e-038
18.175482 275.25757 11.907037 2.3509528e-038
-57.306129 281.03583 7.3639131 2.3509886e-038
-56.674751 280.95001 7.3616643 2.3509886e-038
-51.913094 281.11227 7.3659163 2.3509886e-038
-47.315548 282.28665 7.396688 2.3509886e-038
-42.866329 284.71231 7.460247 2.3509886e-038
-38.30201 286.89545 7.5174513 2.3509886e-038
-33.230152 285.35968 7.47721 2.3509886e-038
-28.160578 283.32001 7.4237652 2.3509886e-038
-23.305906 283.04507 7.4165606 2.3509886e-038
-18.479706 283.06265 7.4170218 2.3509886e-038
-13.559615 281.1463 7.366807 2.3509886e-038
-8.6944847 278.89551 7.3078303 2.3509528e-038
-3.9622345 280.61823 7.3529706 2.3509528e-038
-3.5284424 281.02695 7.3636808 2.3509528e-038
3.3183985 284.60492 7.4574327 2.3509528e-038
5.666934 283.48141 7.4279943 2.3509528e-038
10.347293 279.31226 7.3187504 2.3509528e-038
14.933796 276.03723 7.2329364 2.3509528e-038
17.824594 275.84796 7.2279768 2.3509528e-038
-82.468697 281.92572 2.5789652 9.1476764e-041
-81.001228 282.23352 2.5817807 9.1476764e-041
-76.682076 284.06482 2.5985332 9.1476764e-041
-73.802155 286.23587 2.6183932 9.1476764e-041
-57.744785 283.57141 2.5940197 2.3509886e-038
-57.160412 283.35754 2.592063 2.3509886e-038
-52.181046 282.56326 2.5847974 2.3509886e-038
-47.376999 282.65323 2.5856204 2.3509886e-038
-42.709061 283.66776 2.5949008 2.3509886e-038
-38.074619 285.19226 2.6088464 2.3509886e-038
-33.199638 285.09763 2.607981 2.3509886e-038
-28.225822 283.97644 2.5977244 2.3509886e-038
-23.317055 283.18048 2.5904434 2.3509886e-038
-18.458807 282.74252 2.5864372 2.3509886e-038
-13.577118 281.50919 2.575155 2.3509886e-038
-8.7324305 280.11267 2.5623801 2.3509528e-038
-3.9749401 281.51807 2.5752363 2.3509528e-038
-1.5580592 283.41254 2.5925665 2.3509528e-038
1.8780208 285.06204 2.6076555 2.3509528e-038
5.6831074 284.2905 2.6005974 2.3509528e-038
10.399508 280.72171 2.5679517 2.3509528e-038
15.036137 277.92892 2.5424039 2.3509528e-038
17.264675 277.58701 2.5392761 2.3509528e-038
-83.207542 281.18283 -2.2234256 9.1476764e-041
-80.926712 281.97388 -2.2296808 9.1476764e-041
-76.901245 284.87674 -2.2526348 9.1476764e-041
-73.023758 288.75632 -2.2833121 9.1476764e-041
-71.983177 289.71814 -2.2909179 9.1476764e-041
-58.207531 285.90063 -2.260731 2.3509886e-038
-57.603401 285.55356 -2.2579868 2.3509886e-038
-52.408386 283.79431 -2.2440758 2.3509886e-038
-47.467667 283.19418 -2.2393303 2.3509886e-038
-42.677628 283.45898 -2.2414241 2.3509886e-038
-37.990032 284.55865 -2.2501197 2.3509886e-038
-33.185131 284.97305 -2.2533965 2.3509886e-038
-28.26416 284.36215 -2.2485657 2.3509886e-038
-23.355543 283.64792 -2.242918 2.3509886e-038
-18.488293 283.19418 -2.2393303 2.3509886e-038
-13.617877 282.35431 -2.2326889 2.3509528e-038
-8.7700415 281.31915 -2.2245035 2.3509528e-038
-3.9808536 281.93686 -2.2293878 2.3509528e-038
0.83369112 284.00775 -2.2457635 2.3509528e-038
5.6740146 283.83566 -2.2444024 2.3509528e-038
10.422171 281.33347 -2.224617 2.3509528e-038
15.131539 279.69235 -2.2116399 2.3509528e-038
16.826851 279.62521 -2.2111087 2.3509528e-038
-83.730217 282.29211 -7.0467119 9.1476764e-041
-81.24633 283.08752 -7.0665669 9.1476764e-041
-77.257553 286.19666 -7.1441784 9.1476764e-041
-73.370262 290.12646 -7.2422767 9.1476764e-041
-70.781487 292.32141 -7.2970681 9.1476764e-041
-58.562073 287.62616 -7.1798625 2.3509886e-038
-57.938984 287.2171 -7.169652 2.3509886e-038
-52.612904 284.90179 -7.111856 2.3509886e-038
-47.629826 284.16162 -7.0933795 2.3509886e-038
-42.804729 284.30316 -7.0969124 2.3509886e-038
-38.049595 285.00479 -7.1144266 2.3509886e-038
-33.225891 285.32309 -7.1223722 2.3509886e-038
-28.318119 284.90503 -7.1119361 2.3509886e-038
-23.414042 284.35837 -7.0982904 2.3509886e-038
-18.551567 284.16339 -7.0934229 2.3509886e-038
-13.687405 283.7959 -7.0842495 2.3509528e-038
-8.8199492 282.92004 -7.0623856 2.3509528e-038
-3.989377 282.54053 -7.0529127 2.3509528e-038
0.83118039 283.15244 -7.0681868 2.3509528e-038
5.6594186 283.1055 -7.0670152 2.3509528e-038
10.437687 281.75235 -7.0332379 2.3509528e-038
15.211266 281.16602 -7.0186014 2.3509528e-038
16.847523 281.36386 -7.0235405 2.3509886e-038
-84.217873 284.52448 -11.955024 9.1476764e-041
-81.764397 284.89264 -11.970494 9.1476764e-041
-77.663132 287.6991 -12.088414 9.1476764e-041
-73.731026 291.55304 -12.250348 9.1476764e-041
-69.716293 294.38409 -12.369301 2.3509886e-038
-58.890846 289.09662 -12.147135 2.3509886e-038
-58.22517 288.6358 -12.127772 2.3509886e-038
-52.811913 285.97946 -12.016158 2.3509886e-038
-47.805511 285.20978 -11.983819 2.3509886e-038
-42.944405 285.23087 -11.984706 2.3509886e-038
-38.121517 285.54352 -11.997842 2.3509886e-038
-33.297619 285.939 -12.01446 2.3509886e-038
-28.415792 285.8877 -12.012302 2.3509886e-038
-23.502964 285.43832 -11.993423 2.3509886e-038
-18.632273 285.3996 -11.991795 2.3509886e-038
-13.766101 285.42758 -11.99297 2.3509528e-038
-8.8748188 284.68008 -11.961563 2.3509528e-038
-4.0063562 283.74301 -11.92219 2.3509528e-038
0.83246577 283.59033 -11.915773 2.3509528e-038
5.6691213 283.59085 -11.915795 2.3509528e-038
10.475747 282.77972 -11.881714 2.3509528e-038
15.285487 282.53793 -11.871555 2.3509528e-038
17.538229 283.0462 -11.892911 2.3509886e-038
-84.069862 286.17511 -16.905109 9.1476764e-041
-82.177299 286.3313 -16.914333 9.1476764e-041
-77.965271 288.81839 -17.061255 9.1476764e-041
-73.914139 292.27713 -17.265572 9.1476764e-041
-69.658852 295.37045 -17.448303 2.3509886e-038
-68.292374 295.81927 -17.474815 2.3509886e-038
-59.506165 290.80182 -17.178419 2.3509886e-038
-58.502232 290.00925 -17.131603 2.3509886e-038
-52.938778 286.66641 -16.934132 2.3509886e-038
-47.903294 285.79312 -16.882544 2.3509886e-038
-43.017712 285.71774 -16.87809 2.3509886e-038
-38.173512 285.93295 -16.890804 2.3509886e-038
-33.378933 286.6373 -16.932411 2.3509886e-038
-28.527094 287.00748 -16.954279 2.3509886e-038
-23.591196 286.50986 -16.924885 2.3509886e-038
-18.690567 286.29251 -16.912045 2.3509886e-038
-13.813493 286.41022 -16.918997 2.3509886e-038
-8.9100962 285.81174 -16.883642 2.3509528e-038
-4.0216913 284.8291 -16.825596 2.3509528e-038
0.83509248 284.48517 -16.805279 2.3509528e-038
5.6853218 284.40128 -16.800323 2.3509528e-038
10.512883 283.78217 -16.76375 2.3509528e-038
15.350422 283.73819 -16.761154 2.3509886e-038
18.667261 284.87524 -16.828323 2.3509886e-038
-83.221077 287.85025 -21.913383 9.1476764e-041
-82.607742 287.83109 -21.911924 9.1476764e-041
-78.139694 289.46451 -22.036272 9.1476764e-041
-73.906502 292.24692 -22.248089 9.1476764e-041
-69.643303 295.3045 -22.480856 9.1476764e-041
-65.192657 295.53632 -22.498503 2.3509886e-038
-61.323578 292.98495 -22.304276 2.3509886e-038
-58.644058 290.71234 -22.131266 2.3509886e-038
-52.934406 286.64273 -21.821457 2.3509886e-038
-47.90136 285.78159 -21.755899 2.3509886e-038
-43.068806 286.05713 -21.776875 2.3509886e-038
-38.266083 286.62634 -21.820208 2.3509886e-038
-33.488163 287.57532 -21.89245 2.3509886e-038
-28.644793 288.19165 -21.939371 2.3509886e-038
-23.691118 287.72339 -21.903725 2.3509886e-038
-18.745749 287.13776 -21.85914 2.3509886e-038
-13.840773 286.97583 -21.846813 2.3509886e-038
-8.9319477 286.51263 -21.811552 2.3509886e-038
-4.0353298 285.79507 -21.756926 2.3509528e-038
0.83817399 285.53488 -21.73712 2.3509528e-038
5.7034564 285.30841 -21.719879 2.3509528e-038
10.550082 284.78632 -21.680132 2.3509886e-038
15.416065 284.95154 -21.692711 2.3509886e-038
19.890284 286.6051 -21.818592 2.3509886e-038
-81.774284 289.18427 -26.946989 9.1476764e-041
-78.272491 289.95645 -27.018944 9.1476764e-041
-73.884293 292.15909 -27.22419 9.1476764e-041
-69.506531 294.72458 -27.463251 9.1476764e-041
-64.490532 294.7728 -27.467745 2.3509886e-038
-58.659863 290.79068 -27.09668 2.3509886e-038
-52.934303 286.64218 -26.710112 2.3509886e-038
-47.87048 285.59738 -26.612753 2.3509886e-038
-43.067535 286.04868 -26.654808 2.3509886e-038
-38.329388 287.10056 -26.752825 2.3509886e-038
-33.584038 288.39862 -26.873781 2.3509886e-038
-28.750105 289.25119 -26.953224 2.3509886e-038
-23.796167 288.99921 -26.929743 2.3509886e-038
-18.822332 288.31082 -26.865601 2.3509886e-038
-13.887566 287.94604 -26.831608 2.3509886e-038
-8.9638834 287.53708 -26.793499 2.3509886e-038
-4.0529571 287.04346 -26.747503 2.3509886e-038
0.84231347 286.94507 -26.738337 2.3509886e-038
5.7294798 286.61023 -26.707132 2.3509886e-038
10.598542 286.09442 -26.659069 2.3509886e-038
15.49176 286.35071 -26.682951 2.3509886e-038
20.505869 288.18311 -26.853697 2.3509886e-038
20.976511 288.43176 -26.876869 2.3509886e-038
-80.234718 290.64355 -32.039906 9.1476764e-041
-78.516891 290.86182 -32.063969 9.1476764e-041
-73.994911 292.59653 -32.255199 9.1476764e-041
-69.447823 294.47565 -32.462353 9.1476764e-041
-64.422539 294.46204 -32.46085 9.1476764e-041
-58.771206 291.34262 -32.11697 2.3509886e-038
-53.100899 287.54431 -31.698254 2.3509886e-038
-47.924892 285.922 -31.519413 2.3509886e-038
-43.046013 285.90576 -31.517622 2.3509886e-038
-38.32579 287.07358 -31.646364 2.3509886e-038
-33.627831 288.77466 -31.833887 2.3509886e-038
-28.832771 290.08289 -31.9781 2.3509886e-038
-23.90234 290.28867 -32.000782 2.3509886e-038
-18.916117 289.74734 -31.941113 2.3509886e-038
-13.948284 289.20499 -31.881325 2.3509886e-038
-9.0006075 288.71506 -31.827316 2.3509886e-038
-4.0727358 288.44424 -31.797461 2.3509886e-038
0.84729737 288.64291 -31.819363 2.3509886e-038
5.7654333 288.40875 -31.79355 2.3509886e-038
10.662877 287.83105 -31.729866 2.3509886e-038
15.58093 287.9989 -31.748369 2.3509886e-038
20.622635 289.8241 -31.949572 2.3509886e-038
21.654982 290.38272 -32.011154 2.3509886e-038
-79.116798 292.75259 -37.265331 9.1476764e-041
-79.022926 292.73642 -37.263271 9.1476764e-041
-74.165726 293.27197 -37.331444 9.1476764e-041
-69.39109 294.23505 -37.454041 9.1476764e-041
-64.336052 294.06671 -37.432606 9.1476764e-041
-58.882599 291.89484 -37.156143 2.3509886e-038
-53.356651 288.92923 -36.778645 2.3509886e-038
-48.09684 286.94785 -36.526428 2.3509886e-038
-43.109661 286.32849 -36.44759 2.3509886e-038
-38.355621 287.29703 -36.570877 2.3509886e-038
-33.671886 289.15302 -36.807133 2.3509886e-038
-28.907953 290.83926 -37.021778 2.3509886e-038
-24.002598 291.50626 -37.106682 2.3509886e-038
-19.014868 291.25998 -37.075333 2.3509886e-038
-14.017519 290.6405 -36.996475 2.3509886e-038
-9.0433865 290.08728 -36.926056 2.3509886e-038
-4.0954585 290.05356 -36.921761 2.3509886e-038
0.85219735 290.31213 -36.954678 2.3509886e-038
5.7942615 289.85083 -36.895958 2.3509886e-038
10.711238 289.13651 -36.805031 2.3509886e-038
15.658252 289.42813 -36.842152 2.3509886e-038
20.747463 291.57837 -37.11586 2.3509886e-038
21.72192 292.18219 -37.192722 2.3509886e-038
-78.0755 294.09216 -42.451607 9.1476764e-041
-74.258339 293.63821 -42.386078 9.1476764e-041
-69.260719 293.68225 -42.392437 9.1476764e-041
-64.201424 293.45132 -42.359104 9.1476764e-041
-58.950687 292.23236 -42.183147 2.3509886e-038
-53.618965 290.34967 -41.911381 2.3509886e-038
-48.34993 288.45779 -41.638294 2.3509886e-038
-43.270271 287.39523 -41.484917 2.3509886e-038
-38.423264 287.80368 -41.543877 2.3509886e-038
-33.701874 289.41052 -41.775822 2.3509886e-038
-28.96011 291.36398 -42.057796 2.3509886e-038
-24.086245 292.52213 -42.224972 2.3509886e-038
-19.1005 292.57166 -42.232124 2.3509886e-038
-14.086533 292.07144 -42.15992 2.3509886e-038
-9.0931454 291.68341 -42.103905 2.3509886e-038
-4.1188731 291.71185 -42.108013 2.3509886e-038
0.85617143 291.66599 -42.101391 2.3509886e-038
5.8132138 290.79889 -41.976227 2.3509886e-038
10.744919 290.04568 -41.8675 2.3509886e-038
15.731573 290.78342 -41.973991 2.3509886e-038
20.908979 293.84827 -42.416401 2.3509886e-038
21.264318 294.13043 -42.45713 2.3509886e-038
-76.857407 294.66141 -47.559235 9.1476764e-041
-74.296173 293.78781 -47.418232 9.1476764e-041
-69.064964 292.85223 -47.267227 9.1476764e-041
-63.988461 292.47794 -47.206814 2.3509886e-038
-58.876537 291.86478 -47.107853 2.3509886e-038
-53.699505 290.7858 -46.933701 2.3509886e-038
-48.50032 289.35504 -46.702774 2.3509886e-038
-43.409798 288.32193 -46.536026 2.3509886e-038
-38.494129 288.33453 -46.538055 2.3509886e-038
-33.736069 289.70416 -46.759121 2.3509886e-038
-29.014952 291.91577 -47.116081 2.3509886e-038
-24.167782 293.51236 -47.373779 2.3509886e-038
-19.178534 293.76694 -47.414864 2.3509886e-038
-14.157392 293.54062 -47.378338 2.3509886e-038
-9.1487637 293.46753 -47.366539 2.3509886e-038
-4.1411996 293.29306 -47.338383 2.3509886e-038
0.8593666 292.75446 -47.251446 2.3509886e-038
5.8315349 291.71539 -47.08374 2.3509886e-038
10.788241 291.21512 -47.002995 2.3509886e-038
15.838998 292.76904 -47.253803 2.3509886e-038
20.667259 297.00174 -47.936974 2.3509886e-038
-75.204262 294.6911 -52.590019 9.1476764e-041
-74.414314 294.25494 -52.512184 9.1476764e-041
-68.898811 292.14771 -52.136131 2.3509886e-038
-63.709446 291.20261 -51.967472 2.3509886e-038
-58.606689 290.52707 -51.846916 2.3509886e-038
-53.511154 289.76587 -51.711071 2.3509886e-038
-48.422127 288.88855 -51.554508 2.3509886e-038
-43.411663 288.33435 -51.455605 2.3509886e-038
-38.534004 288.63321 -51.508942 2.3509886e-038
-33.792183 290.18604 -51.786057 2.3509886e-038
-29.087696 292.64764 -52.225349 2.3509886e-038
-24.259932 294.63153 -52.579391 2.3509886e-038
-19.270124 295.16986 -52.675461 2.3509886e-038
-14.233533 295.11938 -52.666451 2.3509886e-038
-9.2002678 295.1196 -52.666492 2.3509886e-038
-4.1609955 294.6951 -52.590736 2.3509886e-038
0.8624745 293.8132 -52.433353 2.3509886e-038
5.8545647 292.86743 -52.264572 2.3509886e-038
10.850704 292.90121 -52.270603 2.3509886e-038
16.003685 295.81314 -52.790257 2.3509886e-038
20.40093 301.56009 -53.815845 2.3509886e-038
-73.043724 294.65155 -57.608253 2.3509886e-038
-68.90464 292.17239 -57.12355 2.3509886e-038
-63.509254 290.2876 -56.755043 2.3509886e-038
-58.324928 289.13034 -56.528786 2.3509886e-038
-53.236534 288.27878 -56.362297 2.3509886e-038
-48.228798 287.73511 -56.256001 2.3509886e-038
-43.314064 287.6861 -56.246418 2.3509886e-038
-38.517437 288.50909 -56.407326 2.3509886e-038
-33.826965 290.48474 -56.793587 2.3509886e-038
-29.143999 293.21408 -57.327209 2.3509886e-038
-24.345451 295.67017 -57.807404 2.3509886e-038
-19.374949 296.77548 -58.023514 2.3509886e-038
-14.316779 296.8454 -58.037186 2.3509886e-038
-9.2453346 296.56525 -57.982407 2.3509886e-038
-4.1779146 295.89334 -57.851044 2.3509886e-038
0.86582524 294.95465 -57.667515 2.3509886e-038
5.8833623 294.30798 -57.541084 2.3509886e-038
10.930218 295.04758 -57.685684 2.3509886e-038
16.192455 299.30237 -58.517551 2.3509886e-038
20.157408 305.63693 -59.756042 2.3509886e-038
-70.115959 293.51007 -62.390911 2.3509886e-038
-69.064484 292.85016 -62.250637 2.3509886e-038
-63.561543 290.52661 -61.756718 2.3509886e-038
-58.27581 288.88684 -61.408157 2.3509886e-038
-53.132236 287.71399 -61.158852 2.3509886e-038
-48.159481 287.32156 -61.075432 2.3509886e-038
-43.290981 287.53278 -61.120327 2.3509886e-038
-38.512047 288.46872 -61.319279 2.3509886e-038
-33.851166 290.69254 -61.791992 2.3509886e-038
-29.191946 293.6965 -62.430538 2.3509886e-038
-24.42602 296.64862 -63.058064 2.3509886e-038
-19.481098 298.40146 -63.43066 2.3509886e-038
-14.405819 298.69153 -63.492329 2.3509886e-038
-9.2937336 298.11777 -63.370354 2.3509886e-038
-4.1961274 297.18326 -63.171707 2.3509886e-038
0.86991358 296.34741 -62.994041 2.3509886e-038
5.9218731 296.23447 -62.970028 2.3509886e-038
11.038307 297.96533 -63.337952 2.3509886e-038
16.4268 303.634 -64.542938 2.3509886e-038
19.629568 309.18497 -65.7229 2.3509886e-038
-67.262009 293.96646 -67.501556 2.3509886e-038
-64.021606 292.62946 -67.194542 2.3509886e-038
-58.540516 290.19904 -66.636467 2.3509886e-038
-53.285065 288.5416 -66.255875 2.3509886e-038
-48.31538 288.25168 -66.189301 2.3509886e-038
-43.456062 288.62924 -66.276001 2.3509886e-038
-38.645844 289.47092 -66.469276 2.3509886e-038
-33.947582 291.52054 -66.939911 2.3509886e-038
-29.269749 294.47925 -67.619301 2.3509886e-038
-24.512426 297.69803 -68.358406 2.3509886e-038
-19.575459 299.8468 -68.851814 2.3509886e-038
-14.483829 300.30902 -68.957954 2.3509886e-038
-9.3427343 299.68961 -68.815712 2.3509886e-038
-4.21843 298.76279 -68.602905 2.3509886e-038
0.87535006 298.1994 -68.473541 2.3509886e-038
5.975316 298.90787 -68.636215 2.3509886e-038
11.198428 302.2876 -69.412285 2.3509886e-038
16.797037 310.47754 -71.292877 2.3509886e-038
18.730705 314.44943 -72.204918 2.3509886e-038
-64.808411 296.87738 -73.233231 2.3509886e-038
-59.085999 292.90314 -72.252861 2.3509886e-038
-53.642838 290.47894 -71.654869 2.3509886e-038
-48.610279 290.01105 -71.539452 2.3509886e-038
-43.743279 290.53687 -71.669159 2.3509886e-038
-38.910484 291.45316 -71.895187 2.3509886e-038
-34.121185 293.01132 -72.279549 2.3509886e-038
-29.369461 295.48242 -72.889122 2.3509886e-038
-24.589748 298.63708 -73.667313 2.3509886e-038
-19.650759 301.00024 -74.250244 2.3509886e-038
-14.546727 301.61316 -74.401436 2.3509886e-038
-9.3872118 301.1163 -74.278877 2.3509886e-038
-4.2435579 300.54242 -74.137314 2.3509886e-038
0.88239193 300.59833 -74.151108 2.3509886e-038
6.046803 302.48392 -74.616241 2.3509886e-038
11.416577 308.17627 -76.020416 2.3509886e-038
17.300716 319.78757 -78.884674 2.3509886e-038
17.363567 319.9429 -78.922989 2.3509886e-038
-61.626877 298.44116 -78.708923 2.3509886e-038
-59.920952 297.04221 -78.339973 2.3509886e-038
-54.241531 293.72089 -77.464035 2.3509886e-038
-49.040459 292.57755 -77.162491 2.3509886e-038
-44.073078 292.72739 -77.202003 2.3509886e-038
-39.186604 293.52139 -77.411423 2.3509886e-038
-34.332687 294.82758 -77.755905 2.3509886e-038
-29.526894 297.06635 -78.346336 2.3509886e-038
-24.707369 300.06555 -79.137329 2.3509886e-038
-19.758574 302.65167 -79.819382 2.3509886e-038
-14.645927 303.66998 -80.087944 2.3509886e-038
-9.4592981 303.42862 -80.024284 2.3509886e-038
-4.2819052 303.2583 -79.97937 2.3509886e-038
0.89272612 304.1188 -80.206314 2.3509886e-038
6.141655 307.22876 -81.026512 2.3509886e-038
11.665771 314.90292 -83.050446 2.3509886e-038
15.459727 323.06198 -85.202255 2.3509886e-038
-57.453209 300.45023 -84.362976 2.3509886e-038
-55.220669 299.02298 -83.962219 2.3509886e-038
-49.758469 296.86121 -83.355217 2.3509886e-038
-44.594868 296.19302 -83.167595 2.3509886e-038
-39.55463 296.27802 -83.191467 2.3509886e-038
-34.624901 297.33691 -83.488785 2.3509886e-038
-29.783989 299.65292 -84.139099 2.3509886e-038
-24.934069 302.81879 -85.02803 2.3509886e-038
-19.976547 305.99048 -85.91861 2.3509886e-038
-14.848486 307.86984 -86.446312 2.3509886e-038
-9.6110058 308.29498 -86.565689 2.3509886e-038
-4.3575702 308.61716 -86.656143 2.3509886e-038
0.90984386 309.9502 -87.030457 2.3509886e-038
6.2704549 313.67181 -88.075447 2.3509886e-038
11.935244 322.177 -90.4636 2.3509886e-038
12.4176 323.08743 -90.719238 2.3509886e-038
-49.84549 303.41742 -90.370934 2.3509886e-038
-45.525337 302.37308 -90.059875 2.3509886e-038
-40.206715 301.16238 -89.69928 2.3509886e-038
-35.136299 301.72845 -89.867882 2.3509886e-038
-30.230614 304.14639 -90.588051 2.3509886e-038
-25.363359 308.03241 -91.745483 2.3509886e-038
-20.419596 312.77689 -93.158585 2.3509886e-038
-15.247992 316.15323 -94.164207 2.3509886e-038
-9.8951559 317.40976 -94.53846 2.3509886e-038
-4.495944 318.41724 -94.838524 2.3509886e-038
0.93957722 320.07922 -95.333549 2.3509886e-038
6.4704437 323.67603 -96.404823 2.3509886e-038
6.4977021 323.70712 -96.414093 2.3509886e-038
-33.620094 309.01938 -97.309792 2.3509886e-038
-30.835619 310.23328 -97.692039 2.3509886e-038
-25.924555 314.84799 -99.145218 2.3509886e-038
-21.052044 322.46442 -101.54361 2.3509886e-038
-15.846286 328.55832 -103.46258 2.3509886e-038
-15.325108 328.89844 -103.56968 2.3509886e-038
-81.224609 283.01184 5.1621213 9.1476764e-041
-82.761208 288.36581 -23.696995 9.1476764e-041
-76.716461 284.1922 5.853148 9.1476764e-041
-79.057953 292.86618 -37.587261 9.1476764e-041
-72.825989 287.97427 0.35831577 9.1476764e-041
-74.522957 294.68457 -54.320698 2.3509886e-038
-69.498535 294.69064 -13.272264 2.3509886e-038
-69.15255 293.2236 -63.879951 2.3509886e-038
-64.590317 295.22891 -22.984808 2.3509886e-038
-64.927399 296.76962 -72.978722 2.3509886e-038
-55.15472 273.41486 68.715958 2.3509886e-038
-60.318779 299.01431 -80.622742 2.3509886e-038
-50.674004 274.40253 70.622276 2.3509886e-038
-55.599323 301.07343 -86.138634 2.3509886e-038
-46.756588 278.95184 62.51228 2.3509886e-038
-50.785732 302.9899 -89.784706 2.3509886e-038
-42.32951 281.14682 40.928349 2.3509886e-038
-45.874222 304.69034 -92.287186 2.3509886e-038
-36.505272 273.43726 78.754288 2.3418409e-038
-40.742996 305.17932 -94.017708 2.3509886e-038
-31.518415 270.66034 81.120323 2.3418409e-038
-35.810566 307.51865 -96.239853 2.3509886e-038
-27.033422 271.97983 78.979721 2.3418409e-038
-30.909796 310.97955 -98.532936 2.3509886e-038
-22.680798 275.45328 74.821342 2.3418409e-038
-26.048523 316.35355 -100.798 2.3509886e-038
-17.907604 274.2995 72.376183 2.3418409e-038
-21.153103 324.01236 -102.85754 2.3509886e-038
-13.130245 272.24368 69.009315 2.3418409e-038
-15.855633 328.75214 -103.5982 2.3509886e-038
-8.5601597 274.58667 53.949772 2.3418409e-038
-10.248887 328.7565 -102.82912 2.3509886e-038
-3.9557962 280.16223 9.2685261 2.3509528e-038
-4.6315145 328.0188 -101.72952 2.3509886e-038
0.83583069 284.73663 1.4690216 2.3509528e-038
0.95851374 326.53021 -99.875107 2.3509886e-038
5.6491828 282.59344 25.062262 2.3509528e-038
6.471252 323.71646 -96.434967 2.3509886e-038
10.371585 279.96799 45.163513 2.3509528e-038
11.96792 323.05908 -91.256363 2.3509886e-038
15.029505 277.80634 41.994186 2.3509528e-038
17.316753 320.08398 -79.115707 2.3509886e-038
20.455482 287.47498 -24.291164 2.3509886e-038
21.000366 295.1326 -44.654984 2.3509886e-038
