# .PCD v0.7 - Point Cloud Data file format
VERSION 0.7
FIELDS x y z rgb
SIZE 4 4 4 4
TYPE F F F F
COUNT 1 1 1 1
WIDTH 733
HEIGHT 1
VIEWPOINT 0 0 0 1 0 0 0
POINTS 733
DATA ascii
-63.983471 271.70837 63.983471 2.3418052e-038
-27.821072 268.50751 75.875648 9.1476764e-041
1.2669431 269.00623 65.881035 3.5733111e-043
33.754032 275.64972 36.350494 2.3509528e-038
-80.195908 283.79599 -2.6731973 2.3418409e-038
-32.02285 267.595 78.143768 9.1476764e-041
-29.619722 267.51236 78.119637 9.1476764e-041
-25.085905 268.07498 78.283936 9.1476764e-041
-23.433598 268.72983 78.475159 9.1476764e-041
-33.007656 269.25806 74.013023 9.1476764e-041
-29.776657 268.92972 73.922775 9.1476764e-041
-25.22941 269.60849 74.109352 9.1476764e-041
-22.029493 271.5881 74.653503 9.1476764e-041
-33.269379 270.00064 69.588028 9.1476764e-041
-29.847075 269.5657 69.475937 9.1476764e-041
-25.274019 270.08521 69.609825 9.1476764e-041
-21.223694 272.1149 70.13295 9.1476764e-041
-1.8151131 267.99738 69.071724 3.5733111e-043
2.5068786 269.8114 69.539253 3.5733111e-043
5.3061643 271.07971 69.866142 3.5733111e-043
-68.503891 272.84662 65.643608 2.3418052e-038
-67.518784 272.38309 65.532089 2.3418052e-038
-62.422325 270.53473 65.087395 2.3418052e-038
-58.330078 270.13528 64.991295 2.3418052e-038
-33.35857 270.5441 65.089653 9.1476764e-041
-29.887182 269.92795 64.941414 9.1476764e-041
-25.272423 270.06818 64.975151 9.1476764e-041
-20.735674 271.2919 65.269569 9.1476764e-041
-20.684155 271.31607 65.275375 9.1476764e-041
-4.1731958 266.97141 64.23011 3.5733111e-043
-2.0990744 267.2738 64.302864 3.5733111e-043
2.4977734 268.83139 64.677597 3.5733111e-043
6.789567 270.80157 65.151596 3.5733111e-043
-69.799843 275.5737 61.575035 2.3418052e-038
-68.0672 274.59549 61.356464 2.3418052e-038
-62.791435 272.13446 60.806557 2.3418052e-038
-57.847668 270.83258 60.515659 2.3418052e-038
-56.399071 271.26364 60.611977 2.3418052e-038
-33.517262 271.80609 60.733189 9.1476764e-041
-29.97015 270.67728 60.480961 9.1476764e-041
-25.315395 270.52737 60.447464 9.1476764e-041
-20.748577 271.46075 60.656021 9.1476764e-041
-20.190184 271.70166 60.709858 9.1476764e-041
-5.0696206 268.4285 59.978493 3.5733111e-043
-2.1102567 268.69766 60.038631 3.5733111e-043
2.5093544 270.07785 60.347027 3.5733111e-043
7.1955066 272.18488 60.817825 3.5733111e-043
7.2035518 272.19324 60.819695 3.5733111e-043
-70.019226 277.34329 57.215439 2.3418052e-038
-68.49826 276.3345 57.00732 2.3418052e-038
-63.105091 273.4938 56.421291 2.3418052e-038
-58.043606 271.74991 56.061531 2.3418052e-038
-55.076046 273.00873 56.321224 2.3418052e-038
-33.722748 273.47153 56.416698 9.1476764e-041
-30.071905 271.59628 56.029839 9.1476764e-041
-25.374777 271.16196 55.940231 9.1476764e-041
-20.847128 272.75012 56.267868 9.1476764e-041
-19.62781 273.71945 56.467846 9.1476764e-041
-5.4369278 271.75876 56.063358 3.5733111e-043
-2.1325724 271.53909 56.01804 3.5733111e-043
2.535043 272.84268 56.286964 3.5733111e-043
7.2716899 275.06668 56.74577 3.5733111e-043
7.3413415 275.14783 56.762512 3.5733111e-043
-69.280121 277.27383 52.447277 2.3418052e-038
-68.634842 276.88547 52.373817 2.3418052e-038
-63.314259 274.40033 51.903744 2.3418052e-038
-58.18119 272.39407 51.52425 2.3418052e-038
-53.793331 273.83109 51.79607 2.3418052e-038
-53.704914 274.01245 51.830372 2.3418052e-038
-33.842304 274.44168 51.911568 9.1476764e-041
-30.139013 272.20236 51.487995 9.1476764e-041
-25.409449 271.53244 51.361275 9.1476764e-041
-20.888432 273.2905 51.693813 9.1476764e-041
-18.827923 274.99835 52.016857 9.1476764e-041
-5.6267018 273.35379 51.705784 3.5733111e-043
-2.1479311 273.49472 51.732445 3.5733111e-043
2.5631156 275.86411 52.180622 3.5733111e-043
7.3997273 279.90994 52.945904 3.5733111e-043
7.4778576 280.03732 52.970001 3.5733111e-043
-68.349915 277.68863 47.764801 2.3418052e-038
-63.529148 275.33163 47.359383 2.3418052e-038
-58.300758 272.95386 46.950382 2.3418052e-038
-53.592484 272.80872 46.925411 2.3509886e-038
-52.055626 273.97601 47.126198 2.3509886e-038
-33.873348 274.71588 47.25346 2.3509886e-038
-30.193184 272.69162 46.905273 9.1476764e-041
-25.442451 271.88513 46.766548 9.1476764e-041
-20.873537 273.09564 46.974766 9.1476764e-041
-17.870577 274.90128 47.285351 9.1476764e-041
-5.9522305 273.6817 47.075573 3.5733111e-043
-2.1535292 274.20749 47.166016 3.5733111e-043
2.5810668 277.79614 47.783295 3.5733111e-043
7.505908 283.92645 48.837757 3.5733111e-043
7.5864091 284.09326 48.866451 3.5733111e-043
-67.583061 279.17935 43.234726 2.3418052e-038
-63.76157 276.33893 42.794846 2.3418052e-038
-58.318928 273.03891 42.283791 2.3418052e-038
-53.426823 271.96542 42.117546 2.3418052e-038
-50.07777 272.52811 42.204689 2.3509886e-038
-33.921486 275.2659 42.628674 2.3509886e-038
-30.284407 273.5155 42.357597 9.1476764e-041
-25.508976 272.59604 42.215206 9.1476764e-041
-20.894503 273.36993 42.335056 9.1476764e-041
-17.044357 275.49301 42.663845 9.1476764e-041
-6.6142035 272.88513 42.259979 3.5733111e-043
-2.1451662 273.14267 42.299858 3.5733111e-043
2.5725555 276.8801 42.878651 3.5733111e-043
7.4798031 282.939 43.816956 3.5733111e-043
7.5598226 283.09766 43.841526 3.5733111e-043
-66.527847 279.2811 38.462254 2.3418052e-038
-63.927406 277.05765 38.15604 2.3418052e-038
-58.33054 273.09329 37.610073 2.3418052e-038
-53.333145 271.48856 37.389072 2.3418052e-038
-48.723312 271.73843 37.423489 2.3509886e-038
-48.274597 271.90677 37.446667 2.3509886e-038
-33.885483 276.15579 38.031837 2.3509886e-038
-30.418676 274.72818 37.835228 9.1476764e-041
-25.62369 273.8219 37.710419 9.1476764e-041
-20.967409 274.32379 37.779541 9.1476764e-041
-16.478565 276.37393 38.061878 9.1476764e-041
-7.5667176 271.68246 37.415779 9.1476764e-041
-6.7826686 271.32278 37.366245 9.1476764e-041
-2.1336019 271.67017 37.414085 3.5733111e-043
2.555151 275.00687 37.873611 3.5733111e-043
7.3972588 279.81656 38.535995 3.5733111e-043
7.467711 279.927 38.551208 3.5733111e-043
29.324516 275.84851 37.989521 2.3509528e-038
31.013075 276.50644 38.080135 2.3509528e-038
35.910221 277.71661 38.246792 2.3509528e-038
38.152447 278.7619 38.390747 2.3509528e-038
-65.499519 279.24191 33.6693 2.3418052e-038
-64.129463 277.93338 33.511528 2.3418052e-038
-58.420795 273.51584 32.978886 2.3418052e-038
-53.393097 271.79373 32.77124 2.3418052e-038
-48.805214 272.19522 32.819653 2.3509886e-038
-46.933228 273.26279 32.948376 2.3509886e-038
-33.580349 277.08408 33.409122 2.3509886e-038
-30.563562 276.03671 33.282837 9.1476764e-041
-25.763664 275.31769 33.19614 9.1476764e-041
-21.093412 275.97235 33.275074 9.1476764e-041
-16.465296 277.71625 33.485344 9.1476764e-041
-16.316986 277.70401 33.483868 9.1476764e-041
-8.5544968 271.24057 32.704544 9.1476764e-041
-6.7596283 270.40112 32.603333 9.1476764e-041
-2.1286683 271.04199 32.680599 3.5733111e-043
2.5448546 273.89868 33.025043 3.5733111e-043
7.3317394 277.33817 33.439758 3.5733111e-043
7.3463159 277.35345 33.441605 3.5733111e-043
26.587423 272.99368 32.915924 2.3509528e-038
30.935127 275.81149 33.25568 2.3509528e-038
35.950592 278.02881 33.523029 2.3509528e-038
38.086819 279.37427 33.685261 2.3509528e-038
-64.374367 279.30743 28.888506 2.3418052e-038
-58.728817 274.95795 28.438646 2.3418052e-038
-53.666973 273.18787 28.255569 2.3418052e-038
-49.070545 273.67502 28.305954 2.3509886e-038
-45.95612 275.66461 28.511732 2.3509886e-038
-33.086987 278.43784 28.798565 2.3509886e-038
-30.734638 277.58179 28.710026 9.1476764e-041
-25.902826 276.80484 28.629665 9.1476764e-041
-21.228468 277.73932 28.726318 9.1476764e-041
-16.554968 279.22876 28.880371 9.1476764e-041
-16.467365 279.20947 28.878376 9.1476764e-041
-9.2987995 272.07205 28.14016 9.1476764e-041
-6.7705431 270.83777 28.012497 9.1476764e-041
-2.1360817 271.98593 28.13125 3.5733111e-043
2.5544972 274.93649 28.436426 3.5733111e-043
7.1442432 277.68649 28.720858 3.5733111e-043
24.55579 271.43042 28.073797 2.3509528e-038
25.852859 272.0907 28.14209 2.3509528e-038
30.842525 274.98587 28.441534 2.3509528e-038
35.903004 277.6608 28.718197 2.3509528e-038
36.941288 278.40546 28.795218 2.3509528e-038
-63.17284 280.15082 24.172588 2.3418052e-038
-59.242435 277.36261 23.932011 2.3418052e-038
-54.072887 275.25415 23.750084 2.3418052e-038
-49.362549 275.30356 23.754347 2.3418052e-038
-44.99865 277.25934 23.923101 2.3509886e-038
-32.665134 280.47388 24.200464 2.3509886e-038
-30.953484 279.55829 24.121464 2.3509886e-038
-26.028221 278.14484 23.999504 9.1476764e-041
-21.334332 279.12436 24.084021 9.1476764e-041
-16.633163 280.54764 24.206829 9.1476764e-041
-16.535982 280.52194 24.204611 9.1476764e-041
-9.7157841 273.51062 23.599644 9.1476764e-041
-6.8053594 272.23047 23.489189 9.1476764e-041
-2.1540539 274.27432 23.665541 3.5733111e-043
2.5867088 278.40341 24.021814 3.5733111e-043
6.7041678 281.67282 24.303915 3.5733111e-043
22.65896 271.95105 23.465078 2.3509528e-038
25.914236 272.73666 23.532866 2.3509528e-038
30.812475 274.71796 23.703819 2.3509528e-038
35.324825 277.01071 23.901648 2.3509528e-038
-61.80249 280.93167 19.423428 2.3418052e-038
-59.705948 279.53271 19.326702 2.3418052e-038
-54.445965 277.15329 19.162191 2.3418052e-038
-49.615646 276.71515 19.131899 2.3418052e-038
-45.054218 277.84256 19.209846 2.3509886e-038
-43.855011 278.52695 19.257164 2.3509886e-038
-32.835754 283.37836 19.592588 2.3509886e-038
-31.231312 282.06754 19.501959 2.3509886e-038
-26.155346 279.50333 19.324669 2.3509886e-038
-21.416937 280.20511 19.373192 9.1476764e-041
-16.710846 281.85788 19.487463 9.1476764e-041
-16.168842 281.70184 19.476675 9.1476764e-041
-10.249096 275.59338 19.05434 9.1476764e-041
-6.8511863 274.06369 18.948578 2.3509886e-038
-2.1751394 276.95914 19.148769 3.5733111e-043
2.6310723 283.17816 19.578745 3.5733111e-043
6.0781016 287.19778 19.856661 3.5733111e-043
20.574556 272.40079 18.833607 2.3509528e-038
21.20887 272.35999 18.830786 2.3509528e-038
25.934639 272.95139 18.871674 2.3509528e-038
30.849241 275.04575 19.016478 2.3509528e-038
33.794136 277.04477 19.154688 2.3509528e-038
-60.416836 281.88373 14.656388 2.3418052e-038
-60.177944 281.74252 14.649046 2.3418052e-038
-54.852173 279.22107 14.517944 2.3418052e-038
-49.893456 278.26453 14.46821 2.3509886e-038
-45.267464 279.15762 14.514646 2.3509886e-038
-42.003807 282.28738 14.677377 2.3509886e-038
-34.512058 286.93695 14.919127 2.3509886e-038
-31.473652 284.25626 14.779747 2.3509886e-038
-26.273254 280.76334 14.598134 2.3509886e-038
-21.463552 280.815 14.600821 2.3509886e-038
-16.740452 282.35724 14.681008 2.3509886e-038
-14.391058 281.27481 14.624729 2.3509886e-038
-12.260136 279.3017 14.522137 2.3509886e-038
-11.749463 278.79776 14.495934 2.3509886e-038
-6.9031515 276.1424 14.35787 2.3509886e-038
-2.1941755 279.38297 14.526363 3.5733111e-043
2.6695368 287.31802 14.938941 3.5733111e-043
5.5551147 291.10626 15.135908 3.5733111e-043
18.416826 273.29425 14.209783 2.3509528e-038
21.234211 272.68542 14.178129 2.3509528e-038
25.905443 272.64413 14.175981 2.3509528e-038
30.822989 274.81168 14.288682 2.3509528e-038
32.242588 275.98187 14.349524 2.3509528e-038
-59.448685 284.68536 9.921174 2.3418052e-038
-55.436306 282.19455 9.8343706 2.3509886e-038
-50.199112 279.96924 9.7568197 2.3509886e-038
-45.413391 280.05753 9.7598953 2.3509886e-038
-41.054832 283.11237 9.8663559 2.3509886e-038
-36.615215 286.35251 9.9792728 2.3509886e-038
-31.498596 284.48154 9.9140701 2.3509886e-038
-26.33728 281.44754 9.8083363 2.3509886e-038
-21.473454 280.94455 9.7908077 2.3509886e-038
-16.70709 281.79456 9.8204308 2.3509886e-038
-11.792304 279.8143 9.7514191 2.3509886e-038
-6.9510059 278.05667 9.6901674 2.3509886e-038
-2.207371 281.06314 9.7949409 2.3509886e-038
2.6837611 288.84897 10.066274 2.3509886e-038
5.4505272 291.55682 10.160642 2.3509886e-038
16.318872 276.09628 9.6218472 2.3509528e-038
16.746435 275.77112 9.6105156 2.3509528e-038
21.375341 274.4978 9.5661411 2.3509528e-038
26.014318 273.79001 9.5414753 2.3509528e-038
30.579817 274.60419 9.56985 2.3509528e-038
-88.921204 286.58954 5.0739918 2.3418409e-038
-85.148224 284.47574 5.0365672 2.3418409e-038
-79.80484 282.82394 5.0073228 2.3418409e-038
-78.064667 282.9584 5.0097036 2.3418409e-038
-58.622272 287.24521 5.0855999 2.3509886e-038
-56.008705 285.10831 5.0477672 2.3509886e-038
-50.509647 281.70114 4.9874444 2.3509886e-038
-45.53574 280.81201 4.9717026 2.3509886e-038
-40.887772 281.96033 4.992033 2.3509886e-038
-36.26627 283.62357 5.0214801 2.3509886e-038
-31.378922 283.4007 5.0175338 2.3509886e-038
-26.378113 281.88388 4.9906793 2.3509886e-038
-21.504896 281.35593 4.9813318 2.3509886e-038
-16.681248 281.35867 4.9813805 2.3509886e-038
-11.810703 280.25089 4.9617672 2.3509886e-038
-6.981111 279.26096 4.944241 2.3509886e-038
-2.211664 281.60977 4.985826 2.3509528e-038
2.6727207 287.66071 5.0929565 2.3509528e-038
6.4012632 288.96292 5.1160121 2.3509528e-038
13.464355 279.24399 4.9439402 2.3509528e-038
16.835777 277.24237 4.9085026 2.3509528e-038
21.605045 277.4476 4.9121361 2.3509528e-038
26.35206 277.34457 4.9103122 2.3509528e-038
29.206423 277.38727 4.911068 2.3509528e-038
-90.833618 287.35431 0.16088878 2.3418409e-038
-84.976761 283.90292 0.15895635 2.3418409e-038
-79.640999 282.24332 0.15802714 2.3418409e-038
-75.088547 283.32462 0.15863256 2.3418409e-038
-73.693794 283.94833 0.15898179 2.3418409e-038
-57.72393 287.61469 0.16103455 2.3509886e-038
-56.27647 286.47134 0.16039442 2.3509886e-038
-50.73251 282.94409 0.15841952 2.3509886e-038
-45.647362 281.50037 0.15761118 2.3509886e-038
-40.862091 281.78323 0.15776955 2.3509886e-038
-36.160446 282.79596 0.15833658 2.3509886e-038
-31.340841 283.05676 0.1584826 2.3509886e-038
-26.425358 282.38873 0.15810858 2.3509886e-038
-21.552725 281.98169 0.15788065 2.3509886e-038
-16.7031 281.72726 0.15773821 2.3509886e-038
-11.843926 281.03922 0.15735297 2.3509886e-038
-7.0068393 280.29016 0.15693359 2.3509886e-038
-2.2106798 281.48447 0.15760227 2.3509528e-038
2.6460638 284.79166 0.15945394 2.3509528e-038
7.5243807 284.62521 0.15936077 2.3509528e-038
12.222917 280.46451 0.15703121 2.3509528e-038
16.945208 279.0444 0.15623608 2.3509528e-038
21.856312 280.67435 0.15714867 2.3509528e-038
26.787067 281.92285 0.15784772 2.3509528e-038
27.983917 282.14993 0.15797487 2.3509528e-038
-90.053635 286.25 -4.7474499 2.3418409e-038
-84.884209 283.59369 -4.7033949 2.3418409e-038
-79.743202 282.6055 -4.6870055 2.3418409e-038
-75.265358 283.99176 -4.7099967 2.3418409e-038
-71.572685 286.06155 -4.7443242 2.3418409e-038
-57.212955 287.56396 -4.7692418 2.3509886e-038
-56.387085 287.03442 -4.7604594 2.3509886e-038
-50.934483 284.07053 -4.7113032 2.3509886e-038
-45.834229 282.65277 -4.6877899 2.3509886e-038
-40.999607 282.73154 -4.689096 2.3509886e-038
-36.239174 283.41165 -4.7003756 2.3509886e-038
-31.397377 283.56735 -4.7029576 2.3509886e-038
-26.500643 283.19327 -4.696754 2.3509886e-038
-21.620661 282.87051 -4.691401 2.3509886e-038
-16.763611 282.74786 -4.6893668 2.3509886e-038
-11.900157 282.37347 -4.6831579 2.3509886e-038
-7.0409441 281.65442 -4.6712322 2.3509886e-038
-2.2129085 281.76825 -4.67312 2.3509528e-038
2.6281047 282.85876 -4.6912065 2.3509528e-038
7.4696527 282.55502 -4.6861682 2.3509528e-038
12.233697 280.71185 -4.6556001 2.3509528e-038
17.04418 280.67419 -4.6549749 2.3509528e-038
22.051735 283.1839 -4.6965985 2.3509528e-038
26.760395 285.81561 -4.7402458 2.3509886e-038
-89.149971 287.715 -9.7045832 2.3418409e-038
-85.444176 285.46451 -9.6286745 2.3418409e-038
-80.194359 284.20441 -9.5861721 2.3418409e-038
-75.757896 285.85022 -9.6416855 2.3418409e-038
-71.621078 288.9325 -9.7456503 2.3418409e-038
-70.554955 289.95731 -9.7802172 2.3418409e-038
-57.17918 288.09982 -9.7175636 2.3509886e-038
-56.522625 287.72437 -9.7048998 2.3509886e-038
-51.138844 285.2103 -9.6201 2.3509886e-038
-46.0676 284.09192 -9.5823784 2.3509886e-038
-41.212128 284.19705 -9.5859241 2.3509886e-038
-36.398491 284.65762 -9.6014595 2.3509886e-038
-31.529814 284.76349 -9.6050301 2.3509886e-038
-26.624275 284.51443 -9.5966291 2.3509886e-038
-21.722227 284.19934 -9.5860004 2.3509886e-038
-16.850876 284.21973 -9.5866899 2.3509886e-038
-11.970049 284.03192 -9.5803537 2.3509886e-038
-7.0828257 283.32977 -9.5566711 2.3509886e-038
-2.2212162 282.82608 -9.5396814 2.3509886e-038
2.6294994 283.00888 -9.5458469 2.3509528e-038
7.4764099 282.81064 -9.5391607 2.3509528e-038
12.287466 281.94565 -9.509984 2.3509528e-038
17.160294 282.5863 -9.5315943 2.3509528e-038
22.275921 286.06287 -9.6488581 2.3509528e-038
25.805464 289.58698 -9.767725 2.3509886e-038
-88.009544 290.37259 -14.772625 2.3418409e-038
-86.578453 289.25406 -14.715721 2.3418409e-038
-80.940598 286.84903 -14.593365 2.3418409e-038
-76.40345 288.28604 -14.666472 2.3418409e-038
-72.229019 291.38504 -14.824134 2.3418409e-038
-69.299744 293.39227 -14.926251 2.3509886e-038
-57.386787 288.82697 -14.693994 2.3509886e-038
-56.659283 288.42001 -14.673289 2.3509886e-038
-51.303894 286.1308 -14.556826 2.3509886e-038
-46.255375 285.24991 -14.512011 2.3509886e-038
-41.368855 285.27783 -14.513433 2.3509886e-038
-36.518852 285.59891 -14.529765 2.3509886e-038
-31.65777 285.91913 -14.546057 2.3509886e-038
-26.753042 285.89047 -14.544599 2.3509886e-038
-21.823038 285.51825 -14.525663 2.3509886e-038
-16.923143 285.43866 -14.521613 2.3509886e-038
-12.021255 285.24698 -14.511861 2.3509886e-038
-7.115128 284.62195 -14.480063 2.3509886e-038
-2.2302856 283.98087 -14.447449 2.3509886e-038
2.6383047 283.95654 -14.446212 2.3509886e-038
7.5073986 283.98285 -14.44755 2.3509528e-038
12.356931 283.53955 -14.424997 2.3509528e-038
17.267027 284.34393 -14.465919 2.3509528e-038
22.440456 288.17578 -14.660864 2.3509886e-038
25.010618 291.22495 -14.815989 2.3509886e-038
-86.244118 292.56613 -19.90023 2.3418409e-038
-81.913673 290.29755 -19.745922 2.3418409e-038
-76.933411 290.28571 -19.745117 2.3418409e-038
-72.413864 292.13074 -19.870617 2.3418409e-038
-67.781288 293.76016 -19.981447 2.3509886e-038
-66.460449 293.76151 -19.981539 2.3509886e-038
-58.12188 289.78046 -19.710751 2.3509886e-038
-56.762066 288.94324 -19.653803 2.3509886e-038
-51.338909 286.32608 -19.475786 2.3509886e-038
-46.28923 285.45868 -19.416784 2.3509886e-038
-41.422878 285.65039 -19.429825 2.3509886e-038
-36.598892 286.22485 -19.468901 2.3509886e-038
-31.76693 286.905 -19.515162 2.3509886e-038
-26.868137 287.12039 -19.529814 2.3509886e-038
-21.914093 286.70956 -19.501871 2.3509886e-038
-16.973871 286.29428 -19.473621 2.3509886e-038
-12.052738 285.99402 -19.453199 2.3509886e-038
-7.1359358 285.45432 -19.416487 2.3509886e-038
-2.2377539 284.93182 -19.380947 2.3509886e-038
2.6471732 284.91107 -19.379536 2.3509886e-038
7.5328426 284.94531 -19.381866 2.3509886e-038
12.403765 284.6142 -19.359344 2.3509886e-038
17.326235 285.31891 -19.407278 2.3509886e-038
22.470209 288.55789 -19.627592 2.3509886e-038
24.38505 290.51401 -19.760649 2.3509886e-038
-84.495071 295.92285 -25.202091 2.3418409e-038
-83.292999 295.18579 -25.13932 2.3418409e-038
-77.565178 292.66946 -24.92502 2.3418409e-038
-72.480972 292.40146 -24.902195 2.3418409e-038
-67.711067 293.45584 -24.991989 2.3509886e-038
-62.637547 293.25793 -24.975134 2.3509886e-038
-56.995182 290.12991 -24.708738 2.3509886e-038
-51.389362 286.60748 -24.408752 2.3509886e-038
-46.25235 285.23126 -24.29155 2.3509886e-038
-41.413963 285.58893 -24.322008 2.3509886e-038
-36.658108 286.68796 -24.415609 2.3509886e-038
-31.863556 287.77768 -24.508415 2.3509886e-038
-26.969387 288.20236 -24.544582 2.3509886e-038
-22.00601 287.91217 -24.519867 2.3509886e-038
-17.032368 287.28091 -24.466106 2.3509886e-038
-12.092936 286.94785 -24.43774 2.3509886e-038
-7.1629815 286.53622 -24.402683 2.3509886e-038
-2.2476616 286.19333 -24.373484 2.3509886e-038
2.6588078 286.16327 -24.370922 2.3509886e-038
7.5594859 285.95313 -24.353027 2.3509886e-038
12.440732 285.46243 -24.311237 2.3509886e-038
17.371307 286.06116 -24.362226 2.3509886e-038
22.487017 288.77371 -24.593239 2.3509886e-038
24.124659 290.16544 -24.711763 2.3509886e-038
-82.588631 298.81845 -30.571898 2.3418409e-038
-78.343002 295.60437 -30.243069 2.3418409e-038
-72.717911 293.35733 -30.013176 2.3418409e-038
-67.758171 293.65997 -30.044138 2.3509886e-038
-62.830135 294.15958 -30.095253 2.3509886e-038
-57.293533 291.64862 -29.83836 2.3509886e-038
-51.579933 287.67032 -29.431341 2.3509886e-038
-46.296257 285.50201 -29.209503 2.3509886e-038
-41.410282 285.56354 -29.215796 2.3509886e-038
-36.679775 286.85739 -29.348171 2.3509886e-038
-31.921413 288.3002 -29.495785 2.3509886e-038
-27.052761 289.09335 -29.576929 2.3509886e-038
-22.106886 289.23196 -29.591112 2.3509886e-038
-17.116096 288.69312 -29.535984 2.3509886e-038
-12.146668 288.22284 -29.487871 2.3509886e-038
-7.1942215 287.78589 -29.443165 2.3509886e-038
-2.2594144 287.68982 -29.433334 2.3509886e-038
2.6745594 287.85861 -29.450605 2.3509886e-038
7.602572 287.58298 -29.422403 2.3509886e-038
12.504619 286.92838 -29.355434 2.3509886e-038
17.453655 287.41724 -29.405449 2.3509886e-038
22.59215 290.12381 -29.682358 2.3509886e-038
24.186653 291.49664 -29.822807 2.3509886e-038
-80.48687 299.35275 -35.758926 2.3418409e-038
-78.969116 297.9668 -35.593372 2.3418409e-038
-72.936325 294.23843 -35.148003 2.3418409e-038
-67.755814 293.64975 -35.077679 2.3418409e-038
-62.809311 294.0621 -35.126938 2.3509886e-038
-57.462421 292.50833 -34.941334 2.3509886e-038
-51.849464 289.17355 -34.542976 2.3509886e-038
-46.473957 286.59787 -34.235306 2.3509886e-038
-41.473789 286.0015 -34.164063 2.3509886e-038
-36.691315 286.94766 -34.277088 2.3509886e-038
-31.95002 288.55856 -34.469521 2.3509886e-038
-27.122871 289.84259 -34.622898 2.3509886e-038
-22.202036 290.47684 -34.698662 2.3509886e-038
-17.206833 290.2236 -34.668411 2.3509886e-038
-12.202621 289.55051 -34.588009 2.3509886e-038
-7.2235308 288.95831 -34.517269 2.3509886e-038
-2.270422 289.09137 -34.533165 2.3509886e-038
2.6896174 289.47928 -34.579502 2.3509886e-038
7.6461964 289.23315 -34.550098 2.3509886e-038
12.577281 288.59567 -34.473949 2.3509886e-038
17.557972 289.13504 -34.53838 2.3509886e-038
22.749384 292.14294 -34.89769 2.3509886e-038
24.322348 293.67227 -35.080368 2.3509886e-038
-78.61187 298.70355 -40.802612 2.3418409e-038
-73.028008 294.60831 -40.243206 2.3418409e-038
-67.652184 293.20062 -40.050915 2.3418409e-038
-62.647381 293.30396 -40.065037 2.3509886e-038
-57.477161 292.58337 -39.966602 2.3509886e-038
-52.065071 290.37601 -39.665077 2.3509886e-038
-46.700619 287.99567 -39.339928 2.3509886e-038
-41.589108 286.79672 -39.176151 2.3509886e-038
-36.714855 287.13174 -39.221916 2.3509886e-038
-31.963625 288.68146 -39.433601 2.3509886e-038
-27.176826 290.41916 -39.670975 2.3509886e-038
-22.273472 291.41147 -39.806519 2.3509886e-038
-17.280588 291.46762 -39.81419 2.3509886e-038
-12.25948 290.89972 -39.736618 2.3509886e-038
-7.2608848 290.45258 -39.675537 2.3509886e-038
-2.2826638 290.65012 -39.702522 2.3509886e-038
2.7009673 290.70087 -39.709454 2.3509886e-038
7.6687756 290.08725 -39.625633 2.3509886e-038
12.61992 289.57407 -39.555531 2.3509886e-038
17.654507 290.72473 -39.712711 2.3509886e-038
22.974201 295.03003 -40.300812 2.3509886e-038
24.40588 296.84653 -40.548946 2.3509886e-038
-76.867294 297.62936 -45.758694 2.3418409e-038
-73.096695 294.88541 -45.336826 2.3418409e-038
-67.526619 292.65646 -44.994141 2.3418409e-038
-62.410912 292.19687 -44.923485 2.3509886e-038
-57.317078 291.76849 -44.857624 2.3509886e-038
-52.073151 290.42108 -44.650467 2.3509886e-038
-46.802002 288.62088 -44.373699 2.3509886e-038
-41.663036 287.30652 -44.171623 2.3509886e-038
-36.721375 287.18274 -44.152596 2.3509886e-038
-31.95471 288.60095 -44.370632 2.3509886e-038
-27.21913 290.87122 -44.719669 2.3509886e-038
-22.34531 292.35135 -44.947231 2.3509886e-038
-17.347952 292.60382 -44.98605 2.3509886e-038
-12.321851 292.37967 -44.951591 2.3509886e-038
-7.3082299 292.34647 -44.946484 2.3509886e-038
-2.2964399 292.40424 -44.955364 2.3509886e-038
2.7116809 291.85394 -44.870762 2.3509886e-038
7.6880236 290.81537 -44.711082 2.3509886e-038
12.65596 290.40103 -44.647388 2.3509886e-038
17.752575 292.33969 -44.945442 2.3509886e-038
23.267462 298.79602 -45.938065 2.3509886e-038
24.230959 300.4512 -46.192535 2.3509886e-038
-74.930786 296.42648 -50.655952 2.3418409e-038
-73.162331 295.15018 -50.437851 2.3418409e-038
-67.416183 292.17783 -49.929909 2.3418409e-038
-62.143608 290.9454 -49.719303 2.3509886e-038
-57.015423 290.23294 -49.597546 2.3509886e-038
-51.861366 289.2399 -49.427853 2.3509886e-038
-46.716656 288.09454 -49.232121 2.3509886e-038
-41.652172 287.2316 -49.084652 2.3509886e-038
-36.727757 287.23264 -49.084831 2.3509886e-038
-31.975645 288.79001 -49.350971 2.3509886e-038
-27.28492 291.57428 -49.826767 2.3509886e-038
-22.44286 293.62762 -50.177662 2.3509886e-038
-17.43511 294.07388 -50.253925 2.3509886e-038
-12.397814 294.18216 -50.272423 2.3509886e-038
-7.3578634 294.33194 -50.298019 2.3509886e-038
-2.3089263 293.99414 -50.240292 2.3509886e-038
2.7236121 293.13809 -50.094006 2.3509886e-038
7.7236776 292.16403 -49.927551 2.3509886e-038
12.723598 291.95306 -49.891499 2.3509886e-038
17.86162 294.13538 -50.264431 2.3509886e-038
23.430574 300.89069 -51.418839 2.3509886e-038
23.476511 300.96982 -51.432362 2.3509886e-038
-72.504021 294.90717 -55.452465 2.3509886e-038
-67.359657 291.93286 -54.893196 2.3509886e-038
-61.954025 290.0578 -54.540627 2.3509886e-038
-56.739296 288.82733 -54.309254 2.3509886e-038
-51.607056 287.82159 -54.120144 2.3509886e-038
-46.550957 287.07272 -53.979328 2.3509886e-038
-41.582615 286.75192 -53.91901 2.3509886e-038
-36.734348 287.28421 -54.019096 2.3509886e-038
-32.025475 289.24005 -54.38686 2.3509886e-038
-27.352257 292.29385 -54.961079 2.3509886e-038
-22.538034 294.87283 -55.446011 2.3509886e-038
-17.539753 295.83887 -55.627659 2.3509886e-038
-12.480694 296.14877 -55.685932 2.3509886e-038
-7.4014597 296.0759 -55.672234 2.3509886e-038
-2.3200099 295.40543 -55.546158 2.3509886e-038
2.7370894 294.58859 -55.392567 2.3509886e-038
7.7713056 293.96567 -55.275433 2.3509886e-038
12.828903 294.36935 -55.351337 2.3509886e-038
18.041286 297.09402 -55.86367 2.3509886e-038
22.724588 301.57129 -56.705547 2.3509886e-038
-69.768944 294.08963 -60.340847 2.3509886e-038
-67.55098 292.76202 -60.068451 2.3509886e-038
-61.999481 290.27063 -59.557274 2.3509886e-038
-56.644829 288.34644 -59.162472 2.3509886e-038
-51.479771 287.11169 -58.90913 2.3509886e-038
-46.463711 286.53467 -58.790737 2.3509886e-038
-41.546341 286.5018 -58.783989 2.3509886e-038
-36.747547 287.38742 -58.965706 2.3509886e-038
-32.069675 289.63925 -59.427731 2.3509886e-038
-27.398796 292.7912 -60.074436 2.3509886e-038
-22.615932 295.89197 -60.710655 2.3509886e-038
-17.641973 297.56299 -61.053513 2.3509886e-038
-12.558747 298.00089 -61.143353 2.3509886e-038
-7.4408689 297.65237 -61.071846 2.3509886e-038
-2.3314667 296.8642 -60.91013 2.3509886e-038
2.7521863 296.21347 -60.776619 2.3509886e-038
7.8260422 296.03619 -60.740242 2.3509886e-038
12.965448 297.5025 -61.0411 2.3509886e-038
18.357086 302.29443 -62.0243 2.3509886e-038
22.515631 307.9726 -63.189342 2.3509886e-038
-67.090134 295.16528 -65.622124 2.3509886e-038
-62.425755 292.26636 -64.977631 2.3509886e-038
-56.81329 289.20398 -64.296783 2.3509886e-038
-51.564682 287.58527 -63.936905 2.3509886e-038
-46.556629 287.1077 -63.830734 2.3509886e-038
-41.641308 287.15668 -63.841625 2.3509886e-038
-36.845436 288.15295 -64.063126 2.3509886e-038
-32.161076 290.46475 -64.577087 2.3509886e-038
-27.472185 293.57544 -65.268669 2.3509886e-038
-22.698931 296.97787 -66.025108 2.3509886e-038
-17.72875 299.02664 -66.480591 2.3509886e-038
-12.621155 299.48172 -66.581772 2.3509886e-038
-7.4736757 298.96472 -66.46682 2.3509886e-038
-2.3422732 298.24017 -66.305748 2.3509886e-038
2.7683642 297.95468 -66.242271 2.3509886e-038
7.8922706 298.54138 -66.372711 2.3509886e-038
13.136608 301.4299 -67.014893 2.3509886e-038
18.770325 309.0994 -68.720009 2.3509886e-038
22.132864 316.14496 -70.2864 2.3509886e-038
-64.192932 296.61658 -71.030235 2.3509886e-038
-63.14835 295.64941 -70.79863 2.3509886e-038
-57.220066 291.27466 -69.751015 2.3509886e-038
-51.868965 289.28229 -69.273903 2.3509886e-038
-46.824062 288.75693 -69.148102 2.3509886e-038
-41.88176 288.81482 -69.161957 2.3509886e-038
-37.055927 289.79916 -69.397682 2.3509886e-038
-32.306011 291.77374 -69.870522 2.3509886e-038
-27.564337 294.56018 -70.537796 2.3509886e-038
-22.764757 297.83911 -71.32299 2.3509886e-038
-17.785427 299.98257 -71.836288 2.3509886e-038
-12.667988 300.59299 -71.98246 2.3509886e-038
-7.5058484 300.25168 -71.900726 2.3509886e-038
-2.3547156 299.82443 -71.798416 2.3509886e-038
2.7877142 300.03729 -71.84938 2.3509886e-038
7.974875 301.66611 -72.239433 2.3509886e-038
13.359859 306.55252 -73.409576 2.3509886e-038
19.266552 317.271 -75.976311 2.3509886e-038
20.968241 321.45145 -76.977394 2.3509886e-038
-60.383881 296.41406 -76.063721 2.3509886e-038
-57.887089 294.67007 -75.616196 2.3509886e-038
-52.428257 292.40155 -75.034058 2.3509886e-038
-47.244507 291.34973 -74.764153 2.3509886e-038
-42.204521 291.04056 -74.684814 2.3509886e-038
-37.32008 291.86499 -74.89637 2.3509886e-038
-32.501663 293.5408 -75.326408 2.3509886e-038
-27.697777 295.98618 -75.953926 2.3509886e-038
-22.848169 298.93042 -76.70945 2.3509886e-038
-17.862133 301.2764 -77.311462 2.3509886e-038
-12.735902 302.2045 -77.549622 2.3509886e-038
-7.5556369 302.24335 -77.559601 2.3509886e-038
-2.3746541 302.36322 -77.590355 2.3509886e-038
2.8175721 303.25085 -77.81813 2.3509886e-038
8.0919085 306.09314 -78.547501 2.3509886e-038
13.657684 313.38638 -80.419044 2.3509886e-038
18.983475 325.16339 -83.441177 2.3509886e-038
-55.966682 298.81024 -81.801674 2.3509886e-038
-53.341244 297.49347 -81.441193 2.3509886e-038
-47.893364 295.35114 -80.854721 2.3509886e-038
-42.666515 294.22647 -80.546837 2.3509886e-038
-37.664799 294.56085 -80.638374 2.3509886e-038
-32.775749 296.0162 -81.036789 2.3509886e-038
-27.921249 298.37427 -81.682327 2.3509886e-038
-23.027649 301.27863 -82.477409 2.3509886e-038
-18.038111 304.24454 -83.28936 2.3509886e-038
-12.889885 305.85831 -83.73114 2.3509886e-038
-7.6604209 306.43497 -83.889 2.3509886e-038
-2.4113812 307.03964 -84.054535 2.3509886e-038
2.8654077 308.39929 -84.42675 2.3509886e-038
8.2534199 312.20264 -85.467949 2.3509886e-038
14.017383 321.63995 -88.051491 2.3509886e-038
15.787341 325.77313 -89.182976 2.3509886e-038
-48.431355 301.00092 -87.561996 2.3509886e-038
-43.418743 299.41379 -87.100288 2.3509886e-038
-38.264141 299.24808 -87.052086 2.3509886e-038
-33.264362 300.42914 -87.395653 2.3509886e-038
-28.358952 303.05164 -88.158554 2.3509886e-038
-23.412632 306.31549 -89.108009 2.3509886e-038
-18.395149 310.26663 -90.257416 2.3509886e-038
-13.209567 313.44391 -91.181686 2.3509886e-038
-7.8815584 315.28098 -91.716095 2.3509886e-038
-2.4852293 316.44266 -92.054039 2.3509886e-038
2.9509051 317.60126 -92.391075 2.3509886e-038
8.4872723 321.04858 -93.393913 2.3509886e-038
10.222476 323.16681 -94.010109 2.3509886e-038
-34.730453 307.94257 -94.860977 2.3509886e-038
-34.123978 308.19284 -94.93808 2.3509886e-038
-29.115616 311.13757 -95.845192 2.3509886e-038
-24.012175 314.15948 -96.776085 2.3509886e-038
-18.892515 318.65558 -98.161095 2.3509886e-038
-13.666548 324.28738 -99.895958 2.3509886e-038
-10.103247 327.12985 -100.77157 2.3509886e-038
-85.228523 284.74402 6.9073286 2.3418409e-038
-87.216652 291.38626 -17.18767 2.3418409e-038
-79.84938 282.98178 6.0599618 2.3418409e-038
-83.86908 297.22739 -27.128481 2.3418409e-038
-75.14045 283.52045 2.1602674 2.3418409e-038
-79.244774 299.0069 -39.072258 2.3418409e-038
-67.442184 272.07407 67.572884 2.3418052e-038
-68.737442 277.29938 49.816338 2.3418052e-038
-71.1819 287.1608 -6.3442125 2.3418409e-038
-73.203018 295.31433 -54.20911 2.3418409e-038
-62.545017 271.06647 69.551361 2.3418052e-038
-64.443825 279.29581 29.155018 2.3418052e-038
-67.828072 293.96292 -17.986753 2.3509886e-038
-67.957809 294.52521 -63.779987 2.3509886e-038
-57.740574 270.33118 63.907654 2.3418052e-038
-60.266727 282.15817 14.035171 2.3418052e-038
-62.554955 292.87128 -23.333706 2.3509886e-038
-63.337929 296.53702 -72.200623 2.3509886e-038
-53.822948 273.98187 52.186424 2.3418052e-038
-58.372936 297.14325 -78.711189 2.3509886e-038
-48.747833 271.87521 38.782436 2.3509886e-038
-53.773769 299.90573 -83.974648 2.3509886e-038
-44.964031 277.28638 23.774742 2.3509886e-038
-48.795738 300.91592 -87.33564 2.3509886e-038
-41.153667 283.79391 13.537899 2.3509886e-038
-43.824696 302.21323 -89.948235 2.3509886e-038
-36.78252 287.66095 12.604867 2.3509886e-038
-38.957233 304.66849 -92.486816 2.3509886e-038
-29.528952 266.69254 81.010139 9.1476764e-041
-34.157547 308.49603 -95.186737 2.3509886e-038
-25.009399 267.25742 80.555595 9.1476764e-041
-29.334036 313.47171 -97.793846 2.3509886e-038
-20.742577 271.3822 65.857407 9.1476764e-041
-24.220348 316.88312 -99.269669 2.3509886e-038
-16.398071 276.58243 37.06279 9.1476764e-041
-19.024912 320.8887 -100.18826 2.3509886e-038
-11.741387 278.60611 15.118382 2.3509886e-038
-13.721132 325.58258 -100.8797 2.3509886e-038
-6.8152137 272.62466 41.171604 3.5733111e-043
-8.1854935 327.43912 -100.57397 2.3509886e-038
-2.1030715 267.78275 68.659477 3.5733111e-043
-2.5725546 327.56177 -99.82531 2.3509886e-038
2.5157034 270.7612 71.77095 3.5733111e-043
3.0280185 325.90085 -98.200287 2.3509886e-038
7.1931019 272.09393 61.026974 3.5733111e-043
7.3266349 277.14508 32.666286 3.5733111e-043
7.5780129 286.65396 3.3562257 2.3509528e-038
8.5496635 323.40866 -95.177238 2.3509886e-038
12.225538 280.52466 3.672004 2.3509528e-038
14.15555 324.8103 -90.918182 2.3509886e-038
16.732119 275.53537 10.493028 2.3509528e-038
19.684195 324.1485 -81.462639 2.3509886e-038
21.208214 272.35159 20.202505 2.3509528e-038
23.433702 300.93085 -51.660301 2.3509886e-038
25.862247 272.18948 31.269749 2.3509528e-038
27.065523 284.85349 -3.4287894 2.3509528e-038
31.056744 276.89578 40.224548 2.3509528e-038
30.798727 274.59537 10.225044 2.3509528e-038
35.978493 278.2446 42.287807 2.3509528e-038
35.859921 277.32761 25.489868 2.3509528e-038
