# .PCD v0.7 - Point Cloud Data file format
VERSION 0.7
FIELDS x y z rgb
SIZE 4 4 4 4
TYPE F F F F
COUNT 1 1 1 1
WIDTH 754
HEIGHT 1
VIEWPOINT 0 0 0 1 0 0 0
POINTS 754
DATA ascii
44.594536 263.01736 30.96843 2.3418052e-038
-28.74176 265.3327 76.228142 9.1476764e-041
18.906967 250.90376 61.447647 3.5733111e-043
-56.109783 264.74716 62.344204 2.3509528e-038
-81.10569 282.3103 -6.6480079 2.3418409e-038
-34.077785 264.9389 78.40612 9.1476764e-041
-32.5891 264.82635 78.372818 9.1476764e-041
-28.256439 266.94455 78.99968 9.1476764e-041
-25.63702 269.64572 79.799065 9.1476764e-041
-34.860668 264.81512 73.812805 9.1476764e-041
-32.569355 264.66589 73.77121 9.1476764e-041
-28.190926 266.32565 74.233841 9.1476764e-041
-23.977108 270.03601 75.268036 9.1476764e-041
-34.555634 264.54657 69.185875 9.1476764e-041
-32.545094 264.46875 69.165527 9.1476764e-041
-28.15345 265.97159 69.558563 9.1476764e-041
-23.891676 269.52319 70.487396 9.1476764e-041
-22.912594 270.86234 70.837616 9.1476764e-041
17.417767 250.8625 65.607132 3.5733111e-043
20.949877 251.11777 65.673889 3.5733111e-043
21.846588 251.5631 65.790352 3.5733111e-043
-61.247272 267.06082 65.248085 2.3509528e-038
-60.306293 266.4873 65.107964 2.3509528e-038
-55.212162 264.0546 64.513611 2.3509528e-038
-51.309994 262.91003 64.233971 2.3509528e-038
-34.177532 264.39639 64.597115 9.1476764e-041
-32.528667 264.33527 64.582184 9.1476764e-041
-28.134628 265.79379 64.93853 9.1476764e-041
-23.888855 269.49136 65.841919 9.1476764e-041
-22.01647 272.03107 66.46241 9.1476764e-041
13.936742 252.29738 61.641094 3.5733111e-043
16.619665 250.97856 61.318882 3.5733111e-043
20.955629 251.18672 61.36974 3.5733111e-043
23.840014 253.5836 61.955345 3.5733111e-043
-62.103828 268.00452 60.867073 2.3509528e-038
-60.369007 266.76443 60.585438 2.3509528e-038
-55.243282 264.20343 60.003803 2.3509528e-038
-50.48262 263.0856 59.749931 2.3509528e-038
-49.368519 263.00089 59.73069 2.3509528e-038
-33.723755 264.71036 60.118935 9.1476764e-041
-32.568283 264.6572 60.106857 9.1476764e-041
-28.147266 265.91318 60.392113 9.1476764e-041
-23.859766 269.16321 61.130234 9.1476764e-041
-21.014072 272.20172 61.820313 9.1476764e-041
12.435264 254.83978 57.877205 3.5733111e-043
12.487728 254.78735 57.865299 3.5733111e-043
16.706738 252.29344 57.298897 3.5733111e-043
21.059034 252.42621 57.329056 3.5733111e-043
23.899155 254.43965 57.786331 3.5733111e-043
-62.060478 268.71613 56.404869 2.3509528e-038
-60.548641 267.55823 56.161819 2.3509528e-038
-55.384632 264.87943 55.599529 2.3509528e-038
-50.628033 263.84341 55.382065 2.3509528e-038
-48.034851 263.71164 55.354401 2.3509528e-038
-33.2089 265.75427 55.783165 9.1476764e-041
-32.697449 265.70685 55.773205 9.1476764e-041
-28.203587 266.44525 55.9282 9.1476764e-041
-23.830067 268.82819 56.428391 9.1476764e-041
-19.900827 271.83282 57.059078 9.1476764e-041
11.454538 257.13101 53.973099 3.5733111e-043
12.553677 256.1329 53.763588 3.5733111e-043
16.817783 253.97041 53.309673 3.5733111e-043
21.208672 254.21986 53.36203 3.5733111e-043
23.39798 255.52562 53.636116 3.5733111e-043
-61.479141 268.84845 51.806549 2.3509528e-038
-60.728443 268.35275 51.711029 2.3509528e-038
-55.633377 266.06909 51.270973 2.3509528e-038
-50.858952 265.04684 51.073986 2.3509528e-038
-46.967209 265.09836 51.08392 2.3509528e-038
-32.687004 267.07513 51.464832 9.1476764e-041
-28.27494 267.11935 51.473358 9.1476764e-041
-23.8384 268.92218 51.820759 9.1476764e-041
-19.457502 272.37244 52.485615 9.1476764e-041
-18.897728 273.08749 52.623405 9.1476764e-041
10.430569 258.91217 49.891853 3.5733111e-043
12.598689 257.0513 49.533264 3.5733111e-043
16.901712 255.23785 49.183815 3.5733111e-043
21.376062 256.22629 49.37429 3.5733111e-043
22.747158 257.51181 49.622005 3.5733111e-043
-60.700081 268.84561 47.179958 2.3509528e-038
-55.811821 266.92252 46.842472 2.3509528e-038
-51.035206 265.96536 46.6745 2.3509528e-038
-46.558083 266.53418 46.774323 2.3509528e-038
-45.977718 266.88297 46.835529 2.3509528e-038
-32.438511 268.65372 47.146282 9.1476764e-041
-28.365702 267.97678 47.027489 9.1476764e-041
-23.905785 269.68234 47.326801 9.1476764e-041
-19.622917 274.68796 48.205235 9.1476764e-041
-18.159206 277.39978 48.681137 9.1476764e-041
9.2507658 260.18869 45.660748 3.5733111e-043
12.628275 257.65494 45.216099 3.5733111e-043
16.985624 256.505 45.014297 3.5733111e-043
21.553072 258.34802 45.337727 3.5733111e-043
21.967108 258.85486 45.426674 3.5733111e-043
-59.820702 268.35809 42.476742 2.3509528e-038
-55.895126 267.32089 42.312576 2.3509528e-038
-51.148224 266.55435 42.191246 2.3509528e-038
-46.645515 267.0347 42.267277 2.3509528e-038
-44.715801 268.12982 42.440617 2.3509886e-038
-32.417435 269.86838 42.715797 9.1476764e-041
-28.488508 269.13696 42.600029 9.1476764e-041
-23.980127 270.52103 42.819103 9.1476764e-041
-19.688782 275.60995 43.624599 9.1476764e-041
-17.341953 280.11212 44.337219 9.1476764e-041
7.8657885 261.41388 41.37759 3.5733111e-043
8.3005552 260.98065 41.309017 3.5733111e-043
12.659475 258.2915 40.883369 3.5733111e-043
17.097221 258.19028 40.867344 3.5733111e-043
21.351795 261.38541 41.373085 3.5733111e-043
-59.124504 268.62717 37.897049 2.3509528e-038
-56.024651 267.94037 37.800159 2.3509528e-038
-51.258812 267.13068 37.685932 2.3509528e-038
-46.666634 267.15561 37.689445 2.3509528e-038
-43.05085 268.26355 37.845753 2.3509886e-038
-32.39183 271.01035 38.233261 9.1476764e-041
-28.649721 270.65997 38.183834 9.1476764e-041
-24.047522 271.28131 38.271488 9.1476764e-041
-19.604797 274.4343 38.716301 9.1476764e-041
-16.372595 278.95816 39.354515 9.1476764e-041
6.226368 261.9819 36.95956 3.5733111e-043
8.2844944 260.47571 36.747066 3.5733111e-043
12.678913 258.68808 36.494877 3.5733111e-043
17.171392 259.31033 36.582661 3.5733111e-043
20.779099 262.26263 36.999161 3.5733111e-043
-58.678993 270.55948 33.514118 2.3509528e-038
-56.368584 269.58524 33.39344 2.3509528e-038
-51.438648 268.06787 33.205482 2.3509528e-038
-46.746635 267.61359 33.149212 2.3509528e-038
-42.310452 268.68466 33.281883 2.3509886e-038
-41.420135 269.10556 33.334019 2.3509886e-038
-32.16684 272.71466 33.781082 9.1476764e-041
-28.843576 272.49136 33.753422 9.1476764e-041
-24.139595 272.31998 33.732189 9.1476764e-041
-19.560539 273.81479 33.917351 9.1476764e-041
-15.608908 277.76505 34.40667 9.1476764e-041
4.5057354 262.03702 32.458443 3.5733111e-043
8.2592611 259.68234 32.166767 3.5733111e-043
12.678754 258.68484 32.043213 3.5733111e-043
17.187828 259.55856 32.15144 3.5733111e-043
20.231113 261.37027 32.375854 3.5733111e-043
40.843147 261.90359 32.441914 2.3418052e-038
44.242882 261.07874 32.339745 2.3418052e-038
49.036526 262.69247 32.539635 2.3418052e-038
49.591454 263.03613 32.582203 2.3418052e-038
-58.12978 272.58728 29.074871 2.3509528e-038
-56.858986 271.9306 29.004829 2.3509528e-038
-51.772076 269.80548 28.77816 2.3509528e-038
-46.975533 268.92398 28.684134 2.3509528e-038
-42.49847 269.87863 28.785961 2.3509528e-038
-40.116665 271.32407 28.940136 2.3509886e-038
-31.67168 275.31287 29.365591 9.1476764e-041
-29.101397 274.92706 29.324438 9.1476764e-041
-24.269575 273.78632 29.202763 9.1476764e-041
-19.606634 274.46005 29.274628 9.1476764e-041
-15.186604 278.51736 29.707392 9.1476764e-041
2.8907332 264.04233 28.163445 3.5733111e-043
3.8382833 262.92838 28.044628 3.5733111e-043
8.2585421 259.65973 27.695988 3.5733111e-043
12.696301 259.04285 27.63019 3.5733111e-043
17.236584 260.29483 27.763725 3.5733111e-043
19.738821 261.61948 27.905018 2.3509886e-038
38.169781 264.65805 28.22912 2.3418052e-038
40.190456 263.96841 28.155561 2.3418052e-038
44.639359 263.41837 28.096893 2.3418052e-038
49.377731 264.8736 28.25211 2.3418052e-038
-57.613991 275.40594 24.636589 2.3509528e-038
-57.582451 275.39059 24.635216 2.3509528e-038
-52.325317 272.68866 24.393513 2.3509528e-038
-47.365398 271.15585 24.256395 2.3509528e-038
-42.810562 271.86053 24.319433 2.3509528e-038
-39.167416 274.30386 24.538 2.3509528e-038
-31.019264 278.6279 24.92481 9.1476764e-041
-29.437359 278.10095 24.877672 9.1476764e-041
-24.430857 275.60571 24.654459 9.1476764e-041
-19.666765 275.30176 24.627268 9.1476764e-041
-15.114418 278.70911 24.932076 9.1476764e-041
-14.74557 279.14349 24.970932 9.1476764e-041
1.3598797 267.23361 23.905529 3.5733111e-043
3.8577993 264.26523 23.639992 3.5733111e-043
8.2973433 260.8797 23.337135 3.5733111e-043
12.765565 260.45605 23.299238 3.5733111e-043
17.363634 262.21344 23.456448 2.3509886e-038
18.934475 263.16782 23.541821 2.3509886e-038
35.733387 266.3783 23.829016 2.3418052e-038
35.961185 266.28497 23.820667 2.3418052e-038
40.49461 265.96609 23.792143 2.3418052e-038
45.217628 266.83078 23.869492 2.3418052e-038
48.481998 268.05487 23.978994 2.3418052e-038
-57.143135 279.60138 20.200769 2.3509528e-038
-53.024719 276.33353 19.964674 2.3509528e-038
-47.808853 273.69455 19.77401 2.3509528e-038
-43.126076 273.86414 19.786264 2.3509528e-038
-38.767223 276.38477 19.968376 2.3509528e-038
-38.301662 276.78589 19.997355 2.3509528e-038
-30.400444 281.83926 20.362453 2.3509886e-038
-29.80003 281.52719 20.339909 2.3509886e-038
-24.623629 277.7804 20.069206 9.1476764e-041
-19.732 276.21497 19.956106 9.1476764e-041
-15.057619 277.66174 20.060635 9.1476764e-041
-13.471253 278.67142 20.133583 9.1476764e-041
-0.60577255 270.81421 19.565912 3.5733111e-043
3.8838308 266.04843 19.22159 3.5733111e-043
8.3676424 263.09003 19.007851 3.5733111e-043
12.87743 262.73843 18.98245 3.5733111e-043
17.516018 264.51462 19.110777 2.3509886e-038
17.583719 264.54996 19.113331 2.3509886e-038
33.010242 266.90939 19.283794 2.3418052e-038
35.994976 266.53519 19.25676 2.3418052e-038
40.727043 267.49268 19.325935 2.3418052e-038
45.736626 269.89337 19.499382 2.3418052e-038
46.93185 270.62842 19.552488 2.3418052e-038
-56.070473 281.83405 15.512538 2.3509528e-038
-53.6329 279.50302 15.384236 2.3509528e-038
-48.213581 276.01154 15.19206 2.3509528e-038
-43.375053 275.44522 15.16089 2.3509528e-038
-38.884415 277.22028 15.258591 2.3509528e-038
-36.984558 279.0806 15.360986 2.3509886e-038
-30.286873 284.45676 15.656898 2.3509886e-038
-30.099159 284.35315 15.651193 2.3509886e-038
-24.82959 280.10385 15.417308 2.3509886e-038
-19.828192 277.56146 15.277369 2.3509886e-038
-15.029981 277.1521 15.254837 2.3509886e-038
-10.288225 277.88708 15.295292 2.3509886e-038
-9.2276535 277.86563 15.294111 2.3509886e-038
-5.0426559 276.36639 15.211592 3.5733111e-043
-0.71093464 272.51117 14.999394 3.5733111e-043
3.9211767 268.60669 14.784487 3.5733111e-043
8.4673691 266.22552 14.653424 3.5733111e-043
13.033506 265.92288 14.636766 3.5733111e-043
15.928529 266.76691 14.683223 2.3509886e-038
30.008417 266.61829 14.675042 2.3418052e-038
31.415756 266.59525 14.673774 2.3418052e-038
36.055756 266.98523 14.69524 2.3418052e-038
40.950157 268.9581 14.803828 2.3418052e-038
44.930389 272.21628 14.983164 2.3418052e-038
-54.81871 282.95505 10.705413 2.3509528e-038
-54.175827 282.33243 10.681856 2.3509528e-038
-48.636318 278.43158 10.534271 2.3509528e-038
-43.656799 277.23441 10.488976 2.3509528e-038
-39.042194 278.34512 10.531 2.3509886e-038
-34.768116 282.53354 10.689466 2.3509886e-038
-30.11158 284.47046 10.762749 2.3509886e-038
-24.946636 281.42426 10.647496 2.3509886e-038
-19.937618 279.09323 10.559303 2.3509886e-038
-15.066009 277.81644 10.510997 2.3509886e-038
-10.262161 277.18307 10.487035 2.3509886e-038
-5.4723825 276.16068 10.448354 2.3509886e-038
-0.71430808 273.80426 10.359199 3.5733111e-043
3.9620643 271.40753 10.26852 3.5733111e-043
8.5903969 270.09369 10.218812 3.5733111e-043
13.261043 270.56531 10.236655 2.3509886e-038
14.590818 270.9827 10.252447 2.3509886e-038
26.870651 267.28265 10.112459 2.3418052e-038
26.896784 267.27457 10.112152 2.3418052e-038
31.474766 267.09598 10.105395 2.3418052e-038
36.197189 268.03253 10.140829 2.3418052e-038
41.205292 270.63379 10.239246 2.3418052e-038
42.540821 271.88306 10.286511 2.3418052e-038
-53.985756 284.6217 5.8709636 2.3509886e-038
-49.086811 281.01056 5.7964754 2.3509528e-038
-43.951206 279.10397 5.7571473 2.3509886e-038
-39.170326 279.25864 5.7603383 2.3509886e-038
-34.616879 281.30453 5.8025393 2.3509886e-038
-29.898233 282.45493 5.8262687 2.3509886e-038
-24.943888 281.39325 5.8043694 2.3509886e-038
-20.032673 280.42386 5.7843733 2.3509886e-038
-15.152379 279.40912 5.7634416 2.3509886e-038
-10.295825 278.09232 5.7362804 2.3509886e-038
-5.4863868 276.8674 5.7110128 2.3509886e-038
-0.71849078 275.40756 5.6809006 2.3509886e-038
4.0028024 274.19818 5.6559544 2.3509886e-038
8.7237139 274.28534 5.6577525 2.3509886e-038
13.508417 275.61249 5.6851277 2.3418052e-038
13.977884 275.72165 5.6873794 2.3418052e-038
23.524939 271.31158 5.5964117 2.3418052e-038
27.083488 269.12985 5.5514088 2.3418052e-038
31.714455 269.13 5.5514116 2.3418052e-038
36.504314 270.3067 5.5756845 2.3418052e-038
40.158459 271.82553 5.6070132 2.3418052e-038
-85.991447 281.49506 0.96276337 2.3418409e-038
-83.063576 281.44827 0.96260339 2.3418409e-038
-82.088104 281.7554 0.96365374 2.3418409e-038
-53.508324 285.74915 0.97731304 2.3509886e-038
-49.399303 282.7995 0.96722484 2.3509886e-038
-44.152729 280.3837 0.95896232 2.3509886e-038
-39.2654 279.93646 0.95743269 2.3509886e-038
-34.563404 280.87 0.96062553 2.3509886e-038
-29.801508 281.54117 0.96292108 2.3509886e-038
-24.953957 281.50684 0.96280366 2.3509886e-038
-20.11478 281.57321 0.96303064 2.3509886e-038
-15.251361 281.23431 0.96187156 2.3509886e-038
-10.374285 280.21155 0.95837349 2.3509886e-038
-5.5303149 279.0842 0.95451778 2.3509886e-038
-0.72447562 277.70163 0.94978911 2.3509886e-038
4.0394468 276.70837 0.946392 2.3509886e-038
8.8202343 277.3201 0.94848424 2.3418052e-038
13.616139 277.81033 0.95016098 2.3418052e-038
15.349623 277.39554 0.94874233 2.3418052e-038
17.856134 275.95734 0.9438234 2.3418052e-038
18.254299 275.66364 0.94281888 2.3418052e-038
22.740091 272.57635 0.93225986 2.3418052e-038
27.329365 271.57312 0.9288286 2.3418052e-038
32.122574 272.59332 0.93231779 2.3418052e-038
37.031151 274.20782 0.93783975 2.3418052e-038
38.113483 274.6532 0.939363 2.3418052e-038
-90.167061 283.05243 -3.9024141 2.3418409e-038
-87.975998 281.67087 -3.8833666 2.3418409e-038
-82.868095 280.78592 -3.8711658 2.3418409e-038
-78.687523 283.12805 -3.9034564 2.3418409e-038
-75.956863 285.39743 -3.9347444 2.3418409e-038
-53.401199 286.76266 -3.9535663 2.3509886e-038
-49.634262 284.14462 -3.9174714 2.3509886e-038
-44.358772 281.69214 -3.8836598 2.3509886e-038
-39.448837 281.24426 -3.8774848 2.3509886e-038
-34.698517 281.96793 -3.8874621 2.3509886e-038
-29.902407 282.49435 -3.8947201 2.3509886e-038
-25.053589 282.6308 -3.896601 2.3509886e-038
-20.205896 282.84869 -3.899605 2.3509886e-038
-15.341829 282.90256 -3.9003477 2.3509886e-038
-10.463601 282.62399 -3.8965073 2.3509886e-038
-5.5849853 281.84314 -3.8857412 2.3509886e-038
-0.73111206 280.24545 -3.8637145 2.3509886e-038
4.0699215 278.79593 -3.84373 2.3509886e-038
8.8627586 278.65714 -3.8418164 2.3418052e-038
13.621914 277.92816 -3.8317664 2.3418052e-038
18.249435 275.59021 -3.7995329 2.3418052e-038
22.844357 273.82614 -3.7752123 2.3418052e-038
27.627516 274.53586 -3.784997 2.3418052e-038
32.660854 277.16119 -3.8211918 2.3418052e-038
36.212204 279.48087 -3.8531733 2.3418052e-038
-89.658348 282.77908 -8.7644463 2.3418409e-038
-88.024391 281.82581 -8.7348995 2.3418409e-038
-82.928856 280.99182 -8.7090511 2.3418409e-038
-78.756454 283.37607 -8.7829485 2.3418409e-038
-74.837044 287.04547 -8.896678 2.3418409e-038
-73.009506 288.96033 -8.956027 2.3418409e-038
-53.58527 288.09219 -8.9291191 2.3509886e-038
-49.908733 285.71588 -8.8554688 2.3509886e-038
-44.632507 283.43042 -8.7846327 2.3509886e-038
-39.701202 283.04343 -8.7726374 2.3509886e-038
-34.920547 283.77222 -8.7952271 2.3509886e-038
-30.100142 284.3624 -8.8135195 2.3509886e-038
-25.218409 284.49014 -8.8174782 2.3509886e-038
-20.324778 284.51285 -8.818181 2.3509886e-038
-15.433981 284.60184 -8.82094 2.3509886e-038
-10.542391 284.75214 -8.8255987 2.3509886e-038
-5.6326036 284.24615 -8.8099155 2.3509886e-038
-0.73737526 282.64624 -8.7603283 2.3509886e-038
4.1022773 281.01236 -8.7096882 2.3509886e-038
8.9062986 280.02609 -8.6791191 2.3509886e-038
13.661513 278.73611 -8.6391382 2.3418052e-038
18.345121 277.03519 -8.5864191 2.3418052e-038
23.052582 276.32205 -8.5643167 2.3418052e-038
27.953419 277.77435 -8.6093292 2.3418052e-038
33.195602 281.6991 -8.7309723 2.3418052e-038
34.183407 282.78824 -8.7647295 2.3418052e-038
-87.933006 282.9559 -13.638759 2.3418409e-038
-83.223221 281.98923 -13.592163 2.3418409e-038
-78.93531 284.01962 -13.69003 2.3418409e-038
-75.054665 287.88019 -13.876113 2.3418409e-038
-71.06263 291.82886 -14.066443 2.3418409e-038
-70.574928 292.24915 -14.086702 2.3418409e-038
-53.830719 289.39316 -13.94904 2.3509886e-038
-50.149685 287.09528 -13.83828 2.3509886e-038
-44.859234 284.87024 -13.73103 2.3509886e-038
-39.896317 284.43448 -13.710027 2.3509886e-038
-35.090878 285.15637 -13.744823 2.3509886e-038
-30.259068 285.86383 -13.778922 2.3509886e-038
-25.35191 285.99615 -13.785302 2.3509886e-038
-20.424099 285.9032 -13.78082 2.3509886e-038
-15.510973 286.02155 -13.786526 2.3509886e-038
-10.594737 286.16602 -13.793489 2.3509886e-038
-5.6606765 285.66284 -13.769235 2.3509886e-038
-0.74196935 284.4072 -13.708712 2.3509886e-038
4.1342988 283.2059 -13.650808 2.3509886e-038
8.9742947 282.16397 -13.600587 2.3509886e-038
13.76408 280.82877 -13.536229 2.3418052e-038
18.505035 279.4501 -13.469774 2.3418052e-038
23.281132 279.06158 -13.451048 2.3418052e-038
28.224403 280.46716 -13.518798 2.3418052e-038
32.267147 283.10745 -13.646064 2.3509886e-038
-86.117409 284.77017 -18.626278 2.3418409e-038
-83.883324 284.22589 -18.590677 2.3418409e-038
-79.222946 285.05457 -18.64488 2.3418409e-038
-75.147903 288.23782 -18.85309 2.3418409e-038
-71.010124 291.61328 -19.073874 2.3418409e-038
-67.63913 293.16171 -19.175156 2.3418409e-038
-54.079472 290.28494 -18.986988 2.3509886e-038
-50.253124 287.68741 -18.817091 2.3509886e-038
-44.920006 285.25613 -18.658066 2.3509886e-038
-39.960781 284.89407 -18.634382 2.3509886e-038
-35.1759 285.84729 -18.696732 2.3509886e-038
-30.355349 286.77341 -18.757307 2.3509886e-038
-25.434515 286.92804 -18.76742 2.3509886e-038
-20.488834 286.80936 -18.759659 2.3509886e-038
-15.565096 287.01959 -18.773409 2.3509886e-038
-10.626768 287.03119 -18.774166 2.3509886e-038
-5.6755948 286.41568 -18.733908 2.3509886e-038
-0.74515504 285.62833 -18.682409 2.3509886e-038
4.16043 284.99588 -18.641041 2.3509886e-038
9.0397863 284.22311 -18.590496 2.3509886e-038
13.867185 282.93243 -18.506077 2.3509886e-038
18.645054 281.56458 -18.416605 2.3509886e-038
23.466885 281.28815 -18.398527 2.3509886e-038
28.459949 282.8078 -18.497923 2.3509886e-038
31.099205 284.36996 -18.600103 2.3509886e-038
-84.297653 287.65262 -23.764484 2.3509886e-038
-79.688385 286.72928 -23.688202 2.3418409e-038
-75.233856 288.56747 -23.840067 2.3418409e-038
-70.900528 291.16318 -24.05451 2.3418409e-038
-66.311386 293.02322 -24.208179 2.3418409e-038
-64.2556 294.01202 -24.289867 2.3418409e-038
-54.971413 292.27441 -24.146315 2.3418409e-038
-50.441971 288.76852 -23.856676 2.3509886e-038
-44.960567 285.51373 -23.58778 2.3509886e-038
-39.953281 284.84058 -23.532167 2.3509886e-038
-35.188019 285.94574 -23.62347 2.3509886e-038
-30.407351 287.26468 -23.732435 2.3509886e-038
-25.508066 287.75778 -23.773172 2.3509886e-038
-20.559376 287.79681 -23.776398 2.3509886e-038
-15.616116 287.96039 -23.789911 2.3509886e-038
-10.655885 287.81763 -23.778116 2.3509886e-038
-5.6919928 287.24319 -23.730658 2.3509886e-038
-0.74852729 286.92096 -23.704039 2.3509886e-038
4.1842227 286.62573 -23.679649 2.3509886e-038
9.0943184 285.93765 -23.622803 2.3509886e-038
13.953875 284.70117 -23.520649 2.3509886e-038
18.769819 283.44867 -23.417173 2.3509886e-038
23.64628 283.43848 -23.41633 2.3509886e-038
28.714458 285.33688 -23.57317 2.3509886e-038
30.643503 286.61072 -23.678408 2.3509886e-038
-81.842445 289.73218 -28.921722 2.3418409e-038
-80.397789 289.28183 -28.876764 2.3418409e-038
-75.548485 289.77426 -28.925922 2.3418409e-038
-70.977036 291.47736 -29.095928 2.3418409e-038
-66.340477 293.15173 -29.263069 2.3418409e-038
-61.715134 295.15533 -29.463074 2.3418409e-038
-56.559738 294.75595 -29.423206 2.3418409e-038
-50.766819 290.62823 -29.011166 2.3418409e-038
-45.147697 286.70206 -28.619249 2.3509886e-038
-40.005756 285.21469 -28.470776 2.3509886e-038
-35.174271 285.83401 -28.532598 2.3509886e-038
-30.416933 287.35522 -28.684446 2.3509886e-038
-25.569767 288.45383 -28.794111 2.3509886e-038
-20.639605 288.91986 -28.840635 2.3509886e-038
-15.675774 289.06049 -28.85467 2.3509886e-038
-10.690588 288.75494 -28.824171 2.3509886e-038
-5.7114048 288.22278 -28.771049 2.3509886e-038
-0.75190049 288.21393 -28.770168 2.3509886e-038
4.2073851 288.21243 -28.770014 2.3509886e-038
9.1522074 287.75778 -28.724632 2.3509886e-038
14.053186 286.72742 -28.62178 2.3509886e-038
18.91744 285.67795 -28.517017 2.3509886e-038
23.851557 285.89905 -28.539089 2.3509886e-038
28.96846 287.8609 -28.734926 2.3509886e-038
30.616917 288.97943 -28.846581 2.3509886e-038
-79.434906 292.5972 -34.242443 2.3418409e-038
-76.15612 292.10489 -34.184834 2.3418409e-038
-71.188744 292.34677 -34.213139 2.3418409e-038
-66.363747 293.25455 -34.319374 2.3418409e-038
-61.598598 294.59802 -34.476597 2.3418409e-038
-56.526627 294.5834 -34.474888 2.3418409e-038
-50.925838 291.53857 -34.118553 2.3418409e-038
-45.375389 288.14798 -33.721756 2.3509886e-038
-40.153881 286.27075 -33.50206 2.3509886e-038
-35.218002 286.18939 -33.492538 2.3509886e-038
-30.427082 287.45108 -33.640198 2.3509886e-038
-25.605335 288.85507 -33.804504 2.3509886e-038
-20.702095 289.79465 -33.914467 2.3509886e-038
-15.740733 290.25836 -33.968727 2.3509886e-038
-10.734847 289.95041 -33.93269 2.3509886e-038
-5.732729 289.29892 -33.856449 2.3509886e-038
-0.75459844 289.24811 -33.850502 2.3509886e-038
4.2249255 289.41394 -33.869907 2.3509886e-038
9.1999626 289.25928 -33.85181 2.3509886e-038
14.135575 288.40839 -33.752232 2.3509886e-038
19.03668 287.47864 -33.643421 2.3509886e-038
24.012644 287.82993 -33.684532 2.3509886e-038
29.1514 289.67874 -33.900902 2.3509886e-038
30.712833 290.78458 -34.030315 2.3509886e-038
-77.286392 295.7215 -39.69659 2.3418409e-038
-77.067253 295.59967 -39.680237 2.3418409e-038
-71.46888 293.49719 -39.398006 2.3418409e-038
-66.347221 293.18155 -39.355633 2.3418409e-038
-61.436825 293.82431 -39.441917 2.3418409e-038
-56.37038 293.76917 -39.434513 2.3418409e-038
-50.951847 291.68747 -39.155075 2.3418409e-038
-45.529415 289.1261 -38.811245 2.3509886e-038
-40.312458 287.40128 -38.579712 2.3509886e-038
-35.313015 286.96149 -38.520676 2.3509886e-038
-30.465872 287.81754 -38.63559 2.3509886e-038
-25.636078 289.20187 -38.821419 2.3509886e-038
-20.749428 290.45721 -38.989933 2.3509886e-038
-15.800426 291.35907 -39.110992 2.3509886e-038
-10.785009 291.3053 -39.103771 2.3509886e-038
-5.7617569 290.76379 -39.031086 2.3509886e-038
-0.75805765 290.57407 -39.005615 2.3509886e-038
4.2391758 290.39014 -38.980923 2.3509886e-038
9.2201605 289.89432 -38.914368 2.3509886e-038
14.159772 288.90207 -38.781174 2.3509886e-038
19.078188 288.10544 -38.674236 2.3509886e-038
24.081081 288.65027 -38.747375 2.3509886e-038
29.240099 290.56018 -39.003754 2.3509886e-038
30.641251 291.68161 -39.154289 2.3509886e-038
-74.954811 296.68396 -44.930859 2.3418409e-038
-71.782539 294.78528 -44.643322 2.3418409e-038
-66.364319 293.25708 -44.411884 2.3418409e-038
-61.322937 293.27966 -44.415298 2.3418409e-038
-56.243126 293.10596 -44.388996 2.3418409e-038
-50.928764 291.55533 -44.15416 2.3418409e-038
-45.605423 289.60876 -43.859371 2.3509886e-038
-40.41531 288.13455 -43.636105 2.3509886e-038
-35.378613 287.49457 -43.539188 2.3509886e-038
-30.492754 288.0715 -43.62656 2.3509886e-038
-25.665466 289.53342 -43.847958 2.3509886e-038
-20.790756 291.03574 -44.075474 2.3509886e-038
-15.845287 292.18631 -44.249722 2.3509886e-038
-10.835299 292.66364 -44.32201 2.3509886e-038
-5.7974906 292.56708 -44.307384 2.3509886e-038
-0.76279753 292.39093 -44.280712 2.3509886e-038
4.2587948 291.73404 -44.181229 2.3509886e-038
9.2434816 290.62756 -44.01366 2.3509886e-038
14.181067 289.33655 -43.818146 2.3509886e-038
19.114931 288.66028 -43.715725 2.3509886e-038
24.167276 289.68347 -43.870682 2.3509886e-038
29.435816 292.50504 -44.297989 2.3509886e-038
30.294516 293.332 -44.423229 2.3509886e-038
-72.338234 295.93381 -49.909401 2.3418409e-038
-72.010399 295.72104 -49.873516 2.3418409e-038
-66.362892 293.25079 -49.456909 2.3418409e-038
-61.166565 292.5318 -49.335648 2.3418409e-038
-56.017464 291.92993 -49.234146 2.3418409e-038
-50.774361 290.67142 -49.021893 2.3418409e-038
-45.544167 289.21976 -48.777073 2.3509886e-038
-40.391266 287.96317 -48.565147 2.3509886e-038
-35.35347 287.29025 -48.45166 2.3509886e-038
-30.470068 287.85718 -48.547272 2.3509886e-038
-25.671055 289.59647 -48.840603 2.3509886e-038
-20.823652 291.49625 -49.161003 2.3509886e-038
-15.891278 293.03436 -49.42041 2.3509886e-038
-10.896236 294.3096 -49.635475 2.3509886e-038
-5.839149 294.66934 -49.696144 2.3509886e-038
-0.76793444 294.35999 -49.643974 2.3509886e-038
4.2819562 293.32065 -49.468693 2.3509886e-038
9.2822504 291.8465 -49.22007 2.3509886e-038
14.235907 290.45547 -48.985474 2.3509886e-038
19.211931 290.12512 -48.929764 2.3509886e-038
24.388874 292.33966 -49.303246 2.3509886e-038
29.810387 297.56204 -50.184002 2.3509886e-038
-69.328087 294.89389 -54.808266 2.3418409e-038
-66.444893 293.61316 -54.570232 2.3418409e-038
-61.066525 292.05334 -54.280327 2.3418409e-038
-55.791794 290.75391 -54.038815 2.3418409e-038
-50.56723 289.48563 -53.803097 2.3418409e-038
-45.403114 288.32407 -53.587212 2.3509886e-038
-40.312748 287.40335 -53.416088 2.3509886e-038
-35.320805 287.02481 -53.345734 2.3509886e-038
-30.44968 287.66458 -53.464645 2.3509886e-038
-25.6598 289.46948 -53.800098 2.3509886e-038
-20.846518 291.81631 -54.236275 2.3509886e-038
-15.944977 294.02457 -54.646694 2.3509886e-038
-10.953982 295.86929 -54.989552 2.3509886e-038
-5.8747997 296.46844 -55.100906 2.3509886e-038
-0.77232844 296.04425 -55.022068 2.3509886e-038
4.3057523 294.95071 -54.818829 2.3509886e-038
9.3352184 293.5119 -54.551411 2.3509886e-038
14.335014 292.47754 -54.359169 2.3509886e-038
19.399925 292.96411 -54.4496 2.3509886e-038
24.764088 296.83719 -55.169441 2.3509886e-038
29.167717 302.87518 -56.291653 2.3509886e-038
-66.194305 294.8873 -59.881199 2.3509886e-038
-61.11879 292.30328 -59.35648 2.3418409e-038
-55.663914 290.08746 -58.906521 2.3418409e-038
-50.421482 288.65125 -58.61488 2.3509886e-038
-45.291866 287.61758 -58.40498 2.3509886e-038
-40.245651 286.92502 -58.264339 2.3509886e-038
-35.291508 286.78674 -58.236259 2.3509886e-038
-30.428391 287.46347 -58.37368 2.3509886e-038
-25.644213 289.29364 -58.745323 2.3509886e-038
-20.866215 292.09204 -59.313583 2.3509886e-038
-15.994802 294.94333 -59.892574 2.3509886e-038
-10.996953 297.02994 -60.316296 2.3509886e-038
-5.8997698 297.72855 -60.458153 2.3509886e-038
-0.77577049 297.36365 -60.384056 2.3509886e-038
4.328505 296.50934 -60.210575 2.3509886e-038
9.3957148 295.414 -59.988152 2.3509886e-038
14.459099 295.00925 -59.905964 2.3509886e-038
19.639481 296.5817 -60.225269 2.3509886e-038
25.161364 301.59918 -61.244144 2.3509886e-038
28.161243 305.86914 -62.111221 2.3509886e-038
-62.605499 294.02585 -64.765602 2.3509886e-038
-61.288158 293.11331 -64.564598 2.3509886e-038
-55.699699 290.27393 -63.939163 2.3509886e-038
-50.458065 288.86069 -63.627861 2.3509886e-038
-45.330864 287.86523 -63.408592 2.3509886e-038
-40.272221 287.11441 -63.24321 2.3509886e-038
-35.322983 287.04251 -63.227371 2.3509886e-038
-30.470619 287.8624 -63.407967 2.3509886e-038
-25.690147 289.81186 -63.837379 2.3509886e-038
-20.918142 292.81894 -64.499748 2.3509886e-038
-16.044844 295.86612 -65.170967 2.3509886e-038
-11.031932 297.97473 -65.635429 2.3509886e-038
-5.9189868 298.6983 -65.794807 2.3509886e-038
-0.77846766 298.39752 -65.728554 2.3509886e-038
4.3482122 297.85928 -65.610001 2.3509886e-038
9.4566288 297.32922 -65.49324 2.3509886e-038
14.588807 297.6557 -65.565155 2.3509886e-038
19.899508 300.50845 -66.193535 2.3509886e-038
25.629776 307.21384 -67.670547 2.3509886e-038
27.138191 309.53729 -68.182335 2.3509886e-038
-58.910519 294.27039 -69.882988 2.3509886e-038
-56.204803 292.90625 -69.559036 2.3509886e-038
-50.821472 290.9411 -69.092346 2.3509886e-038
-45.578648 289.43872 -68.735573 2.3509886e-038
-40.464123 288.48254 -68.508499 2.3509886e-038
-35.476421 288.28937 -68.462624 2.3509886e-038
-30.592226 289.01123 -68.634056 2.3509886e-038
-25.786112 290.89441 -69.081268 2.3509886e-038
-20.987055 293.7836 -69.767387 2.3509886e-038
-16.088717 296.67511 -70.454063 2.3509886e-038
-11.059706 298.72491 -70.940842 2.3509886e-038
-5.9370518 299.60995 -71.151024 2.3509886e-038
-0.78165692 299.62 -71.153412 2.3509886e-038
4.3724227 299.51773 -71.12912 2.3509886e-038
9.5283089 299.58292 -71.1446 2.3509886e-038
14.737291 300.68524 -71.40638 2.3509886e-038
20.198767 305.02765 -72.437607 2.3509886e-038
26.024418 313.98169 -74.564003 2.3509886e-038
-55.246429 298.02737 -75.903366 2.3509886e-038
-51.623631 295.53326 -75.26815 2.3509886e-038
-46.057537 292.47983 -74.490486 2.3509886e-038
-40.80666 290.92462 -74.094391 2.3509886e-038
-35.745064 290.47244 -73.979225 2.3509886e-038
-30.794819 290.92517 -74.094536 2.3509886e-038
-25.92942 292.51111 -74.498444 2.3509886e-038
-21.074923 295.01361 -75.135796 2.3509886e-038
-16.144497 297.7037 -75.82093 2.3509886e-038
-11.100121 299.81653 -76.359032 2.3509886e-038
-5.9677486 301.15906 -76.700958 2.3509886e-038
-0.7872991 301.78271 -76.859802 2.3509886e-038
4.4108047 302.14697 -76.952568 2.3509886e-038
9.6282282 302.72452 -77.099655 2.3509886e-038
14.932138 304.66071 -77.592781 2.3509886e-038
20.526653 309.97913 -78.947311 2.3509886e-038
24.25732 315.72699 -80.411209 2.3509886e-038
-50.147686 300.40533 -81.678101 2.3509886e-038
-46.940483 298.08682 -81.047722 2.3509886e-038
-41.41103 295.2334 -80.271889 2.3509886e-038
-36.155037 293.80396 -79.88324 2.3509886e-038
-31.1001 293.80923 -79.884674 2.3509886e-038
-26.158737 295.09802 -80.235085 2.3509886e-038
-21.230413 297.19022 -80.80394 2.3509886e-038
-16.262831 299.88577 -81.536842 2.3509886e-038
-11.198217 302.46613 -82.238419 2.3509886e-038
-6.038547 304.73184 -82.854454 2.3509886e-038
-0.79858547 306.10895 -83.228882 2.3509886e-038
4.4793997 306.84586 -83.42923 2.3509886e-038
9.7891903 307.7854 -83.684692 2.3509886e-038
15.220317 310.54041 -84.433762 2.3509886e-038
20.970247 316.67801 -86.102539 2.3509886e-038
21.47411 317.37259 -86.291389 2.3509886e-038
-42.780758 303.16949 -87.646324 2.3509886e-038
-42.491932 302.93951 -87.579834 2.3509886e-038
-36.834049 299.32178 -86.533951 2.3509886e-038
-31.600691 298.53842 -86.30748 2.3509886e-038
-26.579279 299.84219 -86.684395 2.3509886e-038
-21.563065 301.84677 -87.263924 2.3509886e-038
-16.538919 304.97684 -88.168831 2.3509886e-038
-11.42435 308.57404 -89.208771 2.3509886e-038
-6.1924801 312.5 -90.343773 2.3509886e-038
-0.82255024 315.29498 -91.151802 2.3509886e-038
4.618515 316.37543 -91.464165 2.3509886e-038
10.076188 316.80899 -91.589508 2.3509886e-038
15.659985 319.51096 -92.370644 2.3509886e-038
15.677342 319.52594 -92.374969 2.3509886e-038
-28.763605 307.5618 -94.208366 2.3509886e-038
-27.311123 308.09814 -94.372658 2.3509886e-038
-22.188837 310.60654 -95.140999 2.3509886e-038
-17.047659 314.35797 -96.290092 2.3509886e-038
-11.808921 318.96136 -97.700142 2.3509886e-038
-6.4324923 324.61209 -99.431 2.3509886e-038
-6.0292468 325.04242 -99.562813 2.3509886e-038
-88.111183 282.1037 -0.26778948 2.3418409e-038
-88.3265 282.79303 -12.573656 2.3418409e-038
-83.079247 281.50137 1.1646497 2.3418409e-038
-84.732788 287.10416 -22.687996 2.3509886e-038
-78.73085 283.28394 -0.97280061 2.3418409e-038
-80.815918 290.78629 -31.082146 2.3418409e-038
-74.727882 286.6268 -5.7982492 2.3418409e-038
-77.140533 295.88074 -40.074425 2.3418409e-038
-71.052109 291.78568 -13.130045 2.3418409e-038
-72.033279 295.815 -50.453094 2.3418409e-038
-60.279247 266.3678 66.925606 2.3509528e-038
-60.84594 268.87195 47.99831 2.3509528e-038
-66.36544 293.26205 -21.140106 2.3418409e-038
-66.727318 294.86118 -59.046089 2.3418409e-038
-55.185123 263.92529 68.333382 2.3509528e-038
-57.605579 275.50122 24.537258 2.3509528e-038
-61.708309 295.12271 -27.248981 2.3418409e-038
-61.412209 293.7066 -66.266792 2.3509886e-038
-50.433575 262.83002 62.49567 2.3509528e-038
-54.423561 283.62344 8.7276535 2.3509528e-038
-56.467846 294.27707 -27.21908 2.3418409e-038
-56.848442 296.2605 -73.328453 2.3509886e-038
-46.465046 266.00159 48.902012 2.3509528e-038
-52.329224 299.57263 -79.435318 2.3509886e-038
-42.279831 268.49023 35.765305 2.3509886e-038
-47.499355 301.63583 -84.182442 2.3509886e-038
-38.690765 275.83969 21.983501 2.3509528e-038
-42.529961 303.2106 -87.801285 2.3509886e-038
-32.616856 265.05194 80.271294 9.1476764e-041
-32.817398 266.68155 52.684307 9.1476764e-041
-34.785065 282.67126 11.940222 2.3509886e-038
-37.290302 303.02939 -90.092094 2.3509886e-038
-28.282476 267.19055 82.141838 9.1476764e-041
-32.245968 304.63449 -92.309746 2.3509886e-038
-23.938139 270.04736 75.117577 9.1476764e-041
-27.371998 308.78488 -94.920235 2.3509886e-038
-19.433687 272.03906 55.060223 9.1476764e-041
-22.376554 313.23428 -97.16774 2.3509886e-038
-15.116495 278.74741 28.625015 9.1476764e-041
-17.216154 317.465 -98.67794 2.3509886e-038
-10.295525 278.08423 15.969576 2.3509886e-038
-11.88646 321.05573 -99.272156 2.3509886e-038
-5.4818006 276.63596 15.09992 3.5733111e-043
-6.4356227 324.77005 -99.544548 2.3509886e-038
-0.7069602 270.98773 19.411163 3.5733111e-043
-0.85524631 327.82785 -99.717308 2.3509886e-038
3.8328428 262.55569 30.688141 3.5733111e-043
4.7742186 327.04135 -98.622673 2.3509886e-038
8.3023472 261.03702 42.66922 3.5733111e-043
10.273815 323.02264 -95.977516 2.3509886e-038
12.484695 254.72548 58.048008 3.5733111e-043
15.661115 319.534 -92.38842 2.3509886e-038
16.617638 250.94792 64.962448 3.5733111e-043
17.521626 264.59933 18.948381 2.3509886e-038
18.255419 275.68054 1.1245892 2.3418052e-038
21.0296 317.57431 -86.912338 2.3509886e-038
20.956039 251.19165 66.132034 3.5733111e-043
21.673004 259.78561 43.660736 3.5733111e-043
22.709728 272.2124 4.6410489 2.3418052e-038
26.158983 313.55725 -73.871994 2.3509886e-038
26.895651 267.26331 10.148949 2.3418052e-038
29.87635 296.88263 -49.413078 2.3509886e-038
31.440622 266.80627 16.834623 2.3418052e-038
33.357018 283.06885 -10.761408 2.3418052e-038
35.959633 266.27347 24.223562 2.3418052e-038
37.330814 276.42676 -0.98730499 2.3418052e-038
39.994156 262.67914 31.294544 2.3418052e-038
41.335533 271.48923 8.0052576 2.3418052e-038
44.17038 260.65091 35.582947 2.3418052e-038
46.020111 271.56622 17.376177 2.3418052e-038
48.947556 262.21585 34.964569 2.3418052e-038
49.416233 264.72662 28.492485 2.3418052e-038
