# .PCD v0.7 - Point Cloud Data file format
VERSION 0.7
FIELDS x y z rgb
SIZE 4 4 4 4
TYPE F F F F
COUNT 1 1 1 1
WIDTH 539
HEIGHT 1
VIEWPOINT 0 0 0 1 0 0 0
POINTS 539
DATA ascii
20.177824 186.27379 4.3864837 2.3418052e-038
57.797588 211.58601 -28.898794 9.1476764e-041
-95.802406 254.26796 -34.728371 3.5733111e-043
-56.928829 188.86763 6.2265906 2.3509528e-038
-18.732237 180.78908 17.029306 2.3418409e-038
-19.776054 176.66362 22.391699 2.3418409e-038
-18.787861 176.28363 22.343536 2.3418409e-038
-17.237385 175.94446 22.300547 2.3418409e-038
-23.793892 179.47528 19.435841 2.3418409e-038
-22.383137 179.01846 19.38637 2.3418409e-038
-18.938286 177.69505 19.243053 2.3418409e-038
-15.639255 177.47192 19.218889 2.3418409e-038
-13.611443 179.07367 19.392349 2.3418409e-038
-25.104462 183.00058 16.44031 2.3418409e-038
-22.760561 182.03706 16.35375 2.3418409e-038
-19.240988 180.53526 16.21883 2.3418409e-038
-15.879307 180.196 16.188353 2.3418409e-038
-12.748236 182.98735 16.439119 2.3418409e-038
-12.458839 183.4521 16.480873 2.3418409e-038
-25.656353 187.75233 13.402211 2.3418409e-038
-23.346601 186.72417 13.328818 2.3418409e-038
-19.665485 184.51825 13.171354 2.3418409e-038
-16.213787 183.99162 13.133763 2.3418409e-038
-12.990754 186.46844 13.310564 2.3418409e-038
-11.837719 187.76537 13.403141 2.3418409e-038
-60.275127 186.44171 9.8678598 2.3509528e-038
-57.567165 185.95044 9.8418589 2.3509528e-038
-54.262375 186.38649 9.8649378 2.3509528e-038
-53.696133 186.7317 9.8832092 2.3509528e-038
-26.011189 194.2628 10.28181 2.3418409e-038
-24.165411 193.27295 10.229419 2.3418409e-038
-20.218546 189.70753 10.04071 2.3418409e-038
-16.595964 188.32852 9.9677238 2.3418409e-038
-13.256102 190.27722 10.070863 2.3418409e-038
-11.343657 192.11017 10.167876 2.3418409e-038
-61.697216 188.68022 6.5042248 2.3509528e-038
-58.34549 188.46455 6.4967899 2.3509528e-038
-54.922462 188.65384 6.503315 2.3509528e-038
-51.902424 190.34662 6.5616689 2.3509528e-038
-50.556942 191.7944 6.611577 2.3509528e-038
-26.234011 200.4314 6.9093137 2.3418409e-038
-24.951336 199.5587 6.87923 2.3418409e-038
-20.821218 195.36232 6.734571 2.3418409e-038
-17.022726 193.17133 6.6590428 2.3418409e-038
-13.558118 194.61234 6.7087178 2.3418409e-038
-10.823712 197.8073 6.8188553 2.3418409e-038
15.613486 186.36803 6.4245181 2.3418052e-038
17.804504 184.63953 6.364933 2.3418052e-038
21.100716 183.67056 6.331531 2.3418052e-038
24.43227 183.23479 6.3165083 2.3418052e-038
24.619835 183.24222 6.3167648 2.3418052e-038
-61.831833 192.08041 3.0765855 2.3509528e-038
-59.468353 192.09157 3.0767641 2.3509528e-038
-55.862659 191.88333 3.0734289 2.3509528e-038
-52.635845 193.03636 3.091897 2.3509528e-038
-49.765461 195.75893 3.135505 2.3509528e-038
-48.590885 197.40508 3.1618714 2.3509528e-038
-26.338646 205.66675 3.2942002 2.3418409e-038
-25.648455 205.1342 3.2856703 2.3418409e-038
-21.414286 200.92697 3.2182825 2.3418409e-038
-17.447275 197.98907 3.1712255 2.3418409e-038
-13.831133 198.53117 3.1799085 2.3418409e-038
-10.365425 202.40147 3.2418997 2.3509886e-038
-10.117061 203.05658 3.2523925 2.3509886e-038
13.909122 194.37648 3.1133621 2.3418052e-038
14.970091 191.98985 3.075135 2.3418052e-038
18.121048 187.92221 3.0099828 2.3418052e-038
21.455667 186.76024 2.9913712 2.3418052e-038
24.709625 185.31487 2.9682205 2.3418052e-038
25.045959 185.16609 2.9658375 2.3418052e-038
-61.542423 196.64671 -0.47941166 2.3509528e-038
-60.818024 196.4512 -0.478935 2.3509528e-038
-57.014893 195.84116 -0.47744775 2.3509528e-038
-53.625889 196.66724 -0.47946164 2.3509528e-038
-50.608124 199.07364 -0.48532832 2.3509528e-038
-47.723766 202.42259 -0.49349281 2.3509528e-038
-46.825272 204.2314 -0.49790257 2.3509528e-038
-26.283192 210.63765 -0.51352054 2.3418409e-038
-21.933374 205.79752 -0.50172067 2.3418409e-038
-17.811518 202.12244 -0.49276108 2.3418409e-038
-14.072772 201.99965 -0.49246171 2.3418409e-038
-10.531446 205.64333 -0.5013448 2.3509886e-038
-9.4014053 208.3886 -0.50803757 2.3509886e-038
12.640278 201.73538 -0.49181741 2.3418052e-038
15.317389 196.44392 -0.47891727 2.3418052e-038
18.547071 192.34024 -0.46891275 2.3418052e-038
21.990736 191.41772 -0.46666372 2.3418052e-038
24.788776 190.17641 -0.46363747 2.3418052e-038
-60.621078 200.5737 -4.1905875 2.3509528e-038
-58.434265 200.71658 -4.193573 2.3509528e-038
-55.040531 201.85529 -4.2173634 2.3509528e-038
-51.689785 203.32851 -4.2481437 2.3509528e-038
-48.451122 205.50771 -4.2936735 2.3509528e-038
-45.418766 209.00644 -4.3667727 2.3509528e-038
-44.565708 210.57242 -4.3994908 2.3509886e-038
-26.09267 214.53651 -4.4823127 2.3418409e-038
-22.405354 210.22601 -4.3922534 2.3418409e-038
-18.21796 206.73468 -4.3193088 2.3418409e-038
-14.419399 206.97511 -4.3243322 2.3418409e-038
-10.806552 211.0152 -4.408742 2.3418409e-038
-8.9988909 215.14972 -4.4951243 2.3418409e-038
11.105872 205.23587 -4.2879939 2.3418052e-038
12.151781 204.16905 -4.2657051 2.3418052e-038
15.607176 200.1604 -4.181952 2.3418052e-038
18.980446 196.83449 -4.112464 2.3418052e-038
22.454313 195.45293 -4.0835991 2.3418052e-038
24.065548 195.40436 -4.0825844 2.3418052e-038
-60.077564 206.62541 -8.1303139 2.3509528e-038
-56.756428 208.14816 -8.1902304 2.3509528e-038
-52.949986 208.28566 -8.1956406 2.3509528e-038
-49.310463 209.15263 -8.2297544 2.3509528e-038
-45.985207 211.61307 -8.3265686 2.3509528e-038
-42.894394 215.70921 -8.4877434 2.3509886e-038
-42.209995 217.40822 -8.5545969 2.3509886e-038
-26.006527 218.43784 -8.5951099 2.3418409e-038
-22.92417 215.09398 -8.4635353 2.3418409e-038
-18.724354 212.48116 -8.3607254 2.3418409e-038
-14.865171 213.37369 -8.3958454 2.3418409e-038
-11.159778 217.91248 -8.5744381 2.3418409e-038
-9.0147476 223.31828 -8.7871456 2.3509886e-038
9.2798243 209.49153 -8.2430897 2.3418052e-038
12.27194 206.1879 -8.1130981 2.3418052e-038
15.879541 203.65347 -8.0133734 2.3418052e-038
19.413725 201.32776 -7.9218607 2.3418052e-038
22.922144 199.52513 -7.8509312 2.3418052e-038
22.947863 199.51985 -7.8507233 2.3418052e-038
-59.388798 213.46259 -12.338818 2.3509528e-038
-58.176598 213.35648 -12.332685 2.3509528e-038
-54.054775 212.6315 -12.290778 2.3509528e-038
-50.269833 213.22185 -12.324903 2.3509528e-038
-46.806721 215.39346 -12.450429 2.3509528e-038
-43.554417 219.02838 -12.660539 2.3509886e-038
-40.755775 225.92171 -13.058995 2.3509886e-038
-39.959743 228.53627 -13.210124 2.3509886e-038
-26.133152 223.005 -12.8904 2.3418409e-038
-23.532833 220.80499 -12.763232 2.3418409e-038
-19.325937 219.30785 -12.676693 2.3418409e-038
-15.332698 220.08455 -12.721589 2.3418409e-038
-11.467029 223.91205 -12.94283 2.3418409e-038
-9.0864735 229.6304 -13.273369 2.3509886e-038
7.2186942 216.53908 -12.516649 2.3418052e-038
8.7797508 213.81068 -12.358939 2.3418052e-038
12.454533 209.25574 -12.095649 2.3418052e-038
16.165714 207.32361 -11.983966 2.3418052e-038
19.866417 206.02234 -11.908749 2.3418052e-038
21.980305 206.14401 -11.915781 2.3418052e-038
-57.614292 217.7912 -16.60837 2.3509528e-038
-55.245808 217.31659 -16.572178 2.3509528e-038
-51.426636 218.12849 -16.634092 2.3509528e-038
-47.775528 219.85172 -16.765501 2.3509528e-038
-44.283527 222.69496 -16.982323 2.3509528e-038
-41.076546 227.69983 -17.363985 2.3509528e-038
-37.884808 233.93958 -17.839817 2.3509886e-038
-35.078514 237.06642 -18.078264 2.3509886e-038
-28.304394 233.6422 -17.817139 2.3509886e-038
-24.525282 230.11696 -17.548311 2.3509886e-038
-20.072765 227.78273 -17.370308 2.3418409e-038
-15.831388 227.24272 -17.329126 2.3509886e-038
-11.731044 229.06735 -17.468269 2.3509886e-038
-8.6216755 234.13623 -17.854813 2.3509886e-038
4.8577566 222.10391 -16.93725 2.3509886e-038
5.016592 221.89365 -16.921217 2.3418052e-038
8.8925047 216.55653 -16.514217 2.3418052e-038
12.653079 212.59163 -16.211863 2.3418052e-038
16.491611 211.50319 -16.128859 2.3418052e-038
20.358284 211.1232 -16.099882 2.3418052e-038
20.850096 211.1993 -16.105684 2.3418052e-038
-56.307465 225.14439 -21.324177 2.3509528e-038
-53.241283 225.82539 -21.388676 2.3509528e-038
-49.193558 226.37715 -21.440933 2.3509528e-038
-45.395836 228.28857 -21.621971 2.3509528e-038
-41.852715 232.00238 -21.973719 2.3509886e-038
-38.252747 236.21159 -22.372387 2.3509886e-038
-34.398163 239.72917 -22.705547 2.3509886e-038
-30.142036 241.0735 -22.832874 2.3509886e-038
-25.541906 239.65581 -22.698601 2.3509886e-038
-20.903254 237.207 -22.466665 2.3509886e-038
-16.420616 235.70044 -22.323973 2.3509886e-038
-12.071106 235.70763 -22.324654 2.3509886e-038
-7.7856116 237.67662 -22.511145 2.3509886e-038
-6.6029973 238.22409 -22.562998 2.3509886e-038
1.9534367 227.71951 -21.568073 2.3509886e-038
5.0490203 223.32803 -21.152142 2.3418052e-038
8.9870691 218.85945 -20.728907 2.3418052e-038
12.869257 216.22374 -20.479271 2.3418052e-038
16.912378 216.89951 -20.543274 2.3418052e-038
19.834745 217.78139 -20.626801 2.3418052e-038
-102.80201 256.90848 -29.073931 3.5733111e-043
-97.776108 255.0213 -28.860365 3.5733111e-043
-92.572876 253.66002 -28.706308 3.5733111e-043
-90.170311 253.33333 -28.669338 3.5733111e-043
-55.86729 236.76707 -26.794559 2.3509528e-038
-55.818588 236.75716 -26.79344 2.3509528e-038
-51.499283 236.98755 -26.81951 2.3509528e-038
-47.452606 238.63176 -27.005583 2.3509886e-038
-43.293026 239.98647 -27.158894 2.3509886e-038
-39.020172 240.95049 -27.26799 2.3509886e-038
-34.728973 242.03465 -27.390684 2.3509886e-038
-30.426863 243.35152 -27.539711 2.3509886e-038
-26.043608 244.36319 -27.654202 2.3509886e-038
-21.537626 244.40575 -27.659018 2.3509886e-038
-16.965567 243.52261 -27.559074 2.3509886e-038
-12.398022 242.09119 -27.397081 2.3509886e-038
-7.8821855 240.62477 -27.231131 2.3509886e-038
-3.4101908 238.44061 -26.983952 2.3509886e-038
0.9716776 233.97108 -26.478144 2.3509886e-038
5.1520481 227.88516 -25.789408 2.3509886e-038
9.1826782 223.62306 -25.307074 2.3418052e-038
13.235073 222.37006 -25.165274 2.3418052e-038
17.493717 224.3551 -25.389917 2.3418052e-038
18.79604 225.24103 -25.490175 2.3418052e-038
-106.57382 258.73465 -34.055553 3.5733111e-043
-103.09916 256.55569 -33.768753 3.5733111e-043
-97.568657 254.48021 -33.495571 3.5733111e-043
-92.523102 253.52362 -33.369659 3.5733111e-043
-87.969528 253.88506 -33.417236 3.5733111e-043
-83.956177 255.93398 -33.686916 3.5733111e-043
-80.363655 258.47836 -34.02182 3.5733111e-043
-56.883484 252.9128 -33.289261 2.3509886e-038
-55.027176 253.22208 -33.329971 2.3509886e-038
-50.206612 252.48122 -33.232456 2.3509886e-038
-44.957272 249.21191 -32.802139 2.3509886e-038
-39.955795 246.72795 -32.475193 2.3509886e-038
-35.314068 246.11234 -32.394161 2.3509886e-038
-30.920475 247.29939 -32.550407 2.3509886e-038
-26.579945 249.39557 -32.826313 2.3509886e-038
-22.075737 250.51215 -32.973282 2.3509886e-038
-17.421497 250.06703 -32.914692 2.3509886e-038
-12.736797 248.70631 -32.735588 2.3509886e-038
-8.0807734 246.68723 -32.46983 2.3509886e-038
-3.495507 244.40591 -32.169556 2.3509886e-038
1.0022413 241.33055 -31.764765 2.3509886e-038
5.3513603 236.70113 -31.155426 2.3509886e-038
9.5829401 233.37053 -30.717039 2.3509886e-038
13.870683 233.04929 -30.674757 2.3509886e-038
18.342529 235.24103 -30.963242 2.3509886e-038
18.879406 235.60104 -31.010628 2.3509886e-038
50.095615 217.45332 -28.621964 9.1476764e-041
52.479733 215.02003 -28.301683 9.1476764e-041
55.637314 211.93217 -27.89525 9.1476764e-041
58.975002 209.89096 -27.626577 9.1476764e-041
61.261414 209.40404 -27.562489 9.1476764e-041
-104.68751 257.92001 -38.708275 3.5733111e-043
-103.32781 257.12469 -38.588913 3.5733111e-043
-97.767868 254.99982 -38.270016 3.5733111e-043
-92.776093 254.21684 -38.152508 3.5733111e-043
-88.298355 254.83409 -38.24514 3.5733111e-043
-84.195198 256.6626 -38.519566 3.5733111e-043
-80.260269 259.25253 -38.908253 3.5733111e-043
-76.548668 262.93796 -39.461361 3.5733111e-043
-73.555878 267.72574 -40.179901 3.5733111e-043
-60.632629 271.19809 -40.701027 3.5733111e-043
-58.730438 270.26361 -40.560783 3.5733111e-043
-52.668434 264.86136 -39.750019 3.5733111e-043
-46.532257 257.94254 -38.711651 2.3509886e-038
-41.07674 253.64983 -38.067413 2.3509886e-038
-36.244667 252.5979 -37.909538 2.3509886e-038
-31.741415 253.86519 -38.099728 2.3509886e-038
-27.2803 255.9669 -38.415154 2.3509886e-038
-22.659075 257.13177 -38.589977 2.3509886e-038
-17.909307 257.06903 -38.580559 2.3509886e-038
-13.128445 256.35385 -38.473225 2.3509886e-038
-8.3555374 255.07513 -38.281319 2.3509886e-038
-3.6222601 253.26851 -38.010185 2.3509886e-038
1.0429466 251.13202 -37.689541 2.3509886e-038
5.6108246 248.17773 -37.246166 2.3509886e-038
10.075738 245.37148 -36.825005 2.3509886e-038
14.551073 244.48093 -36.691353 2.3509886e-038
19.070059 244.57152 -36.704948 2.3509886e-038
22.552095 243.96573 -36.614033 2.3509886e-038
36.53688 233.32013 -35.016357 9.1476764e-041
39.269676 230.66057 -34.617214 9.1476764e-041
42.979019 227.75911 -34.181767 9.1476764e-041
46.592819 224.91345 -33.754696 9.1476764e-041
49.915985 221.24507 -33.204151 9.1476764e-041
53.016979 217.22125 -32.600258 9.1476764e-041
56.247162 214.25519 -32.155117 9.1476764e-041
59.741005 212.61714 -31.909283 9.1476764e-041
60.172783 212.52492 -31.895439 9.1476764e-041
-100.10081 258.29919 -43.532101 3.5733111e-043
-98.869324 257.87265 -43.460209 3.5733111e-043
-93.719482 256.80185 -43.279743 3.5733111e-043
-89.167412 257.34222 -43.370815 3.5733111e-043
-84.931252 258.90643 -43.634438 3.5733111e-043
-80.990265 261.6105 -44.090168 3.5733111e-043
-77.239738 265.31171 -44.713943 3.5733111e-043
-73.389282 269.1474 -45.360386 3.5733111e-043
-69.391724 272.9614 -46.003174 3.5733111e-043
-65.038239 275.86276 -46.492149 3.5733111e-043
-60.033722 276.26102 -46.559273 3.5733111e-043
-54.204502 272.586 -45.939903 3.5733111e-043
-48.073174 266.48428 -44.911564 3.5733111e-043
-42.471287 262.26117 -44.199829 2.3509886e-038
-37.45858 261.05795 -43.997044 2.3509886e-038
-32.709641 261.60898 -44.089909 2.3509886e-038
-28.003941 262.75671 -44.283337 2.3509886e-038
-23.249615 263.83313 -44.464756 2.3509886e-038
-18.414358 264.31848 -44.546551 2.3509886e-038
-13.522593 264.05023 -44.501347 2.3509886e-038
-8.6262712 263.34 -44.381645 2.3509886e-038
-3.7448437 261.83954 -44.128765 2.3509886e-038
1.0779393 259.55792 -43.74424 2.3509886e-038
5.7973232 256.42694 -43.21656 2.3509886e-038
10.362116 252.34554 -42.528709 2.3509886e-038
14.814326 248.90399 -41.948692 2.3509886e-038
19.221895 246.51878 -41.546707 2.3509886e-038
23.520172 243.91319 -41.107574 9.1476764e-041
27.713732 241.23337 -40.655933 9.1476764e-041
31.848803 238.8566 -40.255367 9.1476764e-041
35.908474 236.56114 -39.868507 9.1476764e-041
39.768074 233.58806 -39.367439 9.1476764e-041
43.717937 231.67485 -39.045002 9.1476764e-041
47.703053 230.27278 -38.808708 9.1476764e-041
50.964699 225.89334 -38.070621 9.1476764e-041
53.845699 220.61667 -37.181324 9.1476764e-041
56.554466 218.54518 -36.832214 9.1476764e-041
-93.58551 261.45663 -48.889442 3.5733111e-043
-90.679436 261.70602 -48.936077 3.5733111e-043
-86.305824 263.09668 -49.196117 3.5733111e-043
-82.378403 266.09442 -49.756657 3.5733111e-043
-78.50576 269.6604 -50.423458 3.5733111e-043
-74.290123 272.45114 -50.94529 3.5733111e-043
-69.7985 274.56149 -51.339905 3.5733111e-043
-65.152687 276.34821 -51.673996 3.5733111e-043
-60.279259 277.39093 -51.868977 3.5733111e-043
-54.929718 276.233 -51.652454 3.5733111e-043
-49.284008 273.19632 -51.084629 3.5733111e-043
-43.811199 270.53516 -50.587029 2.3509886e-038
-38.64629 269.33539 -50.362679 2.3509886e-038
-33.632877 268.99295 -50.298649 2.3509886e-038
-28.69322 269.22412 -50.341873 2.3509886e-038
-23.813177 270.22836 -50.529655 2.3509886e-038
-18.911663 271.45679 -50.759357 2.3509886e-038
-13.929103 271.98798 -50.858685 2.3509886e-038
-8.9072456 271.91748 -50.845505 2.3509886e-038
-3.8715849 270.70129 -50.618092 2.3509886e-038
1.1135899 268.14224 -50.13958 2.3509886e-038
5.9796019 264.48947 -49.456547 2.3509886e-038
10.66015 259.60349 -48.542919 2.3509886e-038
15.189981 255.21556 -47.722431 2.3509886e-038
19.658169 252.11397 -47.142467 2.3509886e-038
24.066818 249.58212 -46.669044 9.1476764e-041
28.42387 247.41475 -46.263771 9.1476764e-041
32.788887 245.90694 -45.981823 9.1476764e-041
37.004658 243.78268 -45.584614 9.1476764e-041
41.018936 240.93533 -45.052189 9.1476764e-041
45.167343 239.3557 -44.756817 9.1476764e-041
49.476162 238.83194 -44.658882 9.1476764e-041
50.894348 237.802 -44.466293 9.1476764e-041
-84.226097 274.7916 -56.454243 2.3509886e-038
-80.951675 278.06189 -57.126106 2.3509886e-038
-76.480042 280.48242 -57.623386 2.3509886e-038
-71.285637 280.41135 -57.608784 2.3509886e-038
-65.941681 279.69473 -57.461563 3.5733111e-043
-60.718594 279.41263 -57.403606 3.5733111e-043
-55.414604 278.67142 -57.251328 3.5733111e-043
-50.036987 277.3703 -56.984024 3.5733111e-043
-44.72023 276.14847 -56.733006 2.3509886e-038
-39.501434 275.2951 -56.557686 2.3509886e-038
-34.345142 274.68958 -56.433281 2.3509886e-038
-29.265108 274.59006 -56.412834 2.3509886e-038
-24.293434 275.67825 -56.636402 2.3509886e-038
-19.351482 277.76993 -57.06612 2.3509886e-038
-14.304006 279.30856 -57.382221 2.3509886e-038
-9.1770592 280.15427 -57.555965 2.3509886e-038
-4.0024843 279.85379 -57.49424 2.3509886e-038
1.15282 277.58853 -57.028851 2.3509886e-038
6.1805754 273.37894 -56.164021 2.3509886e-038
11.00758 268.06436 -55.07217 2.3509886e-038
15.732599 264.33243 -54.30547 2.3509886e-038
20.459372 262.38931 -53.906265 2.3509886e-038
25.235508 261.70187 -53.765041 2.3509886e-038
30.086029 261.88297 -53.802242 2.3509886e-038
34.835793 261.25812 -53.673874 2.3509886e-038
39.312355 258.98553 -53.206989 2.3509886e-038
40.53418 258.2283 -53.051414 2.3509886e-038
-78.333603 291.94925 -65.367104 2.3509886e-038
-73.493561 289.0965 -64.728378 2.3509886e-038
-67.394157 285.8555 -64.002724 2.3509886e-038
-61.5784 283.36926 -63.44606 2.3509886e-038
-55.922504 281.22556 -62.966087 2.3509886e-038
-50.47197 279.78156 -62.642776 2.3509886e-038
-45.196026 279.08652 -62.48716 2.3509886e-038
-39.973408 278.58438 -62.374729 2.3509886e-038
-34.80764 278.38861 -62.330898 2.3509886e-038
-29.744898 279.09183 -62.488346 2.3509886e-038
-24.756872 280.93729 -62.901543 2.3509886e-038
-19.764528 283.69873 -63.519829 2.3509886e-038
-14.644518 285.95761 -64.025589 2.3509886e-038
-9.4144773 287.4021 -64.349007 2.3509886e-038
-4.1137347 287.63242 -64.400566 2.3509886e-038
1.1886709 286.2211 -64.084579 2.3509886e-038
6.397768 282.98578 -63.360199 2.3509886e-038
11.430372 278.36047 -62.3246 2.3509886e-038
16.391253 275.39886 -61.661491 2.3509886e-038
21.456997 275.18378 -61.613335 2.3509886e-038
26.7752 277.66907 -62.169792 2.3509886e-038
32.012695 282.54996 -63.262611 2.3509886e-038
-71.579689 295.98083 -71.73214 2.3509886e-038
-69.462021 294.62643 -71.4039 2.3509886e-038
-62.988937 289.86023 -70.248779 2.3509886e-038
-56.716377 285.21783 -69.12368 2.3509886e-038
-50.956234 282.46597 -68.456757 2.3509886e-038
-45.550949 281.2782 -68.168892 2.3509886e-038
-40.283649 280.74655 -68.040047 2.3509886e-038
-35.145565 281.09131 -68.123604 2.3509886e-038
-30.11941 282.60583 -68.490646 2.3509886e-038
-25.118717 285.04346 -69.081421 2.3509886e-038
-20.068859 288.06711 -69.814209 2.3509886e-038
-14.892488 290.79962 -70.476448 2.3509886e-038
-9.5988312 293.02997 -71.016983 2.3509886e-038
-4.2044873 293.97784 -71.246704 2.3509886e-038
1.2191777 293.56686 -71.147102 2.3509886e-038
6.6024561 292.03952 -70.776939 2.3509886e-038
11.886003 289.45633 -70.150894 2.3509886e-038
17.20138 289.01022 -70.042778 2.3509886e-038
22.7841 292.2037 -70.816734 2.3509886e-038
27.552052 296.71829 -71.910866 2.3509886e-038
-63.890629 298.54987 -77.864494 2.3509886e-038
-58.407883 293.72415 -76.605911 2.3509886e-038
-52.128098 288.96198 -75.363899 2.3509886e-038
-46.290424 285.84445 -74.550812 2.3509886e-038
-40.8363 284.59811 -74.225761 2.3509886e-038
-35.624565 284.9223 -74.31031 2.3509886e-038
-30.526882 286.42908 -74.703293 2.3509886e-038
-25.459671 288.91254 -75.350998 2.3509886e-038
-20.347153 292.06168 -76.172333 2.3509886e-038
-15.12819 295.40207 -77.043533 2.3509886e-038
-9.786994 298.77417 -77.923004 2.3509886e-038
-4.3128805 301.55667 -78.648712 2.3509886e-038
1.2594931 303.27441 -79.09671 2.3509886e-038
6.8814487 304.37994 -79.385033 2.3509886e-038
12.519891 304.89319 -79.518898 2.3509886e-038
18.353497 308.36761 -80.425064 2.3509886e-038
22.134573 312.86401 -81.597763 2.3509886e-038
-52.662281 298.89639 -83.471046 2.3509886e-038
-47.730122 294.73462 -82.308807 2.3509886e-038
-41.900887 292.01749 -81.550011 2.3509886e-038
-36.479324 291.75861 -81.477707 2.3509886e-038
-31.232897 293.0535 -81.839333 2.3509886e-038
-26.012621 295.18732 -82.435226 2.3509886e-038
-20.774422 298.1947 -83.275078 2.3509886e-038
-15.512427 302.90494 -84.590477 2.3509886e-038
-10.09195 308.08377 -86.036743 2.3509886e-038
-5.5808167 312.77151 -87.345871 2.3509886e-038
-103.3363 257.14581 -29.375586 3.5733111e-043
-103.55739 257.69598 -40.026974 3.5733111e-043
-97.897179 255.33708 -27.904739 3.5733111e-043
-99.160088 258.63101 -44.381794 3.5733111e-043
-92.604088 253.74553 -28.179575 3.5733111e-043
-95.093475 260.56674 -47.761005 3.5733111e-043
-87.870628 253.59964 -29.430929 3.5733111e-043
-91.204056 263.22009 -50.585949 3.5733111e-043
-83.953224 255.92497 -31.564392 3.5733111e-043
-87.69577 267.33383 -53.131584 3.5733111e-043
-57.371464 185.31831 11.05469 2.3509528e-038
-61.292583 197.9841 -1.6731181 2.3509528e-038
-80.080124 258.67062 -34.229881 3.5733111e-043
-84.689522 273.55966 -55.924782 2.3509886e-038
-54.20499 186.18938 10.242123 2.3509528e-038
-60.090855 206.40681 -8.0037127 2.3509528e-038
-76.36068 262.29224 -37.293716 3.5733111e-043
-82.082268 281.94537 -59.565155 2.3509886e-038
-51.709007 189.63727 8.0856256 2.3509528e-038
-58.745667 215.44348 -14.104169 2.3509528e-038
-73.179482 268.37796 -40.525928 3.5733111e-043
-79.305305 290.84375 -64.316231 2.3509886e-038
-49.457676 194.5482 4.8450532 2.3509528e-038
-56.548065 222.43918 -19.903156 2.3509528e-038
-69.383896 272.9306 -42.857594 3.5733111e-043
-74.686813 293.79028 -68.589378 2.3509886e-038
-47.506172 201.49965 0.91168952 2.3509528e-038
-55.86375 236.94872 -26.87756 2.3509528e-038
-64.91552 275.34222 -43.576595 3.5733111e-043
-70.024994 297.01428 -73.259209 2.3509886e-038
-45.301044 208.46472 -3.1160429 2.3509528e-038
-64.852516 298.43594 -77.240242 2.3509886e-038
-42.796062 215.21472 -7.4168553 2.3509886e-038
-59.540722 299.42102 -80.574379 2.3509886e-038
-40.654316 225.3593 -11.919113 2.3509886e-038
-53.973274 299.19034 -83.037964 2.3509886e-038
-37.90617 234.07149 -15.927033 2.3509886e-038
-48.298237 298.24274 -84.97921 2.3509886e-038
-34.092087 237.59605 -18.584007 2.3509886e-038
-42.859554 298.69867 -86.949791 2.3509886e-038
-22.256693 178.00717 21.252399 2.3418409e-038
-26.296827 210.31984 -0.22321162 2.3418409e-038
-29.502705 235.96017 -18.648584 2.3509886e-038
-37.538563 300.23029 -88.492279 2.3509886e-038
-18.784662 176.25362 22.488821 2.3418409e-038
-32.17165 301.86169 -89.13707 2.3509886e-038
-15.547983 176.43619 21.532667 2.3418409e-038
-26.635511 302.25577 -88.548935 2.3509886e-038
-12.688567 182.13086 17.348255 2.3418409e-038
-21.075138 302.51117 -87.447205 2.3509886e-038
-10.327056 201.65227 4.2696471 2.3509886e-038
-15.659293 305.77274 -87.107277 2.3509886e-038
-7.7635517 237.00317 -20.552179 2.3509886e-038
-10.133713 309.35867 -87.018349 2.3509886e-038
-3.3905585 237.06792 -24.697954 2.3509886e-038
-4.484283 313.54114 -87.469231 2.3509886e-038
0.95638758 230.28938 -22.905045 2.3509886e-038
1.3163425 316.96326 -88.076454 2.3509886e-038
5.0155139 221.84598 -16.666832 2.3418052e-038
7.2244158 319.55005 -88.444687 2.3509886e-038
8.6822538 211.43636 -9.5025129 2.3418052e-038
13.121895 319.55362 -87.527649 2.3509886e-038
12.103112 203.35133 -1.9016002 2.3418052e-038
18.821558 316.23178 -84.4888 2.3509886e-038
14.765112 189.36102 5.0631223 2.3418052e-038
24.052948 308.47653 -78.780052 2.3509886e-038
17.698109 183.53618 8.4396515 2.3418052e-038
20.538143 212.98842 -17.435493 2.3418052e-038
23.513435 243.84335 -37.000916 9.1476764e-041
28.357874 294.082 -70.284271 2.3509886e-038
20.974138 182.56879 9.3303318 2.3418052e-038
22.932058 199.61143 -7.9119792 2.3418052e-038
27.75032 241.55186 -37.354546 9.1476764e-041
32.311909 281.25809 -62.603706 2.3509886e-038
24.414133 183.09877 6.7721629 2.3418052e-038
24.961882 187.20671 1.3366889 2.3418052e-038
31.728361 237.95331 -36.560219 9.1476764e-041
35.837429 268.77011 -57.038452 2.3509886e-038
35.571316 234.33997 -35.364124 9.1476764e-041
39.517109 260.33444 -53.828346 2.3509886e-038
39.250923 230.55043 -34.042027 9.1476764e-041
43.020912 252.69443 -51.030804 9.1476764e-041
42.91161 227.40189 -32.789684 9.1476764e-041
46.305977 245.38968 -48.151253 9.1476764e-041
46.26881 223.34938 -31.169542 9.1476764e-041
49.775223 240.27557 -45.540226 9.1476764e-041
49.310848 218.5629 -29.14163 9.1476764e-041
52.379963 232.16628 -42.429527 9.1476764e-041
52.426937 214.80373 -27.265982 9.1476764e-041
54.336292 222.62672 -39.090294 9.1476764e-041
55.501595 211.41519 -25.799007 9.1476764e-041
57.165779 217.75436 -36.265228 9.1476764e-041
58.722347 208.99176 -25.280079 9.1476764e-041
59.877838 213.10413 -32.498856 9.1476764e-041
