# .PCD v0.7 - Point Cloud Data file format
VERSION 0.7
FIELDS x y z rgb
SIZE 4 4 4 4
TYPE F F F F
COUNT 1 1 1 1
WIDTH 583
HEIGHT 1
VIEWPOINT 0 0 0 1 0 0 0
POINTS 583
DATA ascii
23.297827 190.25993 11.648913 2.3418052e-038
0 0 0 9.1476764e-041
-92.32531 254.58646 -33.572842 3.5733111e-043
-54.378143 192.4325 12.688234 2.3509528e-038
-15.588465 183.88068 24.248722 2.3418409e-038
-20.609787 181.591 26.982424 2.3418409e-038
-19.170742 181.2437 26.930819 2.3418409e-038
-15.808994 180.97044 26.890215 2.3418409e-038
-12.526018 181.69383 26.997702 2.3418409e-038
-11.186511 182.13081 27.062632 2.3418409e-038
-21.92885 184.51791 24.019146 2.3418409e-038
-19.407314 183.48029 23.884077 2.3418409e-038
-15.989922 183.04156 23.826965 2.3418409e-038
-12.667819 183.75069 23.919273 2.3418409e-038
-9.4316101 184.68869 24.041374 2.3418409e-038
-22.194035 187.53412 20.95804 2.3418409e-038
-19.770372 186.91272 20.888594 2.3418409e-038
-16.303162 186.62732 20.856697 2.3418409e-038
-12.920441 187.41505 20.944731 2.3418409e-038
-9.5375452 188.7738 21.096582 2.3418409e-038
-8.6620245 189.40294 21.166891 2.3418409e-038
-55.257858 190.13235 17.746822 2.3509528e-038
-55.118687 190.10451 17.744225 2.3509528e-038
-54.80658 190.05373 17.739487 2.3509528e-038
-22.052452 190.41255 17.772978 2.3418409e-038
-20.106146 190.08717 17.742605 2.3418409e-038
-16.605743 190.09108 17.742971 2.3418409e-038
-13.177378 191.14201 17.841063 2.3418409e-038
-9.7462568 192.9048 18.005602 2.3418409e-038
-8.2236929 193.89116 18.097668 2.3418409e-038
-59.530857 192.80948 14.445819 2.3509528e-038
-59.44146 192.7693 14.442809 2.3509528e-038
-55.53027 191.52406 14.349512 2.3509528e-038
-52.163692 192.11568 14.393837 2.3509528e-038
-49.240551 193.93924 14.530463 2.3509528e-038
-21.891588 193.28442 14.481403 2.3418409e-038
-20.389654 192.7675 14.442674 2.3418409e-038
-16.810415 192.43401 14.417688 2.3418409e-038
-13.347436 193.60875 14.505702 2.3418409e-038
-9.8955574 195.85985 14.674361 2.3418409e-038
-7.8380237 197.2899 14.781504 2.3418409e-038
19.049644 193.02754 14.462156 2.3418052e-038
21.909929 190.14851 14.246452 2.3418052e-038
25.068323 187.57835 14.053888 2.3418052e-038
27.210585 187.4191 14.041957 2.3418052e-038
-59.583984 193.51628 10.934873 2.3509528e-038
-55.972492 193.04929 10.908484 2.3509528e-038
-52.626064 193.81857 10.951953 2.3509528e-038
-49.443924 195.34886 11.038424 2.3509528e-038
-46.865429 197.06844 11.135592 2.3509528e-038
-22.084152 197.92963 11.184254 2.3418409e-038
-20.864685 197.25854 11.146333 2.3418409e-038
-17.155478 196.38406 11.096919 2.3418409e-038
-13.587216 197.08684 11.136631 2.3418409e-038
-10.060447 199.12346 11.251712 2.3418409e-038
-7.3508759 201.30579 11.375028 2.3509886e-038
17.029118 194.60555 10.996423 2.3418052e-038
18.729956 193.47375 10.932468 2.3418052e-038
22.054176 191.40038 10.81531 2.3418052e-038
25.370243 189.83754 10.727 2.3418052e-038
28.039009 189.96954 10.734459 2.3418052e-038
-59.043995 195.07927 7.4305029 2.3509528e-038
-56.470978 194.76859 7.4186687 2.3509528e-038
-53.135864 195.69614 7.453999 2.3509528e-038
-50.033112 197.6767 7.529438 2.3509528e-038
-46.989944 200.222 7.6263876 2.3509528e-038
-45.360146 202.37643 7.7084494 2.3509528e-038
-22.747919 205.46605 7.8261318 2.3418409e-038
-21.636456 204.55501 7.79143 2.3418409e-038
-17.70772 202.70575 7.720993 2.3418409e-038
-13.955588 202.43019 7.7104969 2.3418409e-038
-10.291941 203.70534 7.7590666 2.3418409e-038
-6.6697083 207.73326 7.9124885 2.3509886e-038
-6.6004958 207.89021 7.9184675 2.3509886e-038
15.865345 198.75299 7.5704336 2.3418052e-038
18.925125 195.48979 7.4461398 2.3418052e-038
22.306547 193.59061 7.3738003 2.3418052e-038
25.715899 192.42397 7.3293633 2.3418052e-038
27.79875 192.36728 7.3272042 2.3418052e-038
-58.437599 198.32071 3.9015844 2.3509528e-038
-57.473568 198.2265 3.8997307 2.3509528e-038
-54.122147 199.32854 3.9214115 2.3509528e-038
-50.934814 201.23926 3.9590011 2.3509528e-038
-47.790302 203.63231 4.0060797 2.3509528e-038
-44.704674 206.70515 4.0665326 2.3509528e-038
-43.801552 208.28664 4.0976453 2.3509528e-038
-23.12438 211.32196 4.1573591 2.3418409e-038
-22.268335 210.52892 4.1417575 2.3418409e-038
-18.184137 208.15944 4.0951424 2.3418409e-038
-14.301009 207.44063 4.0810013 2.3418409e-038
-10.532748 208.47159 4.1012836 2.3418409e-038
-6.8331704 212.82443 4.1869178 2.3509886e-038
-5.6988769 215.3306 4.2362218 2.3509886e-038
14.807123 205.11043 4.0351591 2.3418052e-038
15.924778 203.14247 3.996443 2.3418052e-038
19.289711 199.25586 3.9199815 2.3418052e-038
22.818266 198.03163 3.8958972 2.3418052e-038
26.277391 196.62544 3.868233 2.3418052e-038
27.112612 196.34915 3.8627977 2.3418052e-038
-58.062519 203.66154 0.25591132 2.3509528e-038
-55.47401 204.30736 0.25672281 2.3509528e-038
-51.897549 205.04294 0.2576471 2.3509528e-038
-48.451477 206.44952 0.25941455 2.3509528e-038
-45.174358 208.87688 0.26246467 2.3509528e-038
-41.925064 211.89674 0.26625928 2.3509528e-038
-41.690044 212.24538 0.26669735 2.3509528e-038
-22.975836 214.95522 0.27010238 2.3418409e-038
-22.713694 214.7394 0.26983121 2.3418409e-038
-18.579178 212.68158 0.26724547 2.3418409e-038
-14.590302 211.63692 0.2659328 2.3418409e-038
-10.718428 212.14668 0.26657334 2.3418409e-038
-6.9456334 216.32718 0.27182636 2.3418409e-038
-5.107276 219.43529 0.27573183 2.3509886e-038
13.418042 210.58978 0.264617 2.3418052e-038
16.151756 206.03787 0.25889727 2.3418052e-038
19.61743 202.64104 0.25462902 2.3418052e-038
23.387747 202.97397 0.25504732 2.3418052e-038
26.478971 202.95125 0.2550188 2.3418052e-038
-57.019066 207.9417 -3.56828 2.3509528e-038
-56.437187 207.85469 -3.5667868 2.3509528e-038
-52.700645 208.21591 -3.5729856 2.3509528e-038
-49.154552 209.44531 -3.5940821 2.3509528e-038
-45.754223 211.55806 -3.6303368 2.3509528e-038
-42.389622 214.24469 -3.6764393 2.3509528e-038
-39.825619 217.72131 -3.7360983 2.3509528e-038
-22.632963 219.23097 -3.7620039 2.3418409e-038
-19.061764 218.2059 -3.7444136 2.3418409e-038
-14.934777 216.63364 -3.7174337 2.3418409e-038
-10.9344 216.42134 -3.7137907 2.3418409e-038
-7.0715628 220.24934 -3.779479 2.3509886e-038
-5.1003284 223.1068 -3.8285131 2.3509886e-038
11.645609 214.24617 -3.6764648 2.3418052e-038
12.764866 212.83412 -3.6522338 2.3418052e-038
16.335251 208.3786 -3.5757771 2.3418052e-038
19.913342 205.69771 -3.5297732 2.3418052e-038
23.85952 207.06831 -3.5532928 2.3418052e-038
25.706125 208.6727 -3.5808239 2.3418052e-038
-55.957691 213.50876 -7.5959063 2.3509528e-038
-54.098507 213.73874 -7.6040883 2.3509528e-038
-50.370647 214.62703 -7.6356902 2.3509528e-038
-46.637859 215.64381 -7.6718636 2.3509528e-038
-43.063641 217.65132 -7.7432847 2.3509528e-038
-39.858879 222.12984 -7.9026146 2.3509528e-038
-38.407219 226.42899 -8.055563 2.3509528e-038
-22.783968 228.69997 -8.1363573 2.3418409e-038
-19.872087 227.48193 -8.0930233 2.3418409e-038
-15.441175 223.97908 -7.9684043 2.3418409e-038
-11.235723 222.38533 -7.9117045 2.3418409e-038
-7.2335553 225.29474 -8.0152111 2.3509886e-038
-5.4531593 227.64816 -8.098938 2.3509886e-038
9.697794 218.04074 -7.7571383 2.3509886e-038
12.849054 214.23784 -7.6218443 2.3418052e-038
16.542797 211.02617 -7.5075841 2.3418052e-038
20.253374 209.21013 -7.442976 2.3418052e-038
24.256367 210.51242 -7.4893069 2.3418052e-038
24.639608 210.87061 -7.5020499 2.3418052e-038
-55.133358 221.42494 -11.955428 2.3509528e-038
-51.811935 220.7683 -11.919974 2.3509528e-038
-47.6991 220.55078 -11.90823 2.3509528e-038
-43.916321 221.96094 -11.984368 2.3509528e-038
-40.546684 225.96292 -12.200449 2.3509528e-038
-37.673649 233.96442 -12.632474 2.3509528e-038
-36.779289 237.75609 -12.837198 2.3509528e-038
-23.586472 239.71117 -12.94276 2.3509886e-038
-20.702362 236.98634 -12.795637 2.3509886e-038
-15.925904 231.01025 -12.472969 2.3509886e-038
-11.536093 228.33047 -12.32828 2.3509886e-038
-7.4055095 230.65038 -12.453539 2.3509886e-038
-5.406682 233.04768 -12.582976 2.3509886e-038
7.7600379 223.99158 -12.094008 2.3418052e-038
9.1987801 221.34195 -11.950948 2.3418052e-038
12.984765 216.5006 -11.689548 2.3418052e-038
16.778118 214.028 -11.556045 2.3418052e-038
20.600281 212.79356 -11.489393 2.3418052e-038
23.688421 213.43961 -11.524275 2.3418052e-038
-53.14045 225.77716 -16.348448 2.3509528e-038
-52.971539 225.7093 -16.343534 2.3509528e-038
-48.744606 225.38498 -16.320049 2.3509528e-038
-44.938816 227.12878 -16.446318 2.3509528e-038
-41.310829 230.22144 -16.670256 2.3509528e-038
-37.7887 234.67891 -16.993019 2.3509528e-038
-34.299698 240.51993 -17.415966 2.3509886e-038
-31.921841 243.65643 -17.64308 2.3509886e-038
-26.244507 245.53941 -17.779425 2.3509886e-038
-25.962915 245.45815 -17.77354 2.3509886e-038
-21.152666 242.1411 -17.533354 2.3509886e-038
-16.349611 237.15625 -17.172403 2.3509886e-038
-11.855237 234.64722 -16.990725 2.3509886e-038
-7.5817165 236.13847 -17.098705 2.3509886e-038
-4.0638247 238.69943 -17.284145 2.3509886e-038
5.5865111 231.37354 -16.753679 2.3509886e-038
9.3278923 224.44865 -16.252251 2.3418052e-038
13.184188 219.82567 -15.917502 2.3418052e-038
17.083712 217.92625 -15.779964 2.3418052e-038
20.927958 216.17834 -15.653399 2.3418052e-038
22.582468 216.14165 -15.650742 2.3418052e-038
-51.480877 231.94586 -21.066755 2.3509528e-038
-50.238586 232.29283 -21.098269 2.3509528e-038
-46.5154 235.09714 -21.352974 2.3509528e-038
-42.553165 237.14485 -21.53896 2.3509528e-038
-38.43383 238.68536 -21.678881 2.3509886e-038
-34.377056 241.06239 -21.894775 2.3509886e-038
-30.266272 243.70966 -22.135218 2.3509886e-038
-25.936678 245.21008 -22.271494 2.3509886e-038
-21.372175 244.65388 -22.220976 2.3509886e-038
-16.742008 242.84808 -22.056963 2.3509886e-038
-12.172036 240.91753 -21.881618 2.3509886e-038
-7.7140675 240.26067 -21.821957 2.3509886e-038
-3.2873244 240.11617 -21.808832 2.3509886e-038
1.1282545 238.73564 -21.683445 2.3509886e-038
5.4270697 234.50616 -21.299297 2.3509886e-038
9.4894285 228.33554 -20.738844 2.3418052e-038
13.471846 224.6219 -20.401548 2.3418052e-038
17.5299 223.61798 -20.310366 2.3418052e-038
21.221924 221.18028 -20.088959 2.3418052e-038
60.074772 211.94394 -19.250057 2.3509886e-038
63.170017 210.99515 -19.163883 2.3509886e-038
64.702652 210.76105 -19.14262 2.3509886e-038
-97.621712 256.29715 -27.99861 3.5733111e-043
-91.973526 252.94897 -27.632845 3.5733111e-043
-88.207718 252.02817 -27.532255 3.5733111e-043
-51.512054 245.13989 -26.779762 2.3509886e-038
-48.827236 246.78156 -26.959101 2.3509886e-038
-44.200005 246.32253 -26.908955 2.3509886e-038
-39.426193 244.84822 -26.747898 2.3509886e-038
-34.890823 244.66507 -26.727888 2.3509886e-038
-30.502707 245.61346 -26.831495 2.3509886e-038
-26.144291 247.1729 -27.00185 2.3509886e-038
-21.692139 248.3166 -27.126793 2.3509886e-038
-17.113146 248.23155 -27.1175 2.3509886e-038
-12.472735 246.86917 -26.968674 2.3509886e-038
-7.8700085 245.11754 -26.777319 2.3509886e-038
-3.3342443 243.54332 -26.605347 2.3509886e-038
1.1460371 242.4984 -26.491198 2.3509886e-038
5.5527911 239.93864 -26.211561 2.3509886e-038
9.7813797 235.3605 -25.711432 2.3509886e-038
13.923759 232.15686 -25.361458 2.3418052e-038
18.129036 231.26079 -25.263569 2.3418052e-038
20.182573 230.83241 -25.216772 2.3418052e-038
51.170063 223.07968 -24.369841 2.3509886e-038
53.772942 220.25345 -24.061096 2.3509886e-038
56.797489 216.32378 -23.631807 2.3509886e-038
59.870277 213.08098 -23.277555 2.3509886e-038
63.330048 211.52969 -23.108088 2.3509886e-038
64.915703 211.3326 -23.086557 2.3509886e-038
-102.62225 259.98645 -33.189701 3.5733111e-043
-98.2742 257.24774 -32.84008 3.5733111e-043
-92.120865 253.35416 -32.343025 3.5733111e-043
-87.159615 252.49857 -32.233803 3.5733111e-043
-83.148911 254.45544 -32.48362 3.5733111e-043
-79.273735 257.0856 -32.819378 3.5733111e-043
-77.251015 258.64722 -33.018734 3.5733111e-043
-52.412865 259.19351 -33.088474 2.3509886e-038
-51.117027 258.35458 -32.981377 2.3509886e-038
-45.68261 254.58496 -32.500153 2.3509886e-038
-40.382038 250.7843 -32.014961 2.3509886e-038
-35.53244 249.16431 -31.808153 2.3509886e-038
-31.054024 250.05278 -31.921577 2.3509886e-038
-26.69294 252.35992 -32.216106 2.3509886e-038
-22.184797 253.95622 -32.419888 2.3509886e-038
-17.514507 254.05342 -32.432297 2.3509886e-038
-12.798127 253.30956 -32.337334 2.3509886e-038
-8.0927219 252.05415 -32.177067 2.3509886e-038
-3.4299171 250.53156 -31.982695 2.3509886e-038
1.1783056 249.32632 -31.828836 2.3509886e-038
5.7241001 247.34097 -31.57539 2.3509886e-038
10.165087 244.59331 -31.224623 2.3509886e-038
14.548585 242.57484 -30.966948 2.3509886e-038
19.007166 242.46257 -30.952616 2.3509886e-038
20.820255 242.77792 -30.992872 2.3509886e-038
41.663292 231.74895 -29.584921 2.3509886e-038
43.486095 230.21725 -29.389385 2.3509886e-038
47.081944 227.11098 -28.992842 2.3509886e-038
50.615578 224.23599 -28.625822 2.3509886e-038
53.9748 221.08028 -28.222963 2.3509886e-038
57.20665 217.88214 -27.814692 2.3509886e-038
60.32391 214.69547 -27.407885 2.3509886e-038
62.164742 213.04262 -27.196882 2.3509886e-038
-101.31612 259.8905 -37.963734 3.5733111e-043
-98.61956 258.15176 -37.709747 3.5733111e-043
-92.636581 254.77251 -37.216118 3.5733111e-043
-87.777863 254.28963 -37.14558 3.5733111e-043
-83.520683 255.59315 -37.335991 3.5733111e-043
-79.469971 257.72198 -37.646965 3.5733111e-043
-75.715538 261.1431 -38.146706 3.5733111e-043
-71.991165 265.13904 -38.730415 3.5733111e-043
-70.895523 266.41397 -38.916653 3.5733111e-043
-54.875435 270.25168 -39.477253 3.5733111e-043
-53.180222 268.78232 -39.262611 3.5733111e-043
-47.17564 262.90549 -38.404148 2.3509886e-038
-41.474648 257.56973 -37.624725 2.3509886e-038
-36.393093 255.19946 -37.278484 2.3509886e-038
-31.789057 255.97141 -37.391247 2.3509886e-038
-27.304642 258.14307 -37.708477 2.3509886e-038
-22.665201 259.45557 -37.9002 2.3509886e-038
-17.883932 259.41205 -37.893845 2.3509886e-038
-13.091307 259.1124 -37.850067 2.3509886e-038
-8.3028708 258.5994 -37.775131 2.3509886e-038
-3.5245147 257.44125 -37.605957 2.3509886e-038
1.2099124 256.01422 -37.397503 2.3509886e-038
5.8728566 253.76883 -37.069504 2.3509886e-038
10.438561 251.17368 -36.690414 2.3509886e-038
14.916729 248.71307 -36.330978 2.3509886e-038
19.373949 247.14137 -36.101395 2.3509886e-038
23.8477 246.33824 -35.984077 2.3509886e-038
28.183474 244.59438 -35.729336 2.3509886e-038
32.345425 242.03064 -35.354839 2.3509886e-038
36.358624 239.10963 -34.92815 2.3509886e-038
40.188393 235.74365 -34.436462 2.3509886e-038
43.915802 232.49213 -33.961494 2.3509886e-038
47.61237 229.66962 -33.549191 2.3509886e-038
51.184917 226.75827 -33.123913 2.3509886e-038
54.465214 223.08899 -32.587921 2.3509886e-038
57.752892 219.96262 -32.131233 2.3509886e-038
58.250797 219.68456 -32.090614 2.3509886e-038
-96.544205 257.67108 -42.384933 3.5733111e-043
-93.621384 257.48096 -42.353661 3.5733111e-043
-89.161766 258.29877 -42.488178 3.5733111e-043
-84.505173 258.60593 -42.538712 3.5733111e-043
-80.187447 260.04877 -42.776047 3.5733111e-043
-76.354935 263.34839 -43.318813 3.5733111e-043
-72.411758 266.68808 -43.86816 3.5733111e-043
-68.285286 269.78955 -44.37833 3.5733111e-043
-64.117989 273.20383 -44.939949 3.5733111e-043
-59.582668 275.49796 -45.317318 3.5733111e-043
-54.294773 274.41547 -45.139256 3.5733111e-043
-48.450779 270.01172 -44.414875 3.5733111e-043
-42.685085 265.08688 -43.604778 2.3509886e-038
-37.42461 262.43274 -43.168194 2.3509886e-038
-32.577141 262.3172 -43.149189 2.3509886e-038
-27.866541 263.45535 -43.336403 2.3509886e-038
-23.107176 264.51498 -43.510704 2.3509886e-038
-18.2528 264.76257 -43.55143 2.3509886e-038
-13.387485 264.97455 -43.586296 2.3509886e-038
-8.5143099 265.18484 -43.620892 2.3509886e-038
-3.6186025 264.31369 -43.477596 2.3509886e-038
1.2414173 262.68057 -43.208958 2.3509886e-038
6.0241618 260.30676 -42.818485 2.3509886e-038
10.697322 257.39999 -42.340347 2.3509886e-038
15.240939 254.11877 -41.800606 2.3509886e-038
19.678925 251.03175 -41.292816 2.3509886e-038
24.104322 248.98906 -40.956806 2.3509886e-038
28.542637 247.71144 -40.746647 2.3509886e-038
32.906639 246.23003 -40.502964 2.3509886e-038
37.252922 244.99094 -40.299149 2.3509886e-038
41.392277 242.80559 -39.939671 2.3509886e-038
45.329536 239.97652 -39.474312 2.3509886e-038
49.003658 236.38083 -38.882851 2.3509886e-038
52.389656 232.09546 -38.17794 2.3509886e-038
53.07613 231.39207 -38.062237 2.3509886e-038
-92.005341 265.13678 -48.495899 2.3509886e-038
-91.481941 265.02023 -48.474579 2.3509886e-038
-86.084015 263.43756 -48.185101 3.5733111e-043
-81.599503 264.62808 -48.402855 3.5733111e-043
-77.636421 267.76822 -48.977215 3.5733111e-043
-73.377922 270.2464 -49.430492 3.5733111e-043
-68.899437 272.216 -49.790752 3.5733111e-043
-64.391647 274.3699 -50.184719 3.5733111e-043
-59.715622 276.11267 -50.50349 3.5733111e-043
-54.642181 276.17133 -50.514217 3.5733111e-043
-49.20726 274.22751 -50.158672 3.5733111e-043
-43.701035 271.39624 -49.640812 2.3509886e-038
-38.409405 269.33847 -49.264423 2.3509886e-038
-33.349121 268.53336 -49.117165 2.3509886e-038
-28.4184 268.67273 -49.142654 2.3509886e-038
-23.527697 269.3288 -49.262657 2.3509886e-038
-18.604179 269.85947 -49.359718 2.3509886e-038
-13.671985 270.60556 -49.496189 2.3509886e-038
-8.7246437 271.73584 -49.702927 2.3509886e-038
-3.7193825 271.67499 -49.691795 2.3509886e-038
1.2763612 270.07462 -49.399071 2.3509886e-038
6.1946182 267.67227 -48.95966 2.3509886e-038
10.99913 264.66214 -48.409081 2.3509886e-038
15.672027 261.30646 -47.7953 2.3509886e-038
20.231895 258.08566 -47.206184 2.3509886e-038
24.76335 255.79659 -46.787495 2.3509886e-038
29.378454 254.96518 -46.635422 2.3509886e-038
34.142994 255.48128 -46.729816 2.3509886e-038
39.155056 257.50015 -47.099087 2.3509886e-038
44.035271 258.3093 -47.247093 2.3509886e-038
45.931503 257.6084 -47.118889 2.3509886e-038
-81.130295 274.48859 -55.26157 2.3509886e-038
-79.82003 275.29953 -55.424831 2.3509886e-038
-75.32457 277.41577 -55.850891 2.3509886e-038
-70.366089 278.01065 -55.97065 3.5733111e-043
-65.211685 277.86401 -55.941128 3.5733111e-043
-60.0835 277.81366 -55.930996 3.5733111e-043
-54.900558 277.4772 -55.863255 3.5733111e-043
-49.643539 276.65887 -55.698502 3.5733111e-043
-44.350639 275.43048 -55.451195 2.3509886e-038
-39.102448 274.19827 -55.203121 2.3509886e-038
-33.966152 273.50177 -55.062901 2.3509886e-038
-28.91143 273.33392 -55.02911 2.3509886e-038
-23.904078 273.63736 -55.090195 2.3509886e-038
-18.922693 274.47961 -55.259769 2.3509886e-038
-13.93122 275.73654 -55.512817 2.3509886e-038
-8.9128046 277.59625 -55.887226 2.3509886e-038
-3.8132508 278.5314 -56.075493 2.3509886e-038
1.3113866 277.48587 -55.865002 2.3509886e-038
6.3719401 275.33444 -55.431866 2.3509886e-038
11.321724 272.42444 -54.846004 2.3509886e-038
16.139011 269.09271 -54.175243 2.3509886e-038
20.842632 265.87643 -53.527725 2.3509886e-038
25.549438 263.9166 -53.133156 2.3509886e-038
30.485312 264.57123 -53.26495 2.3509886e-038
35.879738 268.47678 -54.051239 2.3509886e-038
37.745296 270.60785 -54.480282 2.3509886e-038
-74.867188 286.38519 -62.930874 2.3509886e-038
-72.241959 285.42203 -62.719234 2.3509886e-038
-66.448242 283.13293 -62.216221 2.3509886e-038
-60.787148 281.0672 -61.762291 2.3509886e-038
-55.282009 279.40512 -61.397064 2.3509886e-038
-49.946732 278.34854 -61.16489 2.3509886e-038
-44.688339 277.52768 -60.984516 2.3509886e-038
-39.445145 276.60138 -60.780964 2.3509886e-038
-34.315582 276.31546 -60.718136 2.3509886e-038
-29.26498 276.67648 -60.797466 2.3509886e-038
-24.238367 277.46405 -60.970535 2.3509886e-038
-19.24445 279.14679 -61.340298 2.3509886e-038
-14.20717 281.19833 -61.791107 2.3509886e-038
-9.1001568 283.43149 -62.28183 2.3509886e-038
-3.8974013 284.67801 -62.555737 2.3509886e-038
1.3430718 284.1904 -62.448589 2.3509886e-038
6.539959 282.59464 -62.097935 2.3509886e-038
11.637859 280.03128 -61.53466 2.3509886e-038
16.613136 276.99802 -60.868122 2.3509886e-038
21.508884 274.3754 -60.291828 2.3509886e-038
26.526543 274.00974 -60.211472 2.3509886e-038
32.021004 277.89893 -61.066093 2.3509886e-038
34.316082 280.75473 -61.693626 2.3509886e-038
-68.658501 290.38602 -69.157928 2.3509886e-038
-68.065186 290.02267 -69.071388 2.3509886e-038
-61.866718 286.0589 -68.127388 2.3509886e-038
-55.8909 282.48257 -67.27565 2.3509886e-038
-50.292336 280.27454 -66.749786 2.3509886e-038
-44.934834 279.0585 -66.460182 2.3509886e-038
-39.671196 278.18652 -66.252518 2.3509886e-038
-34.551434 278.21457 -66.259193 2.3509886e-038
-29.512131 279.01306 -66.449356 2.3509886e-038
-24.498901 280.4465 -66.790741 2.3509886e-038
-19.498457 282.83121 -67.358688 2.3509886e-038
-14.423492 285.47992 -67.989502 2.3509886e-038
-9.2528353 288.18677 -68.634155 2.3509886e-038
-3.9685233 289.87302 -69.035744 2.3509886e-038
1.3702798 289.94754 -69.053497 2.3509886e-038
6.6858368 288.89804 -68.803558 2.3509886e-038
11.923042 286.8934 -68.326134 2.3509886e-038
17.079386 284.77197 -67.820892 2.3509886e-038
22.273075 284.12372 -67.666512 2.3509886e-038
27.829887 287.47281 -68.464119 2.3509886e-038
31.633299 292.51239 -69.664337 2.3509886e-038
-61.496452 292.30661 -74.998627 2.3509886e-038
-57.230339 289.25235 -74.214981 2.3509886e-038
-51.166183 285.14441 -73.16098 2.3509886e-038
-45.439365 282.19177 -72.403419 2.3509886e-038
-40.07708 281.03268 -72.106018 2.3509886e-038
-34.912964 281.12567 -72.129875 2.3509886e-038
-29.802084 281.75433 -72.291176 2.3509886e-038
-24.748159 283.29984 -72.687706 2.3509886e-038
-19.711384 285.91983 -73.35994 2.3509886e-038
-14.598515 288.94409 -74.135887 2.3509886e-038
-9.3817539 292.20206 -74.971802 2.3509886e-038
-4.0364728 294.83621 -75.647659 2.3509886e-038
1.3988612 295.99527 -75.945045 2.3509886e-038
6.8530807 296.12476 -75.978264 2.3509886e-038
12.308175 296.16049 -75.987434 2.3509886e-038
17.873077 298.00552 -76.460823 2.3509886e-038
23.732668 302.74283 -77.6763 2.3509886e-038
28.205469 307.74728 -78.960312 2.3509886e-038
-50.866837 292.54776 -80.448235 2.3509886e-038
-46.449287 288.46371 -79.32515 2.3509886e-038
-40.846458 286.42783 -78.765297 2.3509886e-038
-35.526073 286.06256 -78.664856 2.3509886e-038
-30.306929 286.52722 -78.792633 2.3509886e-038
-25.171246 288.14304 -79.236969 2.3509886e-038
-20.048458 290.80917 -79.970139 2.3509886e-038
-14.87317 294.38028 -80.952164 2.3509886e-038
-9.5747719 298.21375 -82.006325 2.3509886e-038
-4.1272817 301.46918 -82.901543 2.3509886e-038
1.4320196 303.01151 -83.325676 2.3509886e-038
7.0583439 304.99426 -83.870911 2.3509886e-038
12.840881 308.97852 -84.966553 2.3509886e-038
19.038584 317.43854 -87.292992 2.3509886e-038
20.399065 319.71982 -87.920326 2.3509886e-038
-27.667236 294.97818 -86.549042 2.3509886e-038
-25.82719 295.65182 -86.746696 2.3509886e-038
-25.791128 295.66492 -86.750534 2.3509886e-038
-98.005783 256.54514 -28.181763 3.5733111e-043
-98.62925 258.17712 -40.573681 3.5733111e-043
-91.998947 253.01889 -27.092627 3.5733111e-043
-94.551743 260.03964 -45.050922 3.5733111e-043
-87.038803 252.14861 -27.856758 3.5733111e-043
-91.621788 265.42535 -48.789593 2.3509886e-038
-83.121956 254.37296 -29.631474 3.5733111e-043
-86.96582 266.13611 -50.852135 2.3509886e-038
-59.420311 192.70071 14.863605 2.3509528e-038
-59.636887 193.40308 11.358679 2.3509528e-038
-79.316666 257.22482 -31.751585 3.5733111e-043
-83.234062 269.92899 -53.121513 3.5733111e-043
-55.116207 190.09596 17.764719 2.3509528e-038
-58.252922 200.91451 2.0616059 2.3509528e-038
-75.48542 260.34946 -34.383057 3.5733111e-043
-80.17466 276.52264 -56.320862 2.3509886e-038
-51.863747 191.01099 16.877333 2.3509528e-038
-56.701454 208.82797 -4.4804988 2.3509528e-038
-71.954453 265.00385 -37.883759 3.5733111e-043
-76.942894 283.37595 -60.420528 2.3509886e-038
-49.125309 194.09006 14.382035 2.3509528e-038
-55.501461 219.28171 -10.594401 2.3509528e-038
-68.237549 269.60092 -41.178253 3.5733111e-043
-72.859184 287.86063 -64.954247 2.3509886e-038
-46.497982 198.12578 10.375394 2.3509528e-038
-53.03212 225.96744 -16.569143 2.3509528e-038
-64.150208 273.34109 -43.257526 3.5733111e-043
-68.197533 290.58658 -69.592491 2.3509886e-038
-44.545002 205.96687 5.6775994 2.3509528e-038
-51.244926 236.94592 -23.514603 2.3509886e-038
-59.514565 275.18301 -43.249874 3.5733111e-043
-63.090332 291.71664 -73.729874 2.3509886e-038
-41.894531 211.74243 0.67202622 2.3509528e-038
-58.081127 293.55237 -77.370392 2.3509886e-038
-39.418232 219.67416 -4.8293529 2.3509528e-038
-52.651844 293.42386 -79.943123 2.3509886e-038
-37.597363 233.49065 -10.914611 2.3509528e-038
-46.849003 290.94604 -81.633675 2.3509886e-038
-34.505554 241.96344 -15.751323 2.3509886e-038
-41.595516 291.68042 -83.735794 2.3509886e-038
-30.37529 244.58749 -18.301582 2.3509886e-038
-36.309807 292.37332 -85.151543 2.3509886e-038
-19.131317 180.87097 28.465759 2.3418409e-038
-22.850666 216.03436 -1.044785 2.3418409e-038
-25.955179 245.38501 -17.46726 2.3509886e-038
-31.037998 293.43887 -86.003632 2.3509886e-038
-15.775224 180.58386 29.352999 2.3418409e-038
-25.82724 295.6524 -86.747246 2.3509886e-038
-12.500978 181.33061 28.269569 2.3418409e-038
-20.566883 298.32907 -87.358009 2.3509886e-038
-9.345314 184.96906 23.845201 2.3418409e-038
-15.246914 301.77765 -87.795349 2.3509886e-038
-6.6581016 207.37177 8.1532583 2.3509886e-038
-9.7781515 304.54816 -87.737701 2.3509886e-038
-3.2788208 239.49503 -18.568258 2.3509886e-038
-4.196322 306.51208 -87.549675 2.3509886e-038
1.126981 238.46616 -20.760582 2.3509886e-038
1.4498909 306.79303 -87.161697 2.3509886e-038
5.368165 231.96086 -17.113834 2.3509886e-038
7.1547327 309.15927 -87.543312 2.3509886e-038
9.1227112 219.51157 -8.9927244 2.3509886e-038
13.036878 313.69464 -88.244751 2.3509886e-038
12.730004 212.25287 -1.3327559 2.3418052e-038
19.147543 319.25525 -88.328987 2.3509886e-038
15.671257 199.90845 6.908052 2.3418052e-038
24.893215 317.54721 -84.851448 2.3509886e-038
18.710468 193.27246 13.976139 2.3418052e-038
21.341188 220.44687 -19.642637 2.3418052e-038
23.817583 246.02716 -33.923428 2.3509886e-038
29.320751 302.87289 -76.195877 2.3509886e-038
21.816866 189.34087 16.543436 2.3418052e-038
24.365894 211.46297 -8.5982285 2.3418052e-038
28.149214 244.29704 -34.468163 2.3509886e-038
33.01548 286.52963 -65.592461 2.3509886e-038
24.879036 186.16199 16.374683 2.3418052e-038
26.718496 199.92607 1.7762091 2.3418052e-038
32.284664 241.57597 -33.874249 2.3509886e-038
36.525646 273.30988 -56.433136 2.3509886e-038
36.163811 237.82846 -32.448681 2.3509886e-038
40.45739 266.06485 -51.211792 2.3509886e-038
39.810017 233.52411 -30.532867 2.3509886e-038
44.425999 260.60129 -48.202793 2.3509886e-038
43.500381 230.29289 -28.682199 2.3509886e-038
47.726959 252.66856 -45.530815 2.3509886e-038
47.049774 226.95581 -26.735617 2.3509886e-038
50.197517 242.13969 -42.166672 2.3509886e-038
50.488541 223.67319 -24.748848 2.3509886e-038
52.56068 232.85313 -38.705151 2.3509886e-038
53.773819 220.25706 -22.877491 2.3509886e-038
55.084244 225.62453 -35.450832 2.3509886e-038
56.596676 215.55894 -21.00915 2.3509886e-038
57.823616 220.23198 -32.492943 2.3509886e-038
59.620441 212.19179 -19.398283 2.3509886e-038
60.659313 215.88919 -29.434507 2.3509886e-038
63.161171 210.96564 -18.706646 2.3509886e-038
63.38834 211.72438 -25.441656 2.3509886e-038
