# .PCD v0.7 - Point Cloud Data file format
VERSION 0.7
FIELDS x y z rgb
SIZE 4 4 4 4
TYPE F F F F
COUNT 1 1 1 1
WIDTH 750
HEIGHT 1
VIEWPOINT 0 0 0 1 0 0 0
POINTS 750
DATA ascii
-27.171368 262.23706 65.458298 2.3418052e-038
50.558231 255.59235 19.260281 9.1476764e-041
-95.489784 266.77713 -31.411116 3.5733111e-043
-67.132385 263.96332 47.241306 2.3509528e-038
3.6734428 259.99039 53.877163 2.3418409e-038
-32.302589 267.01089 70.537758 2.3418052e-038
-29.929079 264.59393 69.899261 2.3418052e-038
-24.836857 261.40265 69.056198 2.3418052e-038
-23.33215 261.3006 69.029243 2.3418052e-038
-34.392139 269.02454 66.200523 2.3418052e-038
-29.932436 264.62363 65.117554 2.3418052e-038
-24.831779 261.34921 64.311806 2.3418052e-038
-21.589012 261.16693 64.266953 2.3418052e-038
-34.57267 268.59821 61.234116 2.3418052e-038
-30.039772 265.57254 60.544338 2.3418052e-038
-24.92382 262.3179 59.802353 2.3418052e-038
-20.902704 261.21695 59.551361 2.3418052e-038
0.63642401 262.82474 59.917904 2.3418409e-038
3.5249245 259.51181 59.162632 2.3418409e-038
5.9368405 257.47305 58.697842 2.3418409e-038
-34.536747 271.1239 56.902729 2.3418052e-038
-30.29759 267.85184 56.215996 2.3418052e-038
-25.076429 263.9241 55.391651 2.3418052e-038
-20.44841 262.3024 55.051292 2.3418052e-038
-2.0121703 267.853 56.216236 2.3418409e-038
-1.2038684 266.54636 55.942005 2.3418409e-038
3.5260756 259.59653 54.483395 2.3418409e-038
8.1016541 255.71501 53.668751 2.3418409e-038
8.5858612 255.51906 53.627628 2.3418409e-038
-74.551956 272.58447 52.275635 2.3509528e-038
-68.466576 265.46805 50.91087 2.3509528e-038
-63.435478 261.38751 50.128311 2.3509528e-038
-34.111053 273.58536 52.467583 2.3418052e-038
-30.491829 269.56903 51.697342 2.3418052e-038
-25.17555 264.96732 50.814838 2.3418052e-038
-20.254824 263.34259 50.50325 2.3418052e-038
-19.74489 263.31711 50.498363 2.3418052e-038
-2.7506819 268.73868 51.538101 2.3418409e-038
-1.2037802 266.52682 51.113914 2.3418409e-038
3.5308673 259.94934 49.852497 2.3418409e-038
8.098362 255.6111 49.020523 2.3418409e-038
9.4514732 254.88052 48.880413 2.3418409e-038
-74.944069 271.34906 47.127445 2.3509528e-038
-74.876205 271.28241 47.115868 2.3509528e-038
-68.382446 265.14191 46.049393 2.3509528e-038
-62.79636 261.85944 45.479301 2.3509528e-038
-60.466526 262.05576 45.513393 2.3509528e-038
-33.419472 273.80408 47.553822 2.3418052e-038
-30.542763 270.01932 46.896496 2.3418052e-038
-25.174831 264.95975 46.017757 2.3418052e-038
-20.242908 263.18768 45.709988 2.3418052e-038
-18.79752 263.09119 45.693226 2.3418052e-038
-2.9386079 268.6145 46.652508 2.3418409e-038
-1.2035286 266.47113 46.280251 2.3418409e-038
3.5387976 260.53314 45.248955 2.3418409e-038
8.1280241 256.5473 44.556698 2.3418409e-038
9.7040739 255.80112 44.427101 2.3418409e-038
-73.549515 267.78333 41.661419 2.3509528e-038
-68.280632 264.7471 41.189053 2.3509528e-038
-62.997334 262.69751 40.870178 2.3509528e-038
-58.236633 262.24521 40.799809 2.3509528e-038
-33.123108 274.72263 42.741032 2.3418052e-038
-30.686949 271.29404 42.207615 2.3418052e-038
-25.246523 265.71429 41.339523 2.3418052e-038
-20.268 263.51389 40.997189 2.3418052e-038
-17.897375 263.22958 40.952953 2.3418409e-038
-2.9960568 267.77948 41.660824 2.3418409e-038
-1.2013439 265.9874 41.382015 2.3418409e-038
3.5461442 261.07404 40.617599 2.3418409e-038
8.1806822 258.20941 40.171921 2.3418409e-038
9.6807528 257.91956 40.126827 2.3418409e-038
-72.481972 267.79486 36.816273 2.3509528e-038
-68.446747 265.3912 36.485821 2.3509528e-038
-63.115356 263.18967 36.183155 2.3509528e-038
-58.083801 261.98105 36.016994 2.3509528e-038
-56.133671 261.99335 36.018688 2.3509528e-038
-33.276909 277.36743 38.132309 2.3418052e-038
-30.98539 273.93246 37.660069 2.3418052e-038
-25.424765 267.59024 36.788147 2.3418052e-038
-20.369759 264.83691 36.409615 2.3509886e-038
-17.099331 264.25632 36.3298 2.3418409e-038
-3.1519241 266.9476 36.699795 2.3418409e-038
-1.1965688 264.93015 36.42244 2.3418409e-038
3.5378852 260.46597 35.808704 2.3418409e-038
8.1900129 258.50388 35.538956 2.3418409e-038
9.5567341 258.49008 35.53706 2.3509886e-038
-71.093735 268.05838 32.000793 2.3509886e-038
-68.752571 266.57697 31.823944 2.3509528e-038
-63.314594 264.02048 31.518749 2.3509528e-038
-58.121696 262.15195 31.295687 2.3509528e-038
-53.770538 261.02463 31.161106 2.3509528e-038
-33.277458 278.27264 33.220177 2.3418052e-038
-31.126106 275.17648 32.850555 2.3418052e-038
-25.574877 269.17014 32.133514 2.3418052e-038
-20.510134 266.66199 31.834095 2.3509886e-038
-16.546204 266.36539 31.798683 2.3418409e-038
-3.6613188 268.47528 32.050564 2.3418409e-038
-1.1972669 265.08475 31.645802 2.3418409e-038
3.5287535 259.7937 31.014158 2.3418409e-038
8.167942 257.80728 30.77702 2.3509886e-038
9.5523434 257.81409 30.77783 2.3509886e-038
-69.609375 268.44052 27.187788 2.3509886e-038
-69.171722 268.20215 27.163647 2.3509886e-038
-63.705975 265.6525 26.905418 2.3509528e-038
-58.360645 263.22971 26.660034 2.3509528e-038
-53.253185 261.54437 26.489344 2.3509528e-038
-51.572975 261.90955 26.526329 2.3509528e-038
-32.726524 276.01382 27.954817 2.3418052e-038
-31.016878 274.21085 27.772211 2.3418052e-038
-25.663183 270.09955 27.355816 2.3418052e-038
-20.649851 268.47852 27.191637 2.3418052e-038
-16.347803 268.4433 27.188068 2.3418409e-038
-4.4561949 271.77878 27.52589 2.3418409e-038
-1.2041823 266.61584 27.002985 2.3418409e-038
3.5366509 260.37512 26.37092 2.3418409e-038
8.1677837 257.80228 26.110342 2.3509886e-038
9.679451 257.66235 26.09617 2.3509886e-038
-68.404793 270.0675 22.464499 2.3509886e-038
-64.113014 267.34988 22.238441 2.3509528e-038
-58.60849 264.3476 21.988708 2.3509528e-038
-53.515888 262.83459 21.862858 2.3509528e-038
-49.680271 263.50674 21.918766 2.3509528e-038
-32.052189 275.32596 22.901899 2.3418052e-038
-31.041985 274.4328 22.827608 2.3418052e-038
-25.743294 270.94269 22.537296 2.3418052e-038
-20.720341 269.39499 22.408558 2.3418052e-038
-16.224977 268.82495 22.361143 2.3418409e-038
-5.1289854 272.11954 22.635189 2.3418409e-038
-1.2070904 267.2597 22.230944 2.3418409e-038
3.5490563 261.28842 21.734245 2.3418409e-038
8.1862431 258.38492 21.492727 2.3509886e-038
9.7868567 258.22003 21.479012 2.3509886e-038
46.783562 257.9537 21.456858 9.1476764e-041
49.761292 255.74022 21.272739 9.1476764e-041
53.957714 253.7075 21.103657 9.1476764e-041
54.089588 253.72946 21.105482 9.1476764e-041
-67.584389 273.3978 17.793165 2.3509886e-038
-64.949463 270.83783 17.62656 2.3509886e-038
-58.970314 265.97955 17.310373 2.3509528e-038
-53.732353 263.89774 17.174887 2.3509528e-038
-49.029949 264.29666 17.200848 2.3509528e-038
-48.14183 264.65302 17.224041 2.3509528e-038
-31.321018 275.87726 17.954533 2.3418052e-038
-31.191635 275.75583 17.946629 2.3418052e-038
-25.830402 271.8595 17.69305 2.3418052e-038
-20.747849 269.75262 17.555931 2.3418409e-038
-15.970504 268.5744 17.479252 2.3418409e-038
-5.5251484 270.71118 17.618315 2.3418409e-038
-1.2058133 266.97696 17.375286 2.3418409e-038
3.5556605 261.77463 17.036711 2.3418409e-038
8.2113667 259.17789 16.86771 2.3509886e-038
9.6813908 259.2724 16.873861 2.3509886e-038
43.110203 258.67017 16.834667 9.1476764e-041
45.461941 257.6069 16.765469 9.1476764e-041
49.667595 255.25868 16.612642 9.1476764e-041
53.723301 253.60423 16.504967 9.1476764e-041
-65.916435 273.60117 12.854369 2.3509886e-038
-65.506775 273.16183 12.833729 2.3509886e-038
-59.305897 267.49316 12.567402 2.3509528e-038
-53.975273 265.09079 12.454534 2.3509528e-038
-49.263428 265.55524 12.476354 2.3509528e-038
-47.036396 266.45206 12.518488 2.3509528e-038
-30.852774 276.92987 13.01076 2.3418052e-038
-25.985449 273.49133 12.849209 2.3418052e-038
-20.831341 270.83817 12.724558 2.3418409e-038
-15.827101 269.10019 12.642903 2.3418409e-038
-15.404612 269.14017 12.644781 2.3418409e-038
-5.8327017 271.62515 12.761533 2.3418409e-038
-1.2096685 267.83054 12.583252 2.3418409e-038
3.568661 262.73175 12.343701 2.3418409e-038
8.2429132 260.17361 12.223514 2.3509886e-038
9.2363634 260.21127 12.225283 2.3509886e-038
40.18882 259.49429 12.191598 9.1476764e-041
40.972713 258.7012 12.154337 9.1476764e-041
45.209576 256.17688 12.03574 9.1476764e-041
49.598824 254.90526 11.975995 9.1476764e-041
52.482655 254.77684 11.969962 9.1476764e-041
-63.548855 271.4613 7.8405337 2.3509886e-038
-59.59338 268.78983 7.7633743 2.3509528e-038
-54.397552 267.16476 7.7164383 2.3509528e-038
-49.629631 267.52924 7.7269654 2.3509528e-038
-45.883099 268.96625 7.7684698 2.3509528e-038
-30.962477 279.25833 8.065733 2.3418052e-038
-26.194445 275.69095 7.962697 2.3509886e-038
-20.987762 272.87189 7.8812752 2.3418409e-038
-15.92111 270.69861 7.8185053 2.3418409e-038
-14.359085 270.98468 7.8267679 2.3418409e-038
-6.5604291 273.56461 7.9012828 2.3418409e-038
-6.1841111 273.4397 7.897675 2.3418409e-038
-1.2176375 269.59497 7.7866287 2.3418409e-038
3.5903547 264.32889 7.6345305 2.3418409e-038
8.2854347 261.51575 7.5532789 2.3509886e-038
8.5414286 261.48767 7.5524683 2.3509886e-038
37.362457 262.64838 7.5859923 9.1476764e-041
40.873116 258.07236 7.4538245 9.1476764e-041
45.003304 255.00804 7.3653188 9.1476764e-041
49.530518 254.55421 7.3522115 9.1476764e-041
50.216949 254.8306 7.3601937 9.1476764e-041
-61.71994 272.55576 2.9390252 2.3509886e-038
-60.243641 271.72278 2.9300427 2.3509528e-038
-54.969444 269.97351 2.9111803 2.3509528e-038
-50.000202 269.52679 2.9063632 2.3509528e-038
-45.174301 269.83972 2.9097376 2.3509528e-038
-43.595791 270.3931 2.9157047 2.3509528e-038
-31.706713 281.14413 3.0316355 2.3509886e-038
-26.349281 277.32059 2.9904053 2.3509886e-038
-21.103769 274.38016 2.9586978 2.3509886e-038
-15.994715 271.95004 2.9324934 2.3418409e-038
-11.819845 272.60971 2.9396067 2.3418409e-038
-9.1740856 273.35638 2.9476583 2.3418409e-038
-6.1795087 273.23621 2.9463625 2.3418409e-038
-1.2205398 270.23755 2.914027 2.3418409e-038
3.6089787 265.70004 2.8650985 2.3418409e-038
8.0642385 263.41034 2.8404081 2.3509886e-038
33.906204 264.65549 2.8538351 9.1476764e-041
36.772911 262.14111 2.8267217 9.1476764e-041
40.849247 257.92163 2.7812223 9.1476764e-041
44.97776 254.86333 2.748244 9.1476764e-041
47.360413 254.69327 2.7464101 9.1476764e-041
-60.086246 274.79767 -2.0104871 2.3509886e-038
-55.510384 272.63025 -1.9946294 2.3509528e-038
-50.351948 271.42288 -1.9857962 2.3509528e-038
-45.27232 270.42523 -1.978497 2.3509528e-038
-40.48103 271.11679 -1.9835566 2.3509528e-038
-38.316292 272.78992 -1.9957978 2.3509528e-038
-34.502728 276.54645 -2.0232813 2.3509886e-038
-31.455391 278.08759 -2.0345569 2.3509886e-038
-26.234598 276.11356 -2.0201144 2.3509886e-038
-21.027121 273.38358 -2.0001411 2.3509886e-038
-15.947307 271.14401 -1.9837557 2.3509886e-038
-11.038147 271.10468 -1.9834679 2.3418409e-038
-6.13379 271.21469 -1.9842728 2.3418409e-038
-1.2177317 269.61581 -1.9725749 2.3418409e-038
3.6258535 266.94238 -1.9530157 2.3509886e-038
8.3356104 265.73898 -1.9442115 2.3509886e-038
30.305576 267.30002 -1.9556321 9.1476764e-041
32.365871 264.90402 -1.9381025 9.1476764e-041
36.624928 261.08618 -1.9101704 9.1476764e-041
40.860981 257.99573 -1.8875598 9.1476764e-041
44.540092 255.97691 -1.8727897 9.1476764e-041
-58.502647 276.57977 -7.0294666 2.3509886e-038
-56.123253 275.64026 -7.0055881 2.3509886e-038
-50.745659 273.5452 -6.9523411 2.3509886e-038
-45.491554 271.73477 -6.9063277 2.3509528e-038
-40.460228 270.97748 -6.8870807 2.3509528e-038
-35.619217 271.46167 -6.8993864 2.3509886e-038
-30.877481 272.97849 -6.9379377 2.3509886e-038
-25.913069 272.72955 -6.9316111 2.3509886e-038
-20.864679 271.27161 -6.8945565 2.3509886e-038
-15.88608 270.10297 -6.8648548 2.3509886e-038
-10.995408 270.05496 -6.8636346 2.3509886e-038
-6.1076832 270.06033 -6.863771 2.3509886e-038
-1.2167773 269.40451 -6.8471026 2.3509886e-038
3.6436934 268.2558 -6.8179073 2.3509886e-038
8.4804468 267.67093 -6.8030429 2.3509886e-038
9.9367657 268.03143 -6.8122053 2.3509886e-038
26.11845 268.89005 -6.8340273 9.1476764e-041
27.89621 268.02621 -6.8120718 9.1476764e-041
32.28846 264.27042 -6.7166166 9.1476764e-041
36.540974 260.4877 -6.6204762 9.1476764e-041
40.914948 258.33649 -6.5658011 9.1476764e-041
41.869465 258.11731 -6.5602312 9.1476764e-041
-57.734993 280.69458 -12.214465 2.3509886e-038
-57.078915 280.33383 -12.198767 2.3509886e-038
-51.287064 276.46365 -12.030356 2.3509886e-038
-45.776379 273.43613 -11.898613 2.3509886e-038
-40.609962 271.98029 -11.835262 2.3509886e-038
-35.583347 271.18829 -11.800797 2.3509886e-038
-30.68293 271.25851 -11.803853 2.3509886e-038
-25.791636 271.45148 -11.81225 2.3509886e-038
-20.839394 270.94287 -11.790118 2.3509886e-038
-15.914143 270.58011 -11.774333 2.3509886e-038
-11.02223 270.71375 -11.780149 2.3509886e-038
-6.1187854 270.55124 -11.773077 2.3509886e-038
-1.2189475 269.88501 -11.744085 2.3509886e-038
3.6541474 269.02545 -11.706682 2.3509886e-038
8.5005875 268.30664 -11.675403 2.3509886e-038
13.362978 268.43094 -11.680812 2.3509886e-038
18.129862 267.08197 -11.622111 2.3509886e-038
22.842451 265.66949 -11.560647 9.1476764e-041
27.605066 265.22891 -11.541473 9.1476764e-041
32.188545 263.45267 -11.464181 9.1476764e-041
36.59341 260.86151 -11.351427 9.1476764e-041
39.231419 259.94958 -11.311745 9.1476764e-041
-57.319687 284.62659 -17.537151 2.3509886e-038
-51.849449 279.49521 -17.220985 2.3509886e-038
-46.021687 274.90143 -16.937939 2.3509886e-038
-40.717552 272.70087 -16.802353 2.3509886e-038
-35.642445 271.6387 -16.736908 2.3509886e-038
-30.731474 271.68765 -16.739925 2.3509886e-038
-25.84107 271.97177 -16.757431 2.3509886e-038
-20.885977 271.54852 -16.731352 2.3509886e-038
-15.952222 271.22757 -16.711578 2.3509886e-038
-11.049214 271.3765 -16.720753 2.3509886e-038
-6.1311173 271.0965 -16.703501 2.3509886e-038
-1.2205777 270.24594 -16.651094 2.3509886e-038
3.6588154 269.36911 -16.597069 2.3509886e-038
8.5083666 268.55219 -16.546734 2.3509886e-038
13.326911 267.70645 -16.494625 2.3509886e-038
18.080404 266.35339 -16.411257 9.1476764e-041
22.791243 265.07388 -16.332422 9.1476764e-041
27.527613 264.48474 -16.29612 9.1476764e-041
32.20586 263.59439 -16.241262 9.1476764e-041
36.665825 262.28687 -16.160698 9.1476764e-041
-56.705677 285.92264 -22.792051 2.3509886e-038
-52.130047 281.00775 -22.400265 2.3509886e-038
-46.160141 275.72845 -21.979431 2.3509886e-038
-40.801487 273.263 -21.7829 2.3509886e-038
-35.735291 272.34628 -21.709824 2.3509886e-038
-30.826567 272.52835 -21.724339 2.3509886e-038
-25.902561 272.61896 -21.73156 2.3509886e-038
-20.929686 272.11679 -21.691528 2.3509886e-038
-15.979036 271.68347 -21.65699 2.3509886e-038
-11.065195 271.76898 -21.663805 2.3509886e-038
-6.140233 271.49957 -21.642328 2.3509886e-038
-1.2228353 270.74579 -21.582243 2.3509886e-038
3.6684151 270.07587 -21.528839 2.3509886e-038
8.539216 269.52588 -21.484999 2.3509886e-038
13.371359 268.5993 -21.411139 2.3509886e-038
18.159082 267.51248 -21.324501 9.1476764e-041
22.91976 266.5686 -21.24926 9.1476764e-041
27.668404 265.83743 -21.190977 9.1476764e-041
32.402733 265.20572 -21.140619 9.1476764e-041
34.396297 265.22061 -21.141808 9.1476764e-041
-103.27305 273.18802 -26.721478 3.5733111e-043
-98.53019 268.83679 -26.295868 3.5733111e-043
-92.536446 265.59933 -25.979202 3.5733111e-043
-90.673859 265.42892 -25.962534 3.5733111e-043
-55.469276 283.96573 -27.775682 2.3509886e-038
-52.056332 280.61041 -27.447487 2.3509886e-038
-46.265728 276.35916 -27.031658 2.3509886e-038
-40.931625 274.13461 -26.814066 2.3509886e-038
-35.84412 273.17572 -26.720274 2.3509886e-038
-30.903711 273.21039 -26.723663 2.3509886e-038
-25.956459 273.18622 -26.721298 2.3509886e-038
-20.988129 272.87665 -26.691021 2.3509886e-038
-16.023836 272.44519 -26.648819 2.3509886e-038
-11.080848 272.15344 -26.620279 2.3509886e-038
-6.1441693 271.67361 -26.573349 2.3509886e-038
-1.2250402 271.23395 -26.530342 2.3509886e-038
3.6811283 271.01184 -26.508615 2.3509886e-038
8.5808296 270.83939 -26.491751 2.3509886e-038
13.445556 270.08975 -26.418423 2.3509886e-038
18.286346 269.38724 -26.34971 9.1476764e-041
23.112066 268.80524 -26.292782 9.1476764e-041
27.885506 267.92334 -26.206522 9.1476764e-041
32.71262 267.74548 -26.189125 9.1476764e-041
-105.68472 273.79999 -31.736967 3.5733111e-043
-105.1061 273.2832 -31.677063 3.5733111e-043
-97.935837 267.21509 -30.973692 3.5733111e-043
-92.227127 264.71152 -30.683495 3.5733111e-043
-87.544495 265.04001 -30.721569 3.5733111e-043
-82.954132 265.70212 -30.798317 3.5733111e-043
-81.720428 266.12558 -30.847403 3.5733111e-043
-54.279152 281.69962 -32.652634 2.3509886e-038
-51.953396 280.05551 -32.462059 2.3509886e-038
-46.348278 276.85226 -32.090759 2.3509886e-038
-40.998539 274.58273 -31.827696 2.3509886e-038
-35.887417 273.50565 -31.702847 2.3509886e-038
-30.947216 273.59497 -31.713203 2.3509886e-038
-25.995974 273.60211 -31.714025 2.3509886e-038
-21.037239 273.51517 -31.703949 2.3509886e-038
-16.081245 273.4213 -31.693068 2.3509886e-038
-11.108994 272.8447 -31.626236 2.3509886e-038
-6.1507602 271.96506 -31.524271 2.3509886e-038
-1.2264497 271.54605 -31.475704 2.3509886e-038
3.6882405 271.53543 -31.474472 2.3509886e-038
8.607625 271.68512 -31.491823 2.3509886e-038
13.503034 271.24435 -31.440731 2.3509886e-038
18.374449 270.68518 -31.375916 2.3509886e-038
23.231869 270.19861 -31.319517 9.1476764e-041
28.036501 269.37411 -31.223948 9.1476764e-041
31.428463 269.07043 -31.188749 9.1476764e-041
-102.39706 269.88416 -36.167828 3.5733111e-043
-97.753265 266.71698 -35.743385 3.5733111e-043
-92.291412 264.89606 -35.499355 3.5733111e-043
-87.636475 265.31848 -35.555965 3.5733111e-043
-83.282104 266.75262 -35.748161 3.5733111e-043
-79.253975 269.47253 -36.112663 2.3509886e-038
-77.234543 271.61728 -36.400085 2.3509886e-038
-54.527668 283.53177 -37.996773 2.3509886e-038
-52.250393 281.65649 -37.745464 2.3509886e-038
-46.445908 277.43542 -37.179787 2.3509886e-038
-41.027275 274.77518 -36.82328 2.3509886e-038
-35.901905 273.61609 -36.667946 2.3509886e-038
-30.953093 273.64691 -36.672081 2.3509886e-038
-26.006824 273.71631 -36.681381 2.3509886e-038
-21.058987 273.79791 -36.692314 2.3509886e-038
-16.120066 274.08133 -36.730297 2.3509886e-038
-11.143507 273.69241 -36.678177 2.3509886e-038
-6.1721878 272.91251 -36.573658 2.3509886e-038
-1.2309525 272.54297 -36.524139 2.3509886e-038
3.6999285 272.39594 -36.504433 2.3509886e-038
8.6319304 272.4523 -36.511986 2.3509886e-038
13.555044 272.28912 -36.49012 2.3509886e-038
18.458508 271.92349 -36.441116 2.3509886e-038
23.336407 271.41443 -36.372902 2.3509886e-038
28.181486 270.76712 -36.286152 2.3509886e-038
30.567833 270.72824 -36.280941 2.3509886e-038
-97.909958 267.14529 -40.635971 3.5733111e-043
-92.801422 266.35989 -40.516499 3.5733111e-043
-88.181229 266.96771 -40.608955 3.5733111e-043
-83.884544 268.68225 -40.869755 3.5733111e-043
-79.761528 271.19827 -41.252472 3.5733111e-043
-75.35701 273.02441 -41.530251 2.3509886e-038
-72.167366 273.90497 -41.664196 2.3509886e-038
-56.577503 287.34476 -43.708546 2.3509886e-038
-52.60191 283.55136 -43.131527 2.3509886e-038
-46.583557 278.25763 -42.326286 2.3509886e-038
-41.11504 275.36298 -41.885971 2.3509886e-038
-35.94305 273.92966 -41.66795 2.3509886e-038
-30.9491 273.61163 -41.619572 2.3509886e-038
-26.018507 273.83926 -41.654198 2.3509886e-038
-21.093124 274.24176 -41.71542 2.3509886e-038
-16.150753 274.60309 -41.770386 2.3509886e-038
-11.180521 274.60147 -41.770138 2.3509886e-038
-6.2044501 274.33902 -41.730217 2.3509886e-038
-1.2389789 274.3201 -41.727337 2.3509886e-038
3.7240832 274.17426 -41.705154 2.3509886e-038
8.6765423 273.86035 -41.65741 2.3509886e-038
13.612755 273.44836 -41.594742 2.3509886e-038
18.537962 273.09399 -41.540836 2.3509886e-038
23.4611 272.86465 -41.505951 2.3509886e-038
28.44025 273.25333 -41.565071 2.3509886e-038
30.14975 273.77313 -41.644142 2.3509886e-038
-94.649582 271.28461 -46.175709 3.5733111e-043
-94.511208 271.26736 -46.172768 3.5733111e-043
-89.642502 271.39172 -46.193939 3.5733111e-043
-84.970146 272.15942 -46.324612 3.5733111e-043
-80.281685 272.96686 -46.462044 3.5733111e-043
-75.431091 273.29282 -46.517525 2.3509886e-038
-70.563576 273.59888 -46.569618 2.3509886e-038
-66.076767 275.5387 -46.899799 2.3509886e-038
-64.7733 276.87567 -47.127369 2.3509886e-038
-60.797497 282.55017 -48.093235 2.3509886e-038
-57.927937 284.50366 -48.425739 2.3509886e-038
-52.402847 282.4783 -48.081001 2.3509886e-038
-46.680241 278.83517 -47.460899 2.3509886e-038
-41.287361 276.51709 -47.066334 2.3509886e-038
-36.093922 275.0795 -46.82164 2.3509886e-038
-31.050272 274.50607 -46.724033 2.3509886e-038
-26.102079 274.71881 -46.760246 2.3509886e-038
-21.157055 275.07294 -46.820522 2.3509886e-038
-16.181522 275.12625 -46.829597 2.3509886e-038
-11.216517 275.48557 -46.890759 2.3509886e-038
-6.236763 275.76779 -46.938797 2.3509886e-038
-1.2459482 275.86316 -46.955029 2.3509886e-038
3.74547 275.74878 -46.935558 2.3509886e-038
8.7219706 275.29425 -46.858192 2.3509886e-038
13.675242 274.70361 -46.75766 2.3509886e-038
18.614298 274.21854 -46.675095 2.3509886e-038
23.560966 274.02618 -46.642353 2.3509886e-038
28.645597 275.22629 -46.846626 2.3509886e-038
29.922932 275.93988 -46.968086 2.3509886e-038
-90.429985 277.85498 -52.323082 3.5733111e-043
-86.552216 277.22681 -52.204792 3.5733111e-043
-81.114052 275.797 -51.935543 3.5733111e-043
-75.94014 275.13712 -51.811283 3.5733111e-043
-70.978615 275.2081 -51.824646 2.3509886e-038
-66.179489 275.96704 -51.96756 2.3509886e-038
-61.62788 277.96622 -52.344032 2.3509886e-038
-56.899281 279.45157 -52.623737 2.3509886e-038
-51.799828 279.22769 -52.581581 2.3509886e-038
-46.553848 278.0802 -52.365494 2.3509886e-038
-41.361698 277.01495 -52.164894 2.3509886e-038
-36.224434 276.07413 -51.987728 2.3509886e-038
-31.168785 275.5538 -51.889744 2.3509886e-038
-26.18301 275.57059 -51.89291 2.3509886e-038
-21.211298 275.77817 -51.931995 2.3509886e-038
-16.216171 275.71539 -51.920174 2.3509886e-038
-11.247376 276.2435 -52.019627 2.3509886e-038
-6.2642961 276.9852 -52.15929 2.3509886e-038
-1.2518902 277.17877 -52.195744 2.3509886e-038
3.7632134 277.05508 -52.172451 2.3509886e-038
8.7644329 276.63449 -52.09325 2.3509886e-038
13.748348 276.17212 -52.00618 2.3509886e-038
18.713392 275.67834 -51.913197 2.3509886e-038
23.665451 275.24136 -51.83091 2.3509886e-038
28.750757 276.23666 -52.018333 2.3509886e-038
29.856293 276.83597 -52.131191 2.3509886e-038
-85.314117 281.70062 -58.145882 3.5733111e-043
-82.415329 280.2215 -57.840576 3.5733111e-043
-77.030556 279.08777 -57.606564 3.5733111e-043
-71.78791 278.34601 -57.453453 3.5733111e-043
-66.631462 277.85175 -57.351433 2.3509886e-038
-61.631844 277.9841 -57.378757 2.3509886e-038
-56.51376 277.55817 -57.290836 2.3509886e-038
-51.42807 277.22372 -57.221809 2.3509886e-038
-46.376675 277.02188 -57.180145 2.3509886e-038
-41.312531 276.68567 -57.110741 2.3509886e-038
-36.215607 276.00687 -56.970634 2.3509886e-038
-31.185747 275.70377 -56.908066 2.3509886e-038
-26.198179 275.73026 -56.913536 2.3509886e-038
-21.248789 276.26563 -57.024044 2.3509886e-038
-16.2784 276.77344 -57.128857 2.3509886e-038
-11.299173 277.51566 -57.282059 2.3509886e-038
-6.2961102 278.39194 -57.462933 2.3509886e-038
-1.2585572 278.65491 -57.517216 2.3509886e-038
3.782774 278.49515 -57.484241 2.3509886e-038
8.806447 277.96063 -57.373909 2.3509886e-038
13.813793 277.48679 -57.2761 2.3509886e-038
18.805626 277.03711 -57.183285 2.3509886e-038
23.798624 276.79025 -57.132332 2.3509886e-038
29.004683 278.67636 -57.521645 2.3509886e-038
30.128254 279.56464 -57.704998 2.3509886e-038
-81.212921 285.50854 -64.099426 3.5733111e-043
-78.426903 284.14688 -63.79372 3.5733111e-043
-72.600479 281.49661 -63.198708 3.5733111e-043
-67.091827 279.77148 -62.811398 3.5733111e-043
-61.817169 278.82001 -62.597782 2.3509886e-038
-56.478638 277.38568 -62.275764 2.3509886e-038
-51.268387 276.36298 -62.046158 2.3509886e-038
-46.216949 276.06778 -61.979885 2.3509886e-038
-41.189487 275.8616 -61.933594 2.3509886e-038
-36.107407 275.18225 -61.781071 2.3509886e-038
-31.117319 275.09882 -61.762337 2.3509886e-038
-26.162064 275.35016 -61.818768 2.3509886e-038
-21.269821 276.53906 -62.08569 2.3509886e-038
-16.347359 277.94586 -62.401535 2.3509886e-038
-11.35886 278.9816 -62.634068 2.3509886e-038
-6.3263278 279.72803 -62.801643 2.3509886e-038
-1.2648989 280.05902 -62.87595 2.3509886e-038
3.8032079 279.99954 -62.862606 2.3509886e-038
8.8503561 279.3465 -62.715984 2.3509886e-038
13.868799 278.59174 -62.546528 2.3509886e-038
18.869833 277.98294 -62.409855 2.3509886e-038
23.895966 277.92239 -62.396263 2.3509886e-038
29.265289 281.1803 -63.127689 2.3509886e-038
30.446814 282.61127 -63.448959 2.3509886e-038
-76.971771 286.57245 -69.525093 3.5733111e-043
-73.371826 284.4874 -69.019234 3.5733111e-043
-67.65593 282.12375 -68.445793 3.5733111e-043
-62.059189 279.91162 -67.909103 2.3509886e-038
-56.485043 277.41711 -67.303925 2.3509886e-038
-51.184982 275.91339 -66.939102 2.3509886e-038
-46.081692 275.25986 -66.780556 2.3509886e-038
-41.067265 275.043 -66.727943 2.3509886e-038
-36.027664 274.57452 -66.614281 2.3509886e-038
-31.049191 274.49649 -66.595352 2.3509886e-038
-26.093399 274.62747 -66.627129 2.3509886e-038
-21.241392 276.16946 -67.001221 2.3509886e-038
-16.365616 278.25629 -67.507515 2.3509886e-038
-11.388362 279.70621 -67.859276 2.3509886e-038
-6.3459911 280.59747 -68.075508 2.3509886e-038
-1.2697006 281.12216 -68.202797 2.3509886e-038
3.820307 281.25842 -68.235863 2.3509886e-038
8.8959684 280.78619 -68.121284 2.3509886e-038
13.932657 279.87448 -67.900101 2.3509886e-038
18.942883 279.05911 -67.702286 2.3509886e-038
23.992889 279.04965 -67.699989 2.3509886e-038
29.400167 282.4762 -68.531296 2.3509886e-038
30.56197 284.12405 -68.931084 2.3509886e-038
-72.871613 288.07968 -75.104843 3.5733111e-043
-68.487045 285.58948 -74.455627 3.5733111e-043
-62.342201 281.18811 -73.308151 2.3509886e-038
-56.516582 277.57202 -72.36541 2.3509886e-038
-51.182949 275.90244 -71.930122 2.3509886e-038
-46.018063 274.87979 -71.663513 2.3509886e-038
-40.958652 274.31558 -71.516426 2.3509886e-038
-35.932678 273.85062 -71.395203 2.3509886e-038
-30.976366 273.85266 -71.395737 2.3509886e-038
-26.04689 274.13797 -71.470116 2.3509886e-038
-21.204519 275.69006 -71.874763 2.3509886e-038
-16.35416 278.06155 -72.493027 2.3509886e-038
-11.400411 280.00211 -72.998947 2.3509886e-038
-6.3617101 281.29251 -73.335365 2.3509886e-038
-1.2738631 282.04373 -73.531219 2.3509886e-038
3.8338339 282.2543 -73.586113 2.3509886e-038
8.935626 282.0379 -73.529701 2.3509886e-038
14.001068 281.24869 -73.323944 2.3509886e-038
19.044819 280.56079 -73.1446 2.3509886e-038
24.1738 281.15375 -73.299194 2.3509886e-038
29.669329 285.06229 -74.318176 2.3509886e-038
30.581038 286.54404 -74.704483 2.3509886e-038
-68.114433 288.41171 -80.411491 2.3509886e-038
-62.759361 283.06967 -78.922089 2.3509886e-038
-56.869774 279.30667 -77.87294 2.3509886e-038
-51.4538 277.36243 -77.330864 2.3509886e-038
-46.119762 275.48724 -76.808052 2.3509886e-038
-40.965736 274.36304 -76.494614 2.3509886e-038
-35.908978 273.66998 -76.301384 2.3509886e-038
-30.961607 273.7222 -76.315941 2.3509886e-038
-26.068502 274.36545 -76.495285 2.3509886e-038
-21.200838 275.64215 -76.851242 2.3509886e-038
-16.34433 277.89438 -77.479179 2.3509886e-038
-11.410514 280.25024 -78.136009 2.3509886e-038
-6.3794813 282.07831 -78.645683 2.3509886e-038
-1.2782506 283.0152 -78.906898 2.3509886e-038
3.8445675 283.04456 -78.915085 2.3509886e-038
8.9623289 282.88074 -78.869408 2.3509886e-038
14.06778 282.58878 -78.78801 2.3509886e-038
19.174234 282.46732 -78.754143 2.3509886e-038
24.454279 284.41586 -79.297417 2.3509886e-038
30.413649 292.21368 -81.471512 2.3509886e-038
30.618364 292.65817 -81.595444 2.3509886e-038
-62.883949 289.13586 -85.846596 2.3509886e-038
-58.416908 286.90518 -85.18428 2.3509886e-038
-52.393539 282.42813 -83.855026 2.3509886e-038
-46.539944 277.99713 -82.539421 2.3509886e-038
-41.231064 276.14005 -81.988037 2.3509886e-038
-36.093109 275.0733 -81.67131 2.3509886e-038
-31.062155 274.61111 -81.534088 2.3509886e-038
-26.131947 275.03317 -81.659401 2.3509886e-038
-21.233995 276.07324 -81.968201 2.3509886e-038
-16.355783 278.08911 -82.566734 2.3509886e-038
-11.427653 280.6712 -83.333374 2.3509886e-038
-6.3990397 282.94308 -84.007919 2.3509886e-038
-1.2825437 283.9657 -84.311539 2.3509886e-038
3.856349 283.91193 -84.295563 2.3509886e-038
9.0005245 284.08633 -84.347351 2.3509886e-038
14.163076 284.50308 -84.471085 2.3509886e-038
19.356556 285.15317 -84.664108 2.3509886e-038
24.855806 289.08585 -85.831741 2.3509886e-038
30.258289 299.85187 -89.028252 2.3509886e-038
-58.280258 295.93707 -93.222221 2.3509886e-038
-53.71772 289.56616 -91.21534 2.3509886e-038
-47.408813 283.18716 -89.20591 2.3509886e-038
-41.845882 280.25772 -88.283119 2.3509886e-038
-36.46273 277.89026 -87.537354 2.3509886e-038
-31.280893 276.54492 -87.113564 2.3509886e-038
-26.265282 276.43649 -87.079414 2.3509886e-038
-21.33618 277.40179 -87.383484 2.3509886e-038
-16.428411 279.32397 -87.988983 2.3509886e-038
-11.481261 281.98785 -88.828125 2.3509886e-038
-6.4346004 284.51547 -89.624336 2.3509886e-038
-1.2909678 285.83087 -90.038704 2.3509886e-038
3.8860624 286.09946 -90.123314 2.3509886e-038
9.0874567 286.8302 -90.353485 2.3509886e-038
14.329772 287.85159 -90.67524 2.3509886e-038
19.64831 289.45117 -91.179123 2.3509886e-038
25.411861 295.55304 -93.10125 2.3509886e-038
28.473392 301.84964 -95.084717 2.3509886e-038
-51.471333 293.45297 -97.75106 2.3509886e-038
-48.840038 291.7363 -97.179222 2.3509886e-038
-42.89621 287.29214 -95.698845 2.3509886e-038
-37.139175 283.04559 -94.284286 2.3509886e-038
-31.779408 280.95212 -93.586945 2.3509886e-038
-26.613258 280.09888 -93.302719 2.3509886e-038
-21.593662 280.74948 -93.519432 2.3509886e-038
-16.617281 282.53522 -94.114281 2.3509886e-038
-11.616319 285.30496 -95.036903 2.3509886e-038
-6.5199385 288.28879 -96.030838 2.3509886e-038
-1.3114791 290.37225 -96.724846 2.3509886e-038
3.9589386 291.46478 -97.088776 2.3509886e-038
9.2737961 292.7117 -97.504135 2.3509886e-038
14.631598 293.91455 -97.904808 2.3509886e-038
20.165951 297.07684 -98.958191 2.3509886e-038
24.829893 303.67627 -101.1565 2.3509886e-038
-44.450336 295.82498 -103.89545 2.3509886e-038
-44.12096 295.49475 -103.77948 2.3509886e-038
-38.220745 291.28845 -102.30221 2.3509886e-038
-32.683754 288.94717 -101.47993 2.3509886e-038
-27.284859 287.16733 -100.85484 2.3509886e-038
-22.148026 287.957 -101.13218 2.3509886e-038
-17.032782 289.59976 -101.70913 2.3509886e-038
-11.898116 292.2261 -102.63151 2.3509886e-038
-6.6921182 295.90198 -103.9225 2.3509886e-038
-1.3521572 299.37872 -105.14355 2.3509886e-038
4.1069479 302.36145 -106.19111 2.3509886e-038
9.6522722 304.65762 -106.99754 2.3509886e-038
15.183171 304.99438 -107.1158 2.3509886e-038
16.56616 305.2854 -107.21801 2.3509886e-038
-28.198637 297.29892 -109.79405 2.3509886e-038
-22.995186 298.97131 -110.41168 2.3509886e-038
-17.644678 300.00354 -110.79288 2.3509886e-038
-12.303127 302.17346 -111.59425 2.3509886e-038
-6.9477553 307.20538 -113.45256 2.3509886e-038
-1.9404876 312.3786 -115.36306 2.3509886e-038
-105.76632 274.99982 -28.777082 3.5733111e-043
-104.79367 272.47086 -33.445877 3.5733111e-043
-98.689888 269.27252 -25.335442 3.5733111e-043
-97.910286 267.14539 -40.635639 3.5733111e-043
-92.59491 265.76715 -25.441814 3.5733111e-043
-94.570488 271.4375 -46.320896 3.5733111e-043
-87.628571 265.29456 -27.160166 3.5733111e-043
-91.352646 276.56915 -51.09647 3.5733111e-043
-82.924339 265.60669 -29.890306 3.5733111e-043
-87.631042 280.68225 -55.707687 3.5733111e-043
-79.029282 268.70856 -33.803345 2.3509886e-038
-83.258873 283.08966 -60.739887 3.5733111e-043
-75.153381 272.28662 48.767166 2.3509528e-038
-74.478172 269.8403 44.942413 2.3509528e-038
-75.447952 273.35391 -38.625607 2.3509886e-038
-79.11158 286.6275 -67.062248 3.5733111e-043
-68.516296 265.66089 53.755886 2.3509528e-038
-69.30822 268.73141 26.08029 2.3509886e-038
-70.62326 273.83029 -42.911934 2.3509886e-038
-74.076942 287.22137 -73.263672 3.5733111e-043
-62.666416 261.31757 49.173401 2.3509528e-038
-65.509369 273.17264 11.996101 2.3509886e-038
-66.100487 275.63757 -46.376015 2.3509886e-038
-69.301628 288.98627 -79.482559 2.3509886e-038
-58.143681 262.2511 40.582962 2.3509528e-038
-60.769318 274.09378 -0.032973837 2.3509886e-038
-62.121529 280.19278 -48.113266 2.3509886e-038
-63.78775 287.7081 -84.286743 2.3509886e-038
-53.143883 261.00754 29.902382 2.3509528e-038
-57.552765 282.66107 -14.526541 2.3509886e-038
-58.400814 286.82614 -46.620609 2.3509886e-038
-60.159134 295.46182 -91.377937 2.3509886e-038
-48.976833 264.01035 19.935051 2.3509528e-038
-54.399845 293.24313 -95.196571 2.3509886e-038
-45.149586 269.69211 5.8556552 2.3509528e-038
-49.457195 295.42276 -100.31291 2.3509886e-038
-40.549686 271.5766 -0.52962571 2.3509528e-038
-44.16148 295.76614 -104.04221 2.3509886e-038
-36.019855 274.51501 -2.4890795 2.3509528e-038
-38.887863 296.37271 -106.69897 2.3509886e-038
-29.938101 264.67368 71.618347 2.3418052e-038
-31.212786 275.94281 17.19202 2.3418052e-038
-31.804449 281.17352 2.7508202 2.3509886e-038
-33.578579 296.85803 -108.44398 2.3509886e-038
-24.877886 261.83444 70.844437 2.3418052e-038
-28.245293 297.2757 -109.77539 2.3509886e-038
-20.212978 262.79855 53.299572 2.3418052e-038
-23.176514 301.32886 -112.28191 2.3509886e-038
-15.80211 268.67529 15.555563 2.3418409e-038
-17.831995 303.18839 -113.57202 2.3509886e-038
-11.107044 272.79684 2.6803663 2.3418409e-038
-12.425201 305.17169 -114.29768 2.3509886e-038
-6.1706972 272.84659 9.9538851 2.3418409e-038
-6.9948621 309.28827 -115.13984 2.3509886e-038
-1.2018328 266.09564 58.036583 2.3418409e-038
-1.4119232 312.61139 -115.34734 2.3509886e-038
3.5269825 259.6633 60.29425 2.3418409e-038
4.2673168 314.16815 -114.69005 2.3509886e-038
8.1054468 255.8347 55.169365 2.3418409e-038
8.3068008 262.19012 5.7326956 2.3509886e-038
8.430644 266.099 -2.6393306 2.3509886e-038
9.910738 312.81567 -112.57943 2.3509886e-038
13.380115 268.77521 -10.582992 2.3509886e-038
15.265951 306.65723 -108.3019 2.3509886e-038
18.132778 267.12494 -11.509472 2.3509886e-038
20.613775 303.67404 -104.51944 2.3509886e-038
22.950106 266.92154 -9.3353539 9.1476764e-041
26.062445 303.11966 -99.461525 2.3509886e-038
28.015387 269.17123 -4.9049296 9.1476764e-041
30.594538 293.95166 -82.861748 2.3509886e-038
32.418537 265.33508 0.92082202 9.1476764e-041
32.713001 267.74518 -26.187996 9.1476764e-041
36.903587 263.07263 6.8955154 9.1476764e-041
36.777672 262.17505 -15.938513 9.1476764e-041
41.015049 258.96851 13.558722 9.1476764e-041
40.9818 258.75858 -8.1464605 9.1476764e-041
45.611401 258.4538 20.158951 9.1476764e-041
45.118847 255.66277 -0.91876495 9.1476764e-041
49.92712 256.59247 23.756916 9.1476764e-041
49.543507 254.62097 6.2874899 9.1476764e-041
54.011921 253.96237 21.745649 9.1476764e-041
53.901539 253.44336 17.481995 9.1476764e-041
