# .PCD v0.7 - Point Cloud Data file format
VERSION 0.7
FIELDS x y z rgb
SIZE 4 4 4 4
TYPE F F F F
COUNT 1 1 1 1
WIDTH 781
HEIGHT 1
VIEWPOINT 0 0 0 1 0 0 0
POINTS 781
DATA ascii
20.110691 251.17902 59.149094 2.3418052e-038
60.263462 246.06848 23.178255 9.1476764e-041
-86.200653 265.2569 -24.985697 3.5733111e-043
-55.626328 256.76028 54.417061 2.3509528e-038
-14.48175 256.23892 69.995132 2.3418409e-038
-17.012184 255.43248 74.506851 2.3418409e-038
-13.320435 254.02501 74.096306 2.3418409e-038
-11.618154 253.84747 74.044518 2.3418409e-038
-20.715834 260.36789 71.20417 2.3418409e-038
-18.239336 258.15976 70.600304 2.3418409e-038
-13.38033 255.16725 69.781921 2.3418409e-038
-9.3604374 254.88052 69.703506 2.3418409e-038
-21.152328 264.18317 67.435776 2.3418409e-038
-18.441174 261.01657 66.627472 2.3418409e-038
-13.47499 256.97244 65.595154 2.3418409e-038
-8.7658415 256.13361 65.381035 2.3418409e-038
-8.2128448 256.33136 65.431511 2.3418409e-038
17.549898 252.49246 64.451591 2.3418052e-038
18.886547 251.62238 64.229492 2.3418052e-038
21.924162 250.03145 63.823387 2.3418052e-038
-20.747475 265.39563 62.911407 2.3418409e-038
-18.567873 262.80988 62.298454 2.3418409e-038
-13.552597 258.45242 61.26553 2.3418409e-038
-8.8051853 257.28323 60.988377 2.3418409e-038
-7.4086566 257.97296 61.151875 2.3418409e-038
14.617291 253.56224 60.106327 2.3418052e-038
18.835854 250.94699 59.486385 2.3418052e-038
23.272516 249.50999 59.145748 2.3418052e-038
24.698334 249.67935 59.185898 2.3418052e-038
-60.76133 260.44058 56.993214 2.3509528e-038
-55.556694 256.77689 56.191475 2.3509528e-038
-50.995171 255.19121 55.844471 2.3509528e-038
-20.306345 264.7645 57.93943 2.3418409e-038
-18.572102 262.86972 57.524788 2.3418409e-038
-13.577515 258.92761 56.662125 2.3418409e-038
-8.8371487 258.21719 56.506657 2.3418409e-038
-6.9200397 259.34027 56.75243 2.3418409e-038
13.35717 254.66379 55.729053 2.3418052e-038
14.442096 254.05962 55.59684 2.3418052e-038
18.922434 252.10046 55.16811 2.3418052e-038
23.518599 252.1483 55.178577 2.3418052e-038
25.809605 253.86426 55.554089 2.3418052e-038
-61.194378 260.8338 52.328487 2.3509528e-038
-61.18335 260.82581 52.326885 2.3509528e-038
-55.645687 257.18823 51.597115 2.3509528e-038
-50.688683 255.81238 51.321091 2.3509528e-038
-48.433136 256.18311 51.39547 2.3509528e-038
-20.046383 263.8587 52.935345 2.3418409e-038
-18.528206 262.24841 52.612289 2.3418409e-038
-13.558549 258.56592 51.873508 2.3418409e-038
-8.8323689 258.07755 51.775528 2.3418409e-038
-6.4559927 259.20731 52.002182 2.3509886e-038
12.4685 255.9272 51.344128 2.3418052e-038
14.45071 254.21115 50.999855 2.3418052e-038
18.966312 252.68507 50.693691 2.3418052e-038
23.734669 254.46483 51.050743 2.3418052e-038
25.993521 257.26901 51.613323 2.3418052e-038
-61.288319 261.91904 47.775665 2.3509528e-038
-55.915604 258.43576 47.140289 2.3509528e-038
-50.943089 257.09628 46.895962 2.3509528e-038
-46.688328 257.88705 47.040207 2.3509528e-038
-20.091997 265.11288 48.358234 2.3418409e-038
-18.59182 263.1488 47.999977 2.3418409e-038
-13.555706 258.51172 47.154144 2.3418409e-038
-8.8174963 257.64294 46.995678 2.3418409e-038
-5.8500733 258.45621 47.144016 2.3509886e-038
11.795196 257.34598 46.941505 2.3418052e-038
14.459658 254.36855 46.398403 2.3418052e-038
18.958361 252.57912 46.072002 2.3418052e-038
23.749174 254.62038 46.444336 2.3418052e-038
25.305593 256.44662 46.777462 2.3418052e-038
-60.782143 262.44843 43.092041 2.3509528e-038
-56.066509 259.13321 42.54771 2.3509528e-038
-51.080173 257.78812 42.326855 2.3509528e-038
-46.466351 258.24091 42.401203 2.3509528e-038
-45.049229 258.98752 42.523785 2.3509528e-038
-20.292143 267.80685 43.971855 2.3418409e-038
-18.740189 265.24884 43.551846 2.3418409e-038
-13.589666 259.15936 42.552002 2.3418409e-038
-8.8267136 257.91229 42.34724 2.3418409e-038
-5.1424317 258.77319 42.488602 2.3509886e-038
11.177839 258.45639 42.436577 2.3418052e-038
14.487486 254.85811 41.845768 2.3418052e-038
18.96711 252.69568 41.490715 2.3418052e-038
23.653002 253.58928 41.637436 2.3418052e-038
24.383209 254.04939 41.712986 2.3418052e-038
-59.340599 260.76257 38.065765 2.3509528e-038
-55.989189 258.77585 37.775749 2.3509528e-038
-51.106941 257.92322 37.651283 2.3509528e-038
-46.482437 258.33032 37.710709 2.3509528e-038
-43.236317 259.61044 37.897579 2.3509528e-038
-20.347984 268.66309 39.21907 2.3418409e-038
-18.807768 266.20535 38.860294 2.3418409e-038
-13.642214 260.16147 37.978016 2.3418409e-038
-8.8564396 258.78085 37.776482 2.3418409e-038
-4.5364256 259.9787 37.95134 2.3509886e-038
10.401593 258.86111 37.788197 2.3418052e-038
14.478059 254.69226 37.17963 2.3418052e-038
18.964947 252.66685 36.883965 2.3418052e-038
23.608797 253.11533 36.949432 2.3418052e-038
23.863586 253.20953 36.963184 2.3418052e-038
-57.725761 259.50586 33.15572 2.3509528e-038
-55.985222 258.75754 33.060112 2.3509528e-038
-51.180084 258.29236 33.000675 2.3509528e-038
-46.486267 258.35159 33.008244 2.3509528e-038
-41.876087 258.94147 33.083611 2.3509528e-038
-41.190144 259.33865 33.134357 2.3509528e-038
-20.262753 268.40106 34.292213 2.3418409e-038
-18.824509 266.44229 34.041954 2.3418409e-038
-13.704461 261.34851 33.391148 2.3418409e-038
-8.8945198 259.89352 33.205254 2.3418409e-038
-4.2681999 260.95255 33.340553 2.3509886e-038
9.2536726 260.25891 33.251934 2.3509886e-038
10.009451 259.10065 33.103947 2.3418052e-038
14.438908 254.00352 32.452713 2.3418052e-038
18.929564 252.19548 32.22171 2.3418052e-038
23.573565 252.73761 32.290977 2.3418052e-038
23.676723 252.77379 32.295601 2.3418052e-038
-56.678936 261.08807 28.602467 2.3509886e-038
-56.468197 260.98978 28.5917 2.3509886e-038
-51.489986 259.85635 28.467529 2.3509528e-038
-46.60247 258.99741 28.373434 2.3509528e-038
-41.853233 258.80014 28.351824 2.3509528e-038
-39.381435 259.51016 28.429605 2.3509528e-038
-19.969328 268.44217 29.408117 2.3418409e-038
-18.868696 267.06772 29.257544 2.3418409e-038
-13.757341 262.35696 28.741476 2.3418409e-038
-8.9181461 260.58386 28.547232 2.3418409e-038
-4.1989832 261.33194 28.629185 2.3509886e-038
7.9236646 262.33047 28.738573 2.3509886e-038
9.9970064 258.7785 28.349451 2.3418052e-038
14.406947 253.4413 27.764755 2.3418052e-038
18.907898 251.90681 27.596651 2.3418052e-038
23.552624 252.51311 27.663071 2.3418052e-038
23.564545 252.51698 27.663496 2.3418052e-038
58.568466 248.02115 27.170973 9.1476764e-041
59.174702 247.61024 27.125956 9.1476764e-041
63.513489 246.95389 27.054052 9.1476764e-041
-56.036835 265.02512 24.206656 2.3509886e-038
-52.133972 263.10638 24.031403 2.3509528e-038
-46.881126 260.54608 23.797552 2.3509528e-038
-42.034817 259.92294 23.740639 2.3509528e-038
-38.08392 261.51672 23.886208 2.3509528e-038
-19.355053 267.97485 24.476076 2.3418409e-038
-18.896172 267.45663 24.428741 2.3418409e-038
-13.790833 262.99567 24.02129 2.3418409e-038
-8.9328461 261.0134 23.840235 2.3418409e-038
-4.1920395 261.84018 23.915751 2.3509886e-038
-4.1863313 261.84329 23.916037 2.3509886e-038
6.920269 262.79074 24.002573 2.3509886e-038
9.9668446 257.99774 23.564795 2.3418052e-038
14.398568 253.2939 23.135159 2.3418052e-038
18.932196 252.23053 23.038033 2.3418052e-038
23.349205 253.10982 23.118345 2.3418052e-038
54.600945 250.68442 22.896814 9.1476764e-041
55.151669 249.81566 22.817467 9.1476764e-041
58.850491 246.25362 22.492119 9.1476764e-041
63.303516 246.12845 22.480686 9.1476764e-041
63.863449 246.37714 22.503401 9.1476764e-041
-54.809509 267.82898 19.58457 2.3509886e-038
-52.755817 266.24466 19.468719 2.3509528e-038
-47.205185 262.34705 19.183712 2.3509528e-038
-42.272274 261.3913 19.113823 2.3509528e-038
-37.861065 263.82822 19.292021 2.3509528e-038
-37.07209 264.71417 19.356806 2.3509528e-038
-18.655603 268.28775 19.618116 2.3418409e-038
-13.873899 264.57977 19.346977 2.3418409e-038
-8.9808922 262.41733 19.18885 2.3509886e-038
-4.2272201 264.03757 19.307331 2.3509886e-038
-4.162437 264.09644 19.311634 2.3509886e-038
6.3417053 265.22849 19.394413 2.3509886e-038
10.006909 259.03485 18.941513 2.3418052e-038
14.431563 253.87433 18.564159 2.3418052e-038
18.97604 252.81468 18.486673 2.3418052e-038
22.790222 253.89322 18.56554 2.3418052e-038
51.400482 251.17871 18.367046 9.1476764e-041
54.799313 248.2196 18.150667 9.1476764e-041
58.816833 246.11278 17.996607 9.1476764e-041
62.889389 246.97266 18.059484 9.1476764e-041
-52.752724 267.72247 14.700543 2.3509528e-038
-47.485138 263.90292 14.490813 2.3509528e-038
-42.499062 262.79364 14.429902 2.3509528e-038
-38.001484 264.80673 14.54044 2.3509528e-038
-35.781818 267.31213 14.678011 2.3509528e-038
-18.409372 271.51096 14.908567 2.3418409e-038
-14.017196 267.31247 14.678029 2.3418409e-038
-9.0499163 264.43417 14.519982 2.3509886e-038
-4.2681222 266.59241 14.638491 2.3509886e-038
-3.8377316 267.14365 14.668759 2.3509886e-038
5.7545657 268.84296 14.762068 2.3509886e-038
10.080996 260.95264 14.328813 2.3418052e-038
14.504401 255.15565 14.010503 2.3418052e-038
19.045691 253.7426 13.932913 2.3418052e-038
21.804752 254.59576 13.979759 2.3418052e-038
48.219177 251.50096 13.809825 9.1476764e-041
50.498859 249.30855 13.68944 9.1476764e-041
54.521095 246.9594 13.56045 9.1476764e-041
58.833683 246.18329 13.517835 9.1476764e-041
60.746216 246.56212 13.538635 9.1476764e-041
-50.827824 268.16251 9.8404503 2.3509528e-038
-47.934788 266.40189 9.7758427 2.3509528e-038
-42.836414 264.87964 9.7199831 2.3509528e-038
-38.137856 265.75699 9.7521772 2.3509528e-038
-33.899921 269.06326 9.8735037 2.3509528e-038
-19.034756 275.38858 10.105617 2.3509886e-038
-14.140042 269.65521 9.8952255 2.3509886e-038
-9.10532 266.05301 9.7630405 2.3509886e-038
-4.2793059 267.29095 9.8084679 2.3509886e-038
-2.5220668 269.12305 9.8756981 2.3509886e-038
4.1318007 270.37167 9.9215174 2.3509886e-038
5.491107 268.93912 9.868948 2.3509886e-038
10.11937 261.94592 9.6123276 2.3509886e-038
14.603922 256.9064 9.4273977 2.3418052e-038
19.183649 255.5806 9.378746 2.3418052e-038
20.690872 255.89195 9.390172 2.3418052e-038
44.885906 253.21725 9.2920218 9.1476764e-041
46.363983 251.51083 9.2294016 9.1476764e-041
50.282593 248.24086 9.1094084 9.1476764e-041
54.467464 246.71649 9.0534697 9.1476764e-041
58.178787 246.82858 9.0575829 9.1476764e-041
-49.416481 270.5097 4.9995756 2.3509528e-038
-48.590622 270.04675 4.9910192 2.3509528e-038
-43.296432 267.72418 4.9480934 2.3509528e-038
-38.280277 266.74945 4.9300785 2.3509528e-038
-33.523827 267.56406 4.9451342 2.3509528e-038
-30.693029 269.15012 4.9744477 2.3509528e-038
-21.321705 276.06424 5.1022353 2.3509886e-038
-19.440266 275.15771 5.0854807 2.3509886e-038
-14.178267 270.38416 4.9972558 2.3509886e-038
-9.1332035 266.86777 4.9322653 2.3509886e-038
-4.260673 266.12711 4.9185767 2.3509886e-038
0.58968407 267.56741 4.9451966 2.3509886e-038
5.4379892 266.33755 4.9224658 2.3509886e-038
10.118165 261.91476 4.8407235 2.3509886e-038
14.68816 258.38828 4.775547 2.3509886e-038
19.330032 257.53085 4.7596993 2.3418052e-038
19.917311 257.62402 4.7614222 2.3418052e-038
40.949265 254.14873 4.6971912 9.1476764e-041
42.015293 252.90912 4.6742811 9.1476764e-041
45.950893 249.26994 4.6070213 9.1476764e-041
50.105846 247.36827 4.5718746 9.1476764e-041
54.618988 247.40282 4.5725131 9.1476764e-041
55.544392 247.7373 4.5786953 9.1476764e-041
-48.387241 273.91794 0.073474243 2.3509886e-038
-43.828815 271.01617 0.072695889 2.3509886e-038
-38.484993 268.17596 0.071934044 2.3509528e-038
-33.504147 267.40698 0.071727775 2.3509528e-038
-28.692345 267.95511 0.071874797 2.3509886e-038
-23.962685 269.65225 0.072330035 2.3509886e-038
-19.132471 270.80118 0.072638221 2.3509886e-038
-14.117923 269.23337 0.072217681 2.3509886e-038
-9.1450491 267.21387 0.071675986 2.3509886e-038
-4.2550845 265.77805 0.071290836 2.3509886e-038
0.58494645 265.41779 0.071194202 2.3509886e-038
5.4022436 264.58682 0.07097131 2.3509886e-038
10.129562 262.20981 0.070333712 2.3509886e-038
14.782782 260.05283 0.069755137 2.3509886e-038
19.476074 259.47653 0.06960056 2.3509886e-038
19.998831 259.55667 0.069622055 2.3509886e-038
37.478481 259.91483 0.069718115 9.1476764e-041
38.2239 258.41934 0.069316976 9.1476764e-041
41.99612 252.79373 0.067807995 9.1476764e-041
45.941746 249.22031 0.066849485 9.1476764e-041
50.146954 247.57121 0.066407144 9.1476764e-041
52.694145 247.73109 0.066450022 9.1476764e-041
-47.746956 278.39603 -4.9959707 2.3509886e-038
-44.570637 275.60324 -4.9458523 2.3509886e-038
-38.832047 270.59433 -4.8559647 2.3509886e-038
-33.618004 268.3157 -4.8150735 2.3509886e-038
-28.689678 267.93021 -4.8081555 2.3509886e-038
-23.832283 268.18484 -4.8127251 2.3509886e-038
-18.979755 268.63968 -4.8208876 2.3509886e-038
-14.07881 268.48749 -4.8181562 2.3509886e-038
-9.1701403 267.94702 -4.8084569 2.3509886e-038
-4.2735639 266.93231 -4.7902479 2.3509886e-038
0.58616138 265.96902 -4.7729611 2.3509886e-038
5.4107685 265.00436 -4.7556496 2.3509886e-038
10.175618 263.40198 -4.7268944 2.3509886e-038
14.874705 261.66989 -4.6958108 2.3509886e-038
19.575275 260.79819 -4.6801672 2.3509886e-038
21.685911 261.07446 -4.6851254 2.3509886e-038
32.55965 262.69275 -4.7141662 9.1476764e-041
33.928276 261.58951 -4.6943679 9.1476764e-041
38.063072 257.33203 -4.6179652 9.1476764e-041
42.156296 253.75786 -4.5538249 9.1476764e-041
46.272018 251.01193 -4.5045481 9.1476764e-041
50.163136 249.54514 -4.4782257 9.1476764e-041
-47.603142 283.74088 -10.259893 2.3509886e-038
-45.425686 280.89047 -10.156824 2.3509886e-038
-39.222927 273.31812 -9.8830128 2.3509886e-038
-33.798431 269.75574 -9.7542009 2.3509886e-038
-28.829996 269.24063 -9.7355728 2.3509886e-038
-23.932877 269.31683 -9.7383289 2.3509886e-038
-19.024273 269.26978 -9.7366276 2.3509886e-038
-14.111756 269.11578 -9.7310591 2.3509886e-038
-9.2023039 268.88684 -9.7227802 2.3509886e-038
-4.2941446 268.21777 -9.6985874 2.3509886e-038
0.58917385 267.33594 -9.6667013 2.3509886e-038
5.438098 266.34286 -9.6307926 2.3509886e-038
10.222962 264.6275 -9.5687666 2.3509886e-038
14.926784 262.58606 -9.4949484 2.3509886e-038
19.582533 260.89487 -9.4337959 2.3509886e-038
24.287571 260.39264 -9.4156361 2.3509886e-038
29.032145 260.40912 -9.4162321 9.1476764e-041
33.592873 259.00351 -9.365406 9.1476764e-041
38.005264 256.94119 -9.2908344 9.1476764e-041
42.432217 255.41878 -9.2357845 9.1476764e-041
46.835182 254.06694 -9.186903 9.1476764e-041
47.930954 253.82191 -9.1780424 9.1476764e-041
-47.558445 287.19684 -15.615801 2.3509886e-038
-46.053158 284.77042 -15.48387 2.3509886e-038
-39.470013 275.03992 -14.95479 2.3509886e-038
-33.914566 270.68265 -14.717874 2.3509886e-038
-28.945244 270.31689 -14.697985 2.3509886e-038
-24.034792 270.46368 -14.705965 2.3509886e-038
-19.091011 270.21439 -14.69241 2.3509886e-038
-14.153852 269.91855 -14.676326 2.3509886e-038
-9.2241564 269.52539 -14.654947 2.3509886e-038
-4.3035316 268.80411 -14.615729 2.3509886e-038
0.59074771 268.05005 -14.574729 2.3509886e-038
5.4539108 267.11734 -14.524015 2.3509886e-038
10.252921 265.40302 -14.4308 2.3509886e-038
14.973502 263.40793 -14.322322 2.3509886e-038
19.64229 261.69101 -14.228968 2.3509886e-038
24.308784 260.62006 -14.170737 2.3509886e-038
28.991356 260.04327 -14.139375 9.1476764e-041
33.630451 259.29324 -14.098595 9.1476764e-041
38.215855 258.36493 -14.048119 9.1476764e-041
42.803799 257.65549 -14.009544 9.1476764e-041
45.52417 257.90552 -14.023139 9.1476764e-041
-94.151115 270.40356 -19.627769 3.5733111e-043
-92.786903 269.84052 -19.586901 3.5733111e-043
-87.219231 267.83572 -19.441381 3.5733111e-043
-84.73008 267.45218 -19.413538 3.5733111e-043
-47.553001 289.81107 -21.036505 2.3509886e-038
-46.572899 287.98425 -20.9039 2.3509886e-038
-39.666729 276.41068 -20.063808 2.3509886e-038
-34.030773 271.61014 -19.715351 2.3509886e-038
-29.042582 271.22592 -19.687464 2.3509886e-038
-24.098782 271.18375 -19.684402 2.3509886e-038
-19.133949 270.82214 -19.658154 2.3509886e-038
-14.18684 270.54767 -19.638231 2.3509886e-038
-9.2437859 270.09891 -19.605656 2.3509886e-038
-4.3094106 269.17133 -19.538326 2.3509886e-038
0.59145039 268.3689 -19.480082 2.3509886e-038
5.4634185 267.58301 -19.423037 2.3509886e-038
10.286266 266.26617 -19.32745 2.3509886e-038
15.053688 264.81848 -19.222368 2.3509886e-038
19.787661 263.62775 -19.135935 2.3509886e-038
24.498741 262.65662 -19.065445 2.3509886e-038
29.17836 261.72064 -18.997503 9.1476764e-041
33.865631 261.10651 -18.952925 9.1476764e-041
38.538525 260.54639 -18.91227 9.1476764e-041
43.182301 260.53818 -18.911673 9.1476764e-041
-95.874855 268.97879 -24.423475 3.5733111e-043
-91.823166 267.03781 -24.247231 3.5733111e-043
-86.331589 265.10992 -24.072178 3.5733111e-043
-81.615204 265.47513 -24.105339 3.5733111e-043
-77.39653 267.60724 -24.298937 3.5733111e-043
-76.240067 268.51669 -24.381516 3.5733111e-043
-47.476837 291.54996 -26.47295 2.3509886e-038
-46.995258 290.59595 -26.386328 2.3509886e-038
-39.889076 277.96005 -25.238979 2.3509886e-038
-34.176132 272.77032 -24.767748 2.3509886e-038
-29.140368 272.13916 -24.710438 2.3509886e-038
-24.151186 271.77347 -24.677233 2.3509886e-038
-19.165844 271.27356 -24.63184 2.3509886e-038
-14.207638 270.94427 -24.60194 2.3509886e-038
-9.2541847 270.40277 -24.552771 2.3509886e-038
-4.3135376 269.42908 -24.464361 2.3509886e-038
0.59209704 268.66232 -24.394739 2.3509886e-038
5.4702291 267.9166 -24.327024 2.3509886e-038
10.309253 266.86121 -24.231194 2.3509886e-038
15.119184 265.97067 -24.150333 2.3509886e-038
19.924425 265.44986 -24.103045 2.3509886e-038
24.701466 264.83008 -24.046768 2.3509886e-038
29.414341 263.83731 -23.956623 2.3509886e-038
34.11079 262.9967 -23.880295 9.1476764e-041
38.833721 262.54211 -23.83902 9.1476764e-041
41.453217 262.76047 -23.858843 9.1476764e-041
-94.265854 268.87991 -29.311817 3.5733111e-043
-91.902756 267.26926 -29.13623 3.5733111e-043
-86.108925 264.42618 -28.826294 3.5733111e-043
-81.347908 264.60568 -28.845861 3.5733111e-043
-77.239464 267.06415 -29.113873 3.5733111e-043
-73.285027 270.42136 -29.479856 3.5733111e-043
-70.969643 272.41031 -29.69668 3.5733111e-043
-47.613449 292.76273 -31.915388 2.3509886e-038
-47.217117 291.96777 -31.828728 2.3509886e-038
-39.996452 278.70831 -30.383253 2.3509886e-038
-34.212425 273.05997 -29.767502 2.3509886e-038
-29.166185 272.38025 -29.693405 2.3509886e-038
-24.178907 272.08539 -29.661261 2.3509886e-038
-19.194883 271.6846 -29.617567 2.3509886e-038
-14.228256 271.33749 -29.579727 2.3509886e-038
-9.2636976 270.68076 -29.508135 2.3509886e-038
-4.3170571 269.64893 -29.395651 2.3509886e-038
0.59264839 268.91251 -29.315367 2.3509886e-038
5.4781904 268.30649 -29.249306 2.3509886e-038
10.339168 267.63556 -29.176163 2.3509886e-038
15.174882 266.9505 -29.101482 2.3509886e-038
20.011982 266.61633 -29.065054 2.3509886e-038
24.825819 266.16333 -29.015667 2.3509886e-038
29.54829 265.03879 -28.893078 2.3509886e-038
34.248436 264.05795 -28.786154 2.3509886e-038
39.061985 264.08536 -28.789141 2.3509886e-038
40.301399 264.33176 -28.816002 2.3509886e-038
-90.56395 267.70224 -34.059307 3.5733111e-043
-86.474419 265.54852 -33.785294 3.5733111e-043
-81.520691 265.16772 -33.736843 3.5733111e-043
-77.262177 267.1427 -33.988117 3.5733111e-043
-73.304688 270.49393 -34.41449 3.5733111e-043
-69.123474 273.44308 -34.789703 3.5733111e-043
-65.924164 275.24203 -35.018581 2.3509886e-038
-49.009682 294.76822 -37.502865 2.3509886e-038
-47.115463 291.33923 -37.066597 2.3509886e-038
-40.016357 278.84702 -35.477238 2.3509886e-038
-34.197582 272.9415 -34.725891 2.3509886e-038
-29.129328 272.03604 -34.610687 2.3509886e-038
-24.164507 271.92337 -34.596355 2.3509886e-038
-19.206863 271.85413 -34.587543 2.3509886e-038
-14.253217 271.81348 -34.582375 2.3509886e-038
-9.2880383 271.39197 -34.528744 2.3509886e-038
-4.3294015 270.41998 -34.405079 2.3509886e-038
0.59411478 269.57785 -34.297939 2.3509886e-038
5.4907708 268.92267 -34.214577 2.3509886e-038
10.373629 268.52759 -34.164314 2.3509886e-038
15.232637 267.96652 -34.09293 2.3509886e-038
20.086107 267.60394 -34.046799 2.3509886e-038
24.915195 267.12155 -33.985424 2.3509886e-038
29.655792 266.00305 -33.843121 2.3509886e-038
34.443581 265.56253 -33.787075 2.3509886e-038
39.529606 267.2468 -34.001358 2.3509886e-038
39.752907 267.38733 -34.019238 2.3509886e-038
-86.653534 268.71545 -39.082558 3.5733111e-043
-82.473526 268.26706 -39.017345 3.5733111e-043
-77.763153 268.87488 -39.105747 3.5733111e-043
-73.518288 271.2821 -39.45586 3.5733111e-043
-69.216805 273.81223 -39.823845 3.5733111e-043
-64.650543 275.60654 -40.084812 2.3509886e-038
-60.129993 277.91418 -40.420444 2.3509886e-038
-59.844181 278.18701 -40.460121 2.3509886e-038
-52.211044 291.50934 -42.397747 2.3509886e-038
-46.385357 286.82458 -41.716389 2.3509886e-038
-39.963085 278.4758 -40.502125 2.3509886e-038
-34.262844 273.46234 -39.772957 2.3509886e-038
-29.1327 272.06754 -39.570095 2.3509886e-038
-24.154844 271.81461 -39.53331 2.3509886e-038
-19.202419 271.79126 -39.529907 2.3509886e-038
-14.257099 271.88751 -39.543911 2.3509886e-038
-9.3091297 272.00824 -39.56147 2.3509886e-038
-4.3483768 271.60519 -39.50285 2.3509886e-038
0.59701109 270.89206 -39.399128 2.3509886e-038
5.5100484 269.86682 -39.250015 2.3509886e-038
10.393384 269.03897 -39.129616 2.3509886e-038
15.258592 268.4231 -39.040035 2.3509886e-038
20.140549 268.32922 -39.026386 2.3509886e-038
25.00069 268.03815 -38.984055 2.3509886e-038
29.787649 267.18576 -38.860077 2.3509886e-038
34.721508 267.70538 -38.935654 2.3509886e-038
39.615383 271.90802 -39.54689 2.3509886e-038
-83.475769 274.04407 -44.848946 3.5733111e-043
-78.930267 272.91031 -44.663399 3.5733111e-043
-74.065262 273.30042 -44.727245 3.5733111e-043
-69.371841 274.42557 -44.911381 3.5733111e-043
-64.736023 275.97095 -45.164291 2.3509886e-038
-60.133884 277.93219 -45.48526 2.3509886e-038
-55.640686 280.80383 -45.955223 2.3509886e-038
-50.946449 283.13947 -46.337463 2.3509886e-038
-45.563679 281.74374 -46.109043 2.3509886e-038
-39.846245 277.66162 -45.440979 2.3509886e-038
-34.384655 274.4346 -44.912861 2.3509886e-038
-29.225241 272.93179 -44.666916 2.3509886e-038
-24.203354 272.3605 -44.573421 2.3509886e-038
-19.211061 271.91354 -44.500275 2.3509886e-038
-14.252278 271.79556 -44.480968 2.3509886e-038
-9.3232412 272.42056 -44.583248 2.3509886e-038
-4.3659372 272.70203 -44.629318 2.3509886e-038
0.59995192 272.22644 -44.551483 2.3509886e-038
5.532949 270.9884 -44.348869 2.3509886e-038
10.419985 269.72757 -44.142525 2.3509886e-038
15.287835 268.93753 -44.013233 2.3509886e-038
20.171419 268.74051 -43.980988 2.3509886e-038
25.023033 268.27771 -43.905247 2.3509886e-038
29.816378 267.44345 -43.768715 2.3509886e-038
34.846153 268.66638 -43.968857 2.3509886e-038
39.52037 274.42252 -44.910885 2.3509886e-038
-79.885788 279.42352 -50.818684 3.5733111e-043
-75.244072 277.65021 -50.496174 3.5733111e-043
-69.870094 276.39658 -50.268173 3.5733111e-043
-64.975739 276.99286 -50.376621 3.5733111e-043
-60.23801 278.41345 -50.634983 2.3509886e-038
-55.388424 279.53073 -50.838184 2.3509886e-038
-50.376087 279.96964 -50.918007 2.3509886e-038
-45.140732 279.12842 -50.765015 2.3509886e-038
-39.787067 277.24924 -50.423248 2.3509886e-038
-34.50465 275.3923 -50.085526 2.3509886e-038
-29.346792 274.06693 -49.844482 2.3509886e-038
-24.278513 273.20627 -49.68795 2.3509886e-038
-19.246618 272.41684 -49.54438 2.3509886e-038
-14.270434 272.14182 -49.494362 2.3509886e-038
-9.3424377 272.98148 -49.647072 2.3509886e-038
-4.3827043 273.74936 -49.786724 2.3509886e-038
0.60262609 273.43982 -49.730431 2.3509886e-038
5.5586672 272.24802 -49.51368 2.3509886e-038
10.471474 271.06036 -49.297684 2.3509886e-038
15.364376 270.284 -49.156483 2.3509886e-038
20.234089 269.57544 -49.027618 2.3509886e-038
25.038357 268.44199 -48.821476 2.3509886e-038
29.7892 267.19968 -48.595535 2.3509886e-038
34.799656 268.30789 -48.797089 2.3509886e-038
39.271492 273.75211 -49.787224 2.3509886e-038
-75.992134 283.89597 -56.80291 3.5733111e-043
-71.039658 281.02319 -56.228115 3.5733111e-043
-65.679024 279.99094 -56.02158 3.5733111e-043
-60.469929 279.48535 -55.920418 2.3509886e-038
-55.284359 279.00552 -55.824413 2.3509886e-038
-50.113342 278.5094 -55.725151 2.3509886e-038
-44.922562 277.77936 -55.579082 2.3509886e-038
-39.708561 276.70221 -55.363556 2.3509886e-038
-34.500122 275.35617 -55.094238 2.3509886e-038
-29.348421 274.08215 -54.839329 2.3509886e-038
-24.277908 273.19946 -54.662716 2.3509886e-038
-19.261652 272.62964 -54.548702 2.3509886e-038
-14.287549 272.4682 -54.516403 2.3509886e-038
-9.356493 273.39218 -54.701271 2.3509886e-038
-4.3949151 274.51202 -54.925339 2.3509886e-038
0.60491455 274.47824 -54.918575 2.3509886e-038
5.5848923 273.53244 -54.729343 2.3509886e-038
10.529976 272.57474 -54.53772 2.3509886e-038
15.4477 271.74979 -54.372662 2.3509886e-038
20.309834 270.58459 -54.139523 2.3509886e-038
25.080631 268.8952 -53.801506 2.3509886e-038
29.796911 267.26883 -53.476097 2.3509886e-038
34.714092 267.64819 -53.551998 2.3509886e-038
38.804001 271.03195 -54.229031 2.3509886e-038
-72.009438 287.00122 -62.651596 3.5733111e-043
-66.680481 284.26022 -62.053242 3.5733111e-043
-60.783424 280.93427 -61.327198 2.3509886e-038
-55.201008 278.5849 -60.814335 2.3509886e-038
-49.898949 277.31787 -60.537746 2.3509886e-038
-44.698944 276.39664 -60.336643 2.3509886e-038
-39.509949 275.31818 -60.101219 2.3509886e-038
-34.327465 273.97815 -59.808693 2.3509886e-038
-29.214016 272.82693 -59.557388 2.3509886e-038
-24.191261 272.22443 -59.425861 2.3509886e-038
-19.230698 272.1915 -59.418674 2.3509886e-038
-14.283966 272.39987 -59.464161 2.3509886e-038
-9.3585863 273.45337 -59.694134 2.3509886e-038
-4.3986406 274.74475 -59.97604 2.3509886e-038
0.60627735 275.09659 -60.052849 2.3509886e-038
5.6060576 274.56906 -59.937691 2.3509886e-038
10.572747 273.68192 -59.744026 2.3509886e-038
15.497978 272.63428 -59.515331 2.3509886e-038
20.359829 271.25067 -59.213291 2.3509886e-038
25.122419 269.34323 -58.796906 2.3509886e-038
29.854624 267.7865 -58.457077 2.3509886e-038
34.793945 268.26389 -58.561283 2.3509886e-038
38.552567 270.66367 -59.085155 2.3509886e-038
-67.94342 288.85715 -68.31794 3.5733111e-043
-67.705627 288.63043 -68.264328 3.5733111e-043
-61.159435 282.67218 -66.855133 2.3509886e-038
-55.206413 278.61215 -65.894897 2.3509886e-038
-49.745792 276.46671 -65.387466 2.3509886e-038
-44.499363 275.16251 -65.07901 2.3509886e-038
-39.30135 273.86459 -64.772041 2.3509886e-038
-34.135799 272.44839 -64.437088 2.3509886e-038
-29.059181 271.38095 -64.184639 2.3509886e-038
-24.079638 270.96832 -64.087044 2.3509886e-038
-19.16555 271.26938 -64.158249 2.3509886e-038
-14.253341 271.81583 -64.287483 2.3509886e-038
-9.3501568 273.207 -64.616516 2.3509886e-038
-4.3992662 274.78381 -64.989449 2.3509886e-038
0.60716486 275.49933 -65.158676 2.3509886e-038
5.6219583 275.34784 -65.122841 2.3509886e-038
10.602574 274.45401 -64.911438 2.3509886e-038
15.531171 273.21817 -64.619156 2.3509886e-038
20.398956 271.77194 -64.277107 2.3509886e-038
25.186337 270.0285 -63.864761 2.3509886e-038
29.993288 269.03027 -63.628666 2.3509886e-038
35.090378 270.54938 -63.987957 2.3509886e-038
38.523388 273.40656 -64.663712 2.3509886e-038
-63.153149 287.51999 -73.238525 2.3509886e-038
-61.941513 286.28683 -72.924408 2.3509886e-038
-55.65963 280.89944 -71.552109 2.3509886e-038
-49.844345 277.01443 -70.5625 2.3509886e-038
-44.409389 274.60617 -69.949051 2.3509886e-038
-39.18037 273.02158 -69.545418 2.3509886e-038
-34.028435 271.59146 -69.181129 2.3509886e-038
-28.962044 270.47382 -68.896439 2.3509886e-038
-23.992428 269.98697 -68.772423 2.3509886e-038
-19.097012 270.29932 -68.851982 2.3509886e-038
-14.214202 271.06943 -69.048157 2.3509886e-038
-9.3355379 272.77988 -69.483849 2.3509886e-038
-4.4004312 274.85657 -70.012833 2.3509886e-038
0.60845631 276.0853 -70.325821 2.3509886e-038
5.6382971 276.14807 -70.341812 2.3509886e-038
10.630524 275.17749 -70.094582 2.3509886e-038
15.561568 273.75293 -69.731712 2.3509886e-038
20.4454 272.39072 -69.384727 2.3509886e-038
25.29652 271.20981 -69.083916 2.3509886e-038
30.223402 271.09433 -69.054497 2.3509886e-038
35.568333 274.23447 -69.85437 2.3509886e-038
38.518192 277.86969 -70.78035 2.3509886e-038
-58.628304 289.05145 -78.893341 2.3509886e-038
-56.9128 287.22385 -78.394516 2.3509886e-038
-50.451908 280.39102 -76.529572 2.3509886e-038
-44.576042 275.63666 -75.231934 2.3509886e-038
-39.186825 273.06656 -74.530441 2.3509886e-038
-33.992336 271.30334 -74.049202 2.3509886e-038
-28.928774 270.16309 -73.737976 2.3509886e-038
-23.967773 269.7095 -73.614174 2.3509886e-038
-19.076548 270.00967 -73.696106 2.3509886e-038
-14.213297 271.05219 -73.980644 2.3509886e-038
-9.3387079 272.87247 -74.477478 2.3509886e-038
-4.4067335 275.25021 -75.126457 2.3509886e-038
0.61011487 276.83786 -75.559776 2.3509886e-038
5.6530623 276.87125 -75.568893 2.3509886e-038
10.654806 275.80603 -75.278152 2.3509886e-038
15.595303 274.34637 -74.879761 2.3509886e-038
20.509235 273.24118 -74.578117 2.3509886e-038
25.432785 272.67075 -74.422409 2.3509886e-038
30.503544 273.60712 -74.677979 2.3509886e-038
36.206345 279.15359 -76.191833 2.3509886e-038
38.529488 283.09601 -77.267876 2.3509886e-038
-53.579594 291.08432 -84.749939 2.3509886e-038
-51.964554 288.79767 -84.084175 2.3509886e-038
-45.35146 280.43149 -81.648338 2.3509886e-038
-39.48428 275.13934 -80.107521 2.3509886e-038
-34.086506 272.05496 -79.209488 2.3509886e-038
-28.969917 270.54733 -78.770538 2.3509886e-038
-24.005398 270.1329 -78.649879 2.3509886e-038
-19.109118 270.47064 -78.748222 2.3509886e-038
-14.247247 271.69965 -79.106041 2.3509886e-038
-9.3621502 273.55746 -79.646942 2.3509886e-038
-4.4172893 275.90955 -80.331764 2.3509886e-038
0.61154509 277.48682 -80.791 2.3509886e-038
5.6652327 277.46732 -80.785309 2.3509886e-038
10.688638 276.68179 -80.556602 2.3509886e-038
15.66567 275.58426 -80.237053 2.3509886e-038
20.619738 274.71338 -79.983498 2.3509886e-038
25.616163 274.63678 -79.961197 2.3509886e-038
30.936762 277.49295 -80.792778 2.3509886e-038
37.406231 288.40479 -83.969788 2.3509886e-038
39.077656 292.33755 -85.114822 2.3509886e-038
-47.491566 290.96179 -90.013786 2.3509886e-038
-46.89201 289.95749 -89.703087 2.3509886e-038
-40.199493 280.12314 -86.660675 2.3509886e-038
-34.413208 274.66248 -84.971321 2.3509886e-038
-29.136591 272.10388 -84.179779 2.3509886e-038
-24.11396 271.35455 -83.947968 2.3509886e-038
-19.188734 271.59753 -84.023132 2.3509886e-038
-14.304939 272.79984 -84.395096 2.3509886e-038
-9.4003668 274.67413 -84.974937 2.3509886e-038
-4.4333849 276.91492 -85.668159 2.3509886e-038
0.61394429 278.57544 -86.18187 2.3509886e-038
5.6937842 278.86569 -86.27166 2.3509886e-038
10.763538 278.62064 -86.195847 2.3509886e-038
15.804441 278.02545 -86.011719 2.3509886e-038
20.829834 277.51245 -85.85302 2.3509886e-038
25.971487 278.44629 -86.141907 2.3509886e-038
31.759962 284.87677 -88.131287 2.3509886e-038
39.369431 303.5412 -93.905426 2.3509886e-038
39.540115 304.02673 -94.055641 2.3509886e-038
-40.009441 285.7493 -93.605789 2.3509886e-038
-35.091957 280.07977 -91.748573 2.3509886e-038
-29.563147 276.08743 -90.440758 2.3509886e-038
-24.382769 274.37946 -89.881256 2.3509886e-038
-19.363459 274.07062 -89.780083 2.3509886e-038
-14.421939 275.03107 -90.094711 2.3509886e-038
-9.4773426 276.92334 -90.714584 2.3509886e-038
-4.4724703 279.35623 -91.511559 2.3509886e-038
0.62047279 281.53772 -92.226158 2.3509886e-038
5.7704029 282.61826 -92.580124 2.3509886e-038
10.92845 282.88947 -92.668968 2.3509886e-038
16.067913 282.66034 -92.59391 2.3509886e-038
21.244871 283.04193 -92.71891 2.3509886e-038
26.739851 286.68408 -93.91201 2.3509886e-038
33.267746 298.40115 -97.750282 2.3509886e-038
38.322914 311.50156 -102.04172 2.3509886e-038
-30.400091 283.25839 -97.94902 2.3509886e-038
-30.324949 283.20184 -97.929474 2.3509886e-038
-24.873999 279.90726 -96.790222 2.3509886e-038
-19.697609 278.80017 -96.407402 2.3509886e-038
-14.671377 279.78793 -96.748962 2.3509886e-038
-9.6411486 281.70966 -97.413475 2.3509886e-038
-4.5560856 284.57895 -98.40567 2.3509886e-038
0.63374025 287.5578 -99.435738 2.3509886e-038
5.9259295 290.23553 -100.36167 2.3509886e-038
11.25851 291.43329 -100.77586 2.3509886e-038
16.59886 292.00055 -100.97202 2.3509886e-038
22.121483 294.72089 -101.91268 2.3509886e-038
28.216539 302.51602 -104.60819 2.3509886e-038
33.758289 314.05399 -108.59795 2.3509886e-038
-15.745912 289.01907 -105.20516 2.3509886e-038
-15.167226 289.24393 -105.28702 2.3509886e-038
-9.9734535 291.41943 -106.07892 2.3509886e-038
-4.7107439 294.23911 -107.10529 2.3509886e-038
0.65434575 296.90747 -108.0766 2.3509886e-038
6.1388946 300.66595 -109.44472 2.3509886e-038
9.9389362 302.40024 -110.07601 2.3509886e-038
-92.970421 270.37424 -19.111864 3.5733111e-043
-92.2575 268.30093 -32.152699 3.5733111e-043
-87.442368 268.52097 -18.799721 3.5733111e-043
-87.279976 268.02228 -38.073936 3.5733111e-043
-82.072266 266.96185 -20.46244 3.5733111e-043
-84.013931 273.27765 -43.96064 3.5733111e-043
-77.450554 267.79401 -23.372433 3.5733111e-043
-80.463989 278.21332 -49.701946 3.5733111e-043
-73.399658 270.84433 -27.202011 3.5733111e-043
-76.784096 283.33292 -55.726189 3.5733111e-043
-69.170807 273.63028 -31.651125 2.3509886e-038
-72.450539 286.60446 -61.957031 3.5733111e-043
-61.169647 260.7674 52.907192 2.3509528e-038
-61.256584 261.13803 50.499794 2.3509528e-038
-64.709328 275.85712 -36.258404 2.3509886e-038
-67.752701 288.83112 -68.530525 3.5733111e-043
-55.777035 257.79532 60.396114 2.3509528e-038
-56.593178 261.56744 28.004679 2.3509886e-038
-60.141129 277.96567 -40.21233 2.3509886e-038
-62.200085 287.48193 -74.297783 2.3509886e-038
-50.570667 255.21678 55.263748 2.3509528e-038
-53.059769 267.77859 15.40891 2.3509528e-038
-56.178711 283.5191 -42.702774 2.3509886e-038
-57.407188 289.7189 -80.440086 2.3509886e-038
-46.44529 258.12387 46.365482 2.3509528e-038
-48.930344 271.93478 2.8469675 2.3509886e-038
-52.403851 291.23911 -42.483551 2.3509886e-038
-52.416298 291.30829 -85.904289 2.3509886e-038
-41.971764 259.53305 34.945023 2.3509528e-038
-47.017338 290.73248 -90.306572 2.3509886e-038
-37.702072 262.72031 22.188448 2.3509528e-038
-41.097652 286.38181 -93.08902 2.3509886e-038
-33.717766 269.11194 9.5251656 2.3509528e-038
-35.588909 284.04611 -95.693855 2.3509886e-038
-28.863152 269.55026 3.3949039 2.3509528e-038
-30.330721 283.25577 -97.979485 2.3509886e-038
-24.192415 272.23743 2.5969551 2.3509886e-038
-25.135433 282.84918 -99.871429 2.3509886e-038
-18.102644 256.22501 74.025986 2.3418409e-038
-18.92054 267.80151 21.624792 2.3418409e-038
-19.517017 276.24408 8.6094847 2.3509886e-038
-20.096973 284.45276 -102.19337 2.3509886e-038
-13.320112 254.01888 75.392723 2.3418409e-038
-15.185308 289.58875 -105.55322 2.3509886e-038
-8.7480984 255.61517 67.603195 2.3418409e-038
-10.072438 294.31174 -108.284 2.3509886e-038
-4.1861734 261.47379 25.730932 2.3509886e-038
-4.7676444 297.79318 -109.83926 2.3509886e-038
0.59389842 269.47971 7.2703609 2.3509886e-038
0.65907663 299.05411 -109.80363 2.3509886e-038
5.502286 269.48663 13.546199 2.3509886e-038
6.1527772 301.34586 -110.00564 2.3509886e-038
10.01242 259.17752 36.052536 2.3418052e-038
11.692382 302.66431 -110.05803 2.3509886e-038
14.421419 253.69588 59.60796 2.3418052e-038
17.271749 303.83774 -110.11041 2.3509886e-038
18.911608 251.95625 64.967491 2.3418052e-038
23.111902 307.91608 -110.83805 2.3509886e-038
23.234262 249.09988 62.088978 2.3418052e-038
23.55562 252.54521 27.196283 2.3418052e-038
24.373068 261.30927 -6.7706022 2.3509886e-038
29.10906 312.08493 -110.59587 2.3509886e-038
29.221701 262.10938 -6.5814581 2.3509886e-038
35.002678 313.96292 -107.48106 2.3509886e-038
34.074879 262.71985 -3.4918263 9.1476764e-041
39.551235 304.94293 -94.801735 2.3509886e-038
38.229633 258.45807 1.0722944 9.1476764e-041
39.689274 268.32623 -35.214653 2.3509886e-038
42.116558 253.51868 6.0849671 9.1476764e-041
43.263226 260.42102 -18.713247 9.1476764e-041
46.552017 252.53087 11.438989 9.1476764e-041
47.121204 255.61855 -10.914817 9.1476764e-041
50.85495 251.06653 17.59742 9.1476764e-041
50.468239 249.15736 -3.8831487 9.1476764e-041
55.223831 250.14252 23.787502 9.1476764e-041
54.724998 247.88301 3.2302849 9.1476764e-041
59.238319 247.87643 27.570948 9.1476764e-041
58.964233 246.72955 10.380573 9.1476764e-041
63.51556 246.95291 27.051683 9.1476764e-041
63.480839 246.8179 20.026657 9.1476764e-041
