# .PCD v0.7 - Point Cloud Data file format
VERSION 0.7
FIELDS x y z rgb
SIZE 4 4 4 4
TYPE F F F F
COUNT 1 1 1 1
WIDTH 627
HEIGHT 1
VIEWPOINT 0 0 0 1 0 0 0
POINTS 627
DATA ascii
25.678038 194.71931 18.341455 2.3418052e-038
63.347683 213.49879 -18.09934 9.1476764e-041
-91.053627 254.38347 -31.149923 3.5733111e-043
-53.029495 194.13092 19.200335 2.3509528e-038
-12.347735 187.2684 32.633297 2.3418409e-038
-17.775257 187.70219 35.152901 2.3418409e-038
-14.430313 186.71011 34.967106 2.3418409e-038
-10.865141 184.4987 34.552952 2.3418409e-038
-8.960886 184.22566 34.501812 2.3418409e-038
-18.847933 189.29506 31.968719 2.3418409e-038
-18.117662 189.34821 31.977697 2.3418409e-038
-14.584324 188.70284 31.868708 2.3418409e-038
-10.995053 186.70473 31.53126 2.3418409e-038
-7.5953946 187.57326 31.677938 2.3418409e-038
-7.3991528 187.76544 31.710394 2.3418409e-038
-19.230396 191.19736 28.772509 2.3418409e-038
-18.321716 191.48079 28.815161 2.3418409e-038
-14.780891 191.24617 28.779856 2.3418409e-038
-11.149075 189.32013 28.490015 2.3418409e-038
-7.7279139 190.8459 28.719622 2.3418409e-038
-6.5144658 192.54823 28.975798 2.3418409e-038
-19.557039 194.54425 25.697111 2.3418409e-038
-18.641565 194.82352 25.733997 2.3418409e-038
-15.046689 194.68526 25.715734 2.3418409e-038
-11.341439 192.58662 25.43853 2.3418409e-038
-7.8625894 194.1718 25.647915 2.3418409e-038
-6.0321789 197.04114 26.026922 2.3418409e-038
-56.99741 191.98035 21.826555 2.3509528e-038
-53.655888 191.86409 21.813337 2.3509528e-038
-50.308224 192.56104 21.892574 2.3509528e-038
-48.5285 193.56299 22.006487 2.3509528e-038
-19.795765 198.87381 22.610285 2.3418409e-038
-19.040453 198.99231 22.623756 2.3418409e-038
-15.364713 198.80008 22.601902 2.3418409e-038
-11.585909 196.73792 22.367451 2.3418409e-038
-8.0218143 198.10396 22.522758 2.3418409e-038
-5.6856976 201.59622 22.919798 2.3418409e-038
21.962048 194.56081 22.119932 2.3418052e-038
24.085703 192.56041 21.892504 2.3418052e-038
27.606379 192.40791 21.875166 2.3418052e-038
29.414215 193.49294 21.998524 2.3418052e-038
-57.957932 194.15067 18.501492 2.3509528e-038
-57.864922 194.14314 18.500774 2.3509528e-038
-54.329544 194.27295 18.513145 2.3509528e-038
-50.893871 194.80267 18.563625 2.3509528e-038
-47.600903 196.00023 18.677746 2.3509528e-038
-46.200413 197.17024 18.789242 2.3509528e-038
-19.929167 204.99077 19.534494 2.3418409e-038
-19.613272 204.97885 19.533358 2.3418409e-038
-15.730645 203.53477 19.395746 2.3418409e-038
-11.83514 200.97005 19.15134 2.3418409e-038
-8.1752033 201.892 19.239199 2.3418409e-038
-5.1607924 205.6947 19.601576 2.3418409e-038
19.832552 198.65105 18.930353 2.3418052e-038
21.06671 197.468 18.817616 2.3418052e-038
24.338699 194.58305 18.542696 2.3418052e-038
27.880819 194.32066 18.517693 2.3418052e-038
30.640289 195.7511 18.654003 2.3418052e-038
-58.576378 198.63719 15.274673 2.3509528e-038
-55.370186 197.99411 15.225224 2.3509528e-038
-51.672981 197.78479 15.209127 2.3509528e-038
-48.131523 198.18509 15.239908 2.3509528e-038
-44.952404 200.26526 15.399869 2.3509528e-038
-44.609634 200.68939 15.432483 2.3509528e-038
-19.90913 210.85091 16.213877 2.3418409e-038
-16.082975 208.09351 16.001839 2.3418409e-038
-12.059545 204.78061 15.747087 2.3418409e-038
-8.309041 205.19724 15.779124 2.3418409e-038
-4.6053696 208.427 16.027485 2.3418409e-038
-4.4813342 208.5972 16.040573 2.3418409e-038
18.273653 200.17401 15.392851 2.3418052e-038
21.23056 199.00385 15.302869 2.3418052e-038
24.636621 196.96487 15.146077 2.3418052e-038
28.136681 196.10393 15.079874 2.3418052e-038
30.408978 196.28795 15.094023 2.3418052e-038
-58.563202 203.02762 11.877157 2.3509528e-038
-56.725269 202.83966 11.86616 2.3509528e-038
-52.747425 201.89737 11.811037 2.3509528e-038
-48.967304 201.6265 11.79519 2.3509528e-038
-45.707001 203.62703 11.912222 2.3509528e-038
-43.408142 205.90382 12.045415 2.3509528e-038
-19.806171 214.77509 12.564385 2.3418409e-038
-16.359915 211.67673 12.383131 2.3418409e-038
-12.261166 208.2043 12.179993 2.3418409e-038
-8.4472399 208.61014 12.203734 2.3418409e-038
-4.6622949 211.00328 12.343734 2.3418409e-038
-3.8058169 211.82935 12.392059 2.3418409e-038
17.106022 202.35481 11.837797 2.3418052e-038
17.825083 201.89931 11.811151 2.3418052e-038
21.404316 200.63254 11.737044 2.3418052e-038
24.952112 199.48717 11.670039 2.3418052e-038
28.528271 198.83319 11.631783 2.3418052e-038
29.99139 198.87105 11.633996 2.3418052e-038
-58.22921 207.67282 8.3283215 2.3509528e-038
-58.060654 207.61475 8.3259935 2.3509528e-038
-53.712551 205.59152 8.244854 2.3509528e-038
-49.731232 204.77202 8.2119904 2.3509528e-038
-46.346859 206.47763 8.2803907 2.3509528e-038
-43.056187 208.94246 8.3792381 2.3509528e-038
-41.827106 210.84474 8.4555254 2.3509528e-038
-19.944544 219.02409 8.7835426 2.3418409e-038
-16.645733 215.37488 8.6371975 2.3418409e-038
-12.452639 211.45567 8.4800253 2.3418409e-038
-8.5818806 211.93518 8.4992552 2.3418409e-038
-4.7313242 214.12737 8.5871687 2.3418409e-038
-3.1554282 215.71953 8.6510191 2.3418409e-038
16.11549 206.45248 8.2793827 2.3418052e-038
18.0553 204.5069 8.2013588 2.3418052e-038
21.643244 202.87213 8.1357994 2.3418052e-038
25.315231 202.39024 8.1164732 2.3418052e-038
29.097307 202.79919 8.1328745 2.3418052e-038
29.479351 203.07037 8.1437492 2.3418052e-038
-57.017189 210.40814 4.5671062 2.3509528e-038
-54.503174 208.61772 4.5282435 2.3509528e-038
-50.436619 207.6765 4.507813 2.3509528e-038
-46.972618 209.26541 4.5423021 2.3509528e-038
-43.59795 211.57153 4.5923586 2.3509528e-038
-40.486839 215.73416 4.6827121 2.3509528e-038
-40.041912 216.54443 4.7003002 2.3509528e-038
-20.247747 223.68852 4.8553691 2.3418409e-038
-16.989378 219.82121 4.7714257 2.3418409e-038
-12.675923 215.24722 4.672143 2.3418409e-038
-8.7217083 215.38831 4.6752052 2.3418409e-038
-4.8064008 217.52515 4.7215877 2.3418409e-038
-2.6581149 219.79677 4.770895 2.3418409e-038
14.895965 211.09273 4.5819654 2.3418052e-038
18.287769 207.14001 4.4961681 2.3418052e-038
21.980356 206.03204 4.4721189 2.3418052e-038
25.869385 206.82057 4.4892344 2.3418052e-038
28.696983 207.83992 4.5113606 2.3418052e-038
-54.728638 210.39572 0.69615495 2.3509528e-038
-51.257904 211.0582 0.69834691 2.3509528e-038
-47.768127 212.80945 0.70414138 2.3509528e-038
-44.155167 214.27559 0.7089926 2.3509528e-038
-40.804913 217.429 0.71942657 2.3509528e-038
-38.079868 221.00885 0.73127151 2.3509528e-038
-20.45846 228.64859 0.75654984 2.3418409e-038
-17.363504 224.66193 0.74335879 2.3418409e-038
-12.929989 219.56146 0.72648245 2.3418409e-038
-8.8854361 219.43167 0.72605294 2.3418409e-038
-4.8955765 221.561 0.73309851 2.3418409e-038
-2.5331199 223.76036 0.7403757 2.3418409e-038
13.277584 215.62012 0.71344137 2.3418052e-038
14.920422 213.48476 0.7063759 2.3418052e-038
18.50148 209.56067 0.69339192 2.3418052e-038
22.317488 209.19212 0.69217253 2.3418052e-038
26.445425 211.4259 0.69956356 2.3418052e-038
27.77947 212.29021 0.70242339 2.3418052e-038
-53.607822 215.51079 -3.2516968 2.3509528e-038
-52.496353 216.15761 -3.2614565 2.3509528e-038
-48.706379 216.98941 -3.2740068 2.3509528e-038
-44.713676 216.98592 -3.2739539 2.3509528e-038
-41.169567 219.37209 -3.3099573 2.3509528e-038
-37.890465 223.84247 -3.377408 2.3509886e-038
-36.481159 226.71059 -3.4206831 2.3509886e-038
-20.417488 233.67319 -3.525737 2.3509886e-038
-17.755257 229.73071 -3.4662519 2.3418409e-038
-13.201272 224.16806 -3.3823206 2.3418409e-038
-9.0745583 224.10219 -3.3813267 2.3418409e-038
-4.9983449 226.21202 -3.4131606 2.3418409e-038
-2.7983716 227.9364 -3.4391787 2.3418409e-038
11.390754 219.66171 -3.3143275 2.3509886e-038
15.053015 215.38193 -3.2497525 2.3418052e-038
18.734402 212.19888 -3.201726 2.3418052e-038
22.676321 212.55563 -3.2071085 2.3418052e-038
26.928429 216.19693 -3.2620494 2.3418052e-038
-52.862404 222.58176 -7.4532561 2.3509528e-038
-49.723663 221.52147 -7.4177518 2.3509528e-038
-45.489235 220.74954 -7.3919034 2.3509528e-038
-41.811977 222.79515 -7.4604015 2.3509528e-038
-38.405437 226.88474 -7.5973434 2.3509528e-038
-35.09528 232.61041 -7.7890706 2.3509886e-038
-34.749458 233.34291 -7.8135991 2.3509886e-038
-20.32328 238.80756 -7.9965854 2.3509886e-038
-18.212078 235.6414 -7.8905644 2.3509886e-038
-13.541528 229.94588 -7.6998472 2.3418409e-038
-9.2937126 229.51433 -7.6853967 2.3418409e-038
-5.1085916 231.20151 -7.7418928 2.3418409e-038
-3.1162965 232.47447 -7.7845182 2.3509886e-038
9.5721283 223.5824 -7.486763 2.3418052e-038
11.398321 221.35773 -7.4122691 2.3418052e-038
15.205366 217.5618 -7.2851605 2.3418052e-038
19.018623 215.41818 -7.2133808 2.3418052e-038
23.057156 216.12537 -7.237061 2.3418052e-038
26.043663 218.38132 -7.3126025 2.3418052e-038
-51.233047 226.5125 -11.752063 2.3509528e-038
-50.801632 226.32387 -11.742276 2.3509528e-038
-46.639282 226.33046 -11.742618 2.3509528e-038
-42.878101 228.476 -11.853934 2.3509528e-038
-39.10532 231.01936 -11.98589 2.3509528e-038
-35.445564 234.93211 -12.188894 2.3509886e-038
-31.927019 239.84833 -12.44396 2.3509886e-038
-20.996468 244.18588 -12.669004 2.3509886e-038
-18.662365 241.46756 -12.52797 2.3509886e-038
-13.927974 236.50803 -12.270658 2.3509886e-038
-9.5336113 235.43878 -12.215182 2.3509886e-038
-5.2297091 236.68298 -12.279734 2.3509886e-038
-2.6287029 238.55327 -12.376769 2.3509886e-038
7.6093006 230.04637 -11.93541 2.3509886e-038
7.6133003 230.03983 -11.935069 2.3509886e-038
11.546853 224.24225 -11.634277 2.3418052e-038
15.400768 220.35765 -11.432734 2.3418052e-038
19.302855 218.63759 -11.343493 2.3418052e-038
23.371925 219.07584 -11.366229 2.3418052e-038
24.85479 219.73213 -11.40028 2.3418052e-038
-50.033096 232.89294 -16.367655 2.3509528e-038
-48.248394 234.13914 -16.455238 2.3509528e-038
-44.186539 235.44801 -16.547226 2.3509528e-038
-39.921143 235.83894 -16.574699 2.3509528e-038
-35.9314 238.15221 -16.737274 2.3509886e-038
-31.956322 241.21863 -16.952784 2.3509886e-038
-27.868763 244.28824 -17.168514 2.3509886e-038
-23.53886 246.00528 -17.289188 2.3509886e-038
-18.889509 244.40652 -17.176826 2.3509886e-038
-14.23381 241.70139 -16.986712 2.3509886e-038
-9.7396107 240.52606 -16.90411 2.3509886e-038
-5.320394 240.78714 -16.922457 2.3509886e-038
-0.89624 242.31519 -17.029848 2.3509886e-038
1.977881 241.6572 -16.983604 2.3509886e-038
2.5001972 241.30508 -16.958858 2.3509886e-038
3.5339684 240.4312 -16.897442 2.3509886e-038
7.7775693 235.0033 -16.51597 2.3509886e-038
11.779077 228.75208 -16.076635 2.3418052e-038
15.685758 224.43533 -15.773257 2.3418052e-038
19.631762 222.36302 -15.627615 2.3418052e-038
23.135937 221.85089 -15.591622 2.3418052e-038
61.736065 212.94769 -14.965909 9.1476764e-041
61.86441 212.84444 -14.958651 9.1476764e-041
65.073547 210.55814 -14.797971 9.1476764e-041
65.301422 210.42345 -14.788505 9.1476764e-041
-50.100128 245.57845 -21.777122 2.3509886e-038
-45.736614 243.70758 -21.611221 2.3509886e-038
-40.990658 242.15724 -21.473742 2.3509886e-038
-36.633282 242.80426 -21.531118 2.3509886e-038
-32.340607 244.11935 -21.647736 2.3509886e-038
-28.04352 245.82008 -21.798553 2.3509886e-038
-23.628939 246.9467 -21.898458 2.3509886e-038
-19.092575 247.03394 -21.906193 2.3509886e-038
-14.482752 245.9286 -21.808176 2.3509886e-038
-9.9082689 244.69121 -21.698446 2.3509886e-038
-5.3892679 243.90419 -21.628656 2.3509886e-038
-0.90140384 243.71133 -21.611555 2.3509886e-038
3.5724604 243.04999 -21.55291 2.3509886e-038
7.9523735 240.28508 -21.307726 2.3509886e-038
12.133909 235.64302 -20.89608 2.3509886e-038
16.213917 231.99236 -20.572351 2.3418052e-038
20.285351 229.76602 -20.374928 2.3418052e-038
21.586582 229.06412 -20.312685 2.3418052e-038
53.487892 222.11104 -19.696108 9.1476764e-041
55.818272 219.87711 -19.498011 9.1476764e-041
58.961262 216.56366 -19.204184 9.1476764e-041
62.215622 214.05278 -18.981527 9.1476764e-041
65.695374 212.57018 -18.850054 9.1476764e-041
66.693588 212.37679 -18.832905 9.1476764e-041
-98.963326 258.44452 -27.672699 3.5733111e-043
-94.735023 254.90976 -27.294216 3.5733111e-043
-89.017296 251.99925 -26.982578 3.5733111e-043
-84.642555 252.77969 -27.066141 3.5733111e-043
-80.717697 254.53636 -27.254234 3.5733111e-043
-50.053852 256.54028 -27.468805 2.3509886e-038
-47.696609 254.1514 -27.213017 2.3509886e-038
-42.336403 250.10741 -26.78001 2.3509886e-038
-37.466324 248.32565 -26.58923 2.3509886e-038
-32.840881 247.89563 -26.543184 2.3509886e-038
-28.412788 249.05698 -26.667538 2.3509886e-038
-23.98255 250.6423 -26.837284 2.3509886e-038
-19.442356 251.55965 -26.935507 2.3509886e-038
-14.793794 251.21033 -26.898106 2.3509886e-038
-10.124632 250.03442 -26.772196 2.3509886e-038
-5.4964447 248.75473 -26.635172 2.3509886e-038
-0.91744345 248.04794 -26.559494 2.3509886e-038
3.6386657 247.55421 -26.506628 2.3509886e-038
8.1451292 246.10931 -26.351917 2.3509886e-038
12.525537 243.24849 -26.045599 2.3509886e-038
16.8249 240.73442 -25.776407 9.1476764e-041
20.885363 239.74843 -25.670832 9.1476764e-041
45.39996 228.85254 -24.504166 9.1476764e-041
45.455772 228.8006 -24.498604 9.1476764e-041
49.028988 225.87038 -24.184853 9.1476764e-041
52.6437 223.5742 -23.938993 9.1476764e-041
56.135864 221.12814 -23.677084 9.1476764e-041
59.398773 218.17062 -23.360411 9.1476764e-041
62.812737 216.10715 -23.139463 9.1476764e-041
64.747108 216.09174 -23.137815 9.1476764e-041
-100.77012 260.79578 -32.722347 3.5733111e-043
-95.153046 256.03455 -32.12495 3.5733111e-043
-89.204041 252.52792 -31.684973 3.5733111e-043
-84.823608 253.32039 -31.784405 3.5733111e-043
-80.801956 255.33876 -32.037651 3.5733111e-043
-76.731499 257.44257 -32.301617 3.5733111e-043
-73.507782 259.95026 -32.616257 3.5733111e-043
-50.11433 263.73782 -33.091492 2.3509886e-038
-49.324493 262.82562 -32.977032 2.3509886e-038
-43.549229 257.27231 -32.280254 2.3509886e-038
-38.279469 253.71516 -31.833935 2.3509886e-038
-33.417294 252.24658 -31.649672 2.3509886e-038
-28.921059 253.5123 -31.808481 2.3509886e-038
-24.461649 255.64938 -32.076626 2.3509886e-038
-19.839008 256.69183 -32.20742 2.3509886e-038
-15.119535 256.7417 -32.21368 2.3509886e-038
-10.371654 256.13477 -32.137527 2.3509886e-038
-5.6329794 254.93393 -31.986855 2.3509886e-038
-0.93978459 254.08829 -31.880751 2.3509886e-038
3.7188206 253.00751 -31.745144 2.3509886e-038
8.312933 251.17958 -31.515793 2.3509886e-038
12.810803 248.78842 -31.215773 2.3509886e-038
17.239647 246.66875 -30.949812 9.1476764e-041
21.696356 245.74806 -30.834293 9.1476764e-041
22.296425 245.7204 -30.830822 9.1476764e-041
36.345474 238.99358 -29.986801 9.1476764e-041
38.382309 237.11003 -29.750469 9.1476764e-041
42.125614 233.67717 -29.319744 9.1476764e-041
45.822258 230.64529 -28.939333 9.1476764e-041
49.520283 228.13371 -28.624201 9.1476764e-041
53.146263 225.70854 -28.319912 9.1476764e-041
56.638496 223.10811 -27.993635 9.1476764e-041
60.152157 220.93781 -27.721323 9.1476764e-041
60.751591 220.76497 -27.699636 9.1476764e-041
-98.299431 259.85071 -37.38427 3.5733111e-043
-95.800598 257.77698 -37.08593 3.5733111e-043
-89.943382 254.62091 -36.63187 3.5733111e-043
-85.405266 255.05748 -36.694679 3.5733111e-043
-81.195221 256.58148 -36.913937 3.5733111e-043
-77.211945 259.0545 -37.269722 3.5733111e-043
-73.431396 262.57782 -37.776619 3.5733111e-043
-69.730812 266.90341 -38.39893 3.5733111e-043
-68.507439 268.6524 -38.650558 3.5733111e-043
-52.259007 271.49274 -39.059193 3.5733111e-043
-50.65527 269.91663 -38.832436 3.5733111e-043
-44.703583 264.0918 -37.994431 2.3509886e-038
-39.136101 259.39285 -37.318401 2.3509886e-038
-34.120106 257.5517 -37.053516 2.3509886e-038
-29.499481 258.58255 -37.201824 2.3509886e-038
-24.918343 260.4223 -37.466503 2.3509886e-038
-20.186035 261.18192 -37.57579 2.3509886e-038
-15.396992 261.45313 -37.614807 2.3509886e-038
-10.591923 261.57446 -37.632267 2.3509886e-038
-5.7606091 260.71011 -37.507915 2.3509886e-038
-0.96044576 259.67444 -37.35891 2.3509886e-038
3.792738 258.03644 -37.123257 2.3509886e-038
8.4647827 255.76779 -36.796867 2.3509886e-038
13.045287 253.34215 -36.447899 2.3509886e-038
17.543343 251.01408 -36.112961 9.1476764e-041
21.995657 249.13815 -35.843075 9.1476764e-041
26.393175 247.39543 -35.59235 9.1476764e-041
30.713612 245.54921 -35.32674 9.1476764e-041
34.954792 243.62405 -35.04977 9.1476764e-041
39.040215 241.1743 -34.697327 9.1476764e-041
42.930729 238.14326 -34.261261 9.1476764e-041
46.694893 235.03767 -33.814465 9.1476764e-041
50.301785 231.73398 -33.339165 9.1476764e-041
53.787926 228.43364 -32.864349 9.1476764e-041
55.491055 227.40706 -32.71666 9.1476764e-041
-92.797249 258.44962 -41.937443 3.5733111e-043
-91.301468 258.46552 -41.940025 3.5733111e-043
-86.642128 258.75131 -41.986397 3.5733111e-043
-82.042923 259.26028 -42.068989 3.5733111e-043
-77.957275 261.55518 -42.441368 3.5733111e-043
-74.060913 264.82886 -42.972576 3.5733111e-043
-70.060699 268.16611 -43.514091 3.5733111e-043
-65.941345 271.51837 -44.058052 3.5733111e-043
-61.63147 274.57135 -44.553444 3.5733111e-043
-56.835533 275.8107 -44.754547 3.5733111e-043
-51.45808 274.19443 -44.492283 3.5733111e-043
-45.700386 269.98053 -43.80851 3.5733111e-043
-40.075302 265.61789 -43.100601 2.3509886e-038
-34.913742 263.54236 -42.763817 2.3509886e-038
-30.06743 263.561 -42.766846 2.3509886e-038
-25.325127 264.67361 -42.947384 2.3509886e-038
-20.513433 265.41806 -43.068176 2.3509886e-038
-15.657824 265.88226 -43.143505 2.3509886e-038
-10.798411 266.67386 -43.271954 2.3509886e-038
-5.8886714 266.50589 -43.244701 2.3509886e-038
-0.98160249 265.39453 -43.064362 2.3509886e-038
3.8753216 263.65494 -42.782085 2.3509886e-038
8.6536903 261.47574 -42.428478 2.3509886e-038
13.333403 258.93741 -42.016594 2.3509886e-038
17.91291 256.30197 -41.588955 2.3509886e-038
22.415844 253.89749 -41.198792 9.1476764e-041
26.882952 251.98633 -40.888676 9.1476764e-041
31.401615 251.04967 -40.736687 9.1476764e-041
36.038239 251.17534 -40.75708 9.1476764e-041
40.488461 250.12097 -40.585991 9.1476764e-041
44.511726 246.91331 -40.065502 2.3509886e-038
48.39296 243.58485 -39.525406 9.1476764e-041
48.548965 243.4503 -39.503571 9.1476764e-041
-86.495056 263.98233 -47.691727 3.5733111e-043
-83.623245 264.25418 -47.740841 3.5733111e-043
-79.353546 266.23981 -48.099571 3.5733111e-043
-75.08252 268.48196 -48.504642 3.5733111e-043
-70.713379 270.66431 -48.898911 3.5733111e-043
-66.24128 272.75336 -49.276321 3.5733111e-043
-61.673767 274.7598 -49.638813 3.5733111e-043
-56.847359 275.8681 -49.839039 3.5733111e-043
-51.736763 275.67938 -49.804943 3.5733111e-043
-46.32822 273.68954 -49.445457 3.5733111e-043
-40.903786 271.10901 -48.979252 2.3509886e-038
-35.68549 269.36783 -48.66468 2.3509886e-038
-30.643185 268.60788 -48.52739 2.3509886e-038
-25.724396 268.84641 -48.57048 2.3509886e-038
-20.822575 269.41797 -48.673744 2.3509886e-038
-15.902156 270.03122 -48.784534 2.3509886e-038
-10.991521 271.44284 -49.039562 2.3509886e-038
-6.0167923 272.30429 -49.195198 2.3509886e-038
-1.0045079 271.58743 -49.065681 2.3509886e-038
3.9684005 269.98749 -48.776634 2.3509886e-038
8.8633499 267.81073 -48.383377 2.3509886e-038
13.651084 265.10684 -47.894886 2.3509886e-038
18.324961 262.19763 -47.369301 2.3509886e-038
22.920195 259.61011 -46.901833 2.3509886e-038
27.505838 257.82492 -46.579315 2.3509886e-038
32.240219 257.75415 -46.566528 2.3509886e-038
37.454933 261.04926 -47.161831 2.3509886e-038
42.280399 265.33975 -47.936966 2.3509886e-038
-78.531418 274.7724 -54.696106 3.5733111e-043
-76.974609 275.24774 -54.79073 3.5733111e-043
-72.242409 276.51685 -55.043358 3.5733111e-043
-67.218712 276.77802 -55.095341 3.5733111e-043
-62.186054 277.04205 -55.147903 3.5733111e-043
-57.096195 277.07562 -55.154583 3.5733111e-043
-51.924335 276.67886 -55.075603 3.5733111e-043
-46.666935 275.69052 -54.878868 3.5733111e-043
-41.419762 274.52893 -54.64764 2.3509886e-038
-36.238892 273.54507 -54.451797 2.3509886e-038
-31.138523 272.94986 -54.333309 2.3509886e-038
-26.079277 272.55527 -54.254765 2.3509886e-038
-21.093321 272.92105 -54.327576 2.3509886e-038
-16.132048 273.93497 -54.529408 2.3509886e-038
-11.170774 275.8696 -54.914516 2.3509886e-038
-6.1316571 277.50278 -55.239613 2.3509886e-038
-1.0262184 277.45728 -55.230553 2.3509886e-038
4.0602884 276.23904 -54.988052 2.3509886e-038
9.0760422 274.23734 -54.589596 2.3509886e-038
13.998054 271.84506 -54.113392 2.3509886e-038
18.800819 269.00635 -53.548317 2.3509886e-038
23.511482 266.30743 -53.011074 2.3509886e-038
28.213747 264.46048 -52.643417 2.3509886e-038
33.117664 264.76913 -52.704861 2.3509886e-038
37.685322 268.56354 -53.460175 2.3509886e-038
-72.497734 283.66168 -61.684181 2.3509886e-038
-68.517258 282.12488 -61.349991 2.3509886e-038
-63.00264 280.67996 -61.035786 2.3509886e-038
-57.549065 279.27332 -60.729897 2.3509886e-038
-52.166351 277.96844 -60.446144 2.3509886e-038
-46.887817 276.99542 -60.234554 2.3509886e-038
-41.663303 276.1431 -60.049213 2.3509886e-038
-36.499146 275.50958 -59.911453 2.3509886e-038
-31.4245 275.45663 -59.899937 2.3509886e-038
-26.344557 275.3277 -59.871902 2.3509886e-038
-21.356031 276.32022 -60.08773 2.3509886e-038
-16.381468 278.17032 -60.490047 2.3509886e-038
-11.355966 280.44302 -60.984257 2.3509886e-038
-6.2381568 282.32266 -61.393005 2.3509886e-038
-1.046075 282.8259 -61.50243 2.3509886e-038
4.1472211 282.15344 -61.356197 2.3509886e-038
9.2810001 280.43024 -60.98148 2.3509886e-038
14.327633 278.24557 -60.506409 2.3509886e-038
19.269413 275.71109 -59.955269 2.3509886e-038
24.130074 273.31406 -59.434017 2.3509886e-038
29.056767 272.36249 -59.227093 2.3509886e-038
34.337692 274.52301 -59.696915 2.3509886e-038
35.226738 275.39569 -59.886684 2.3509886e-038
-66.358864 287.39398 -67.78302 2.3509886e-038
-64.280319 286.3721 -67.542 2.3509886e-038
-58.292118 282.87918 -66.718185 2.3509886e-038
-52.548119 280.00269 -66.039749 2.3509886e-038
-47.147976 278.53232 -65.692963 2.3509886e-038
-41.860069 277.44727 -65.437042 2.3509886e-038
-36.669609 276.79633 -65.283516 2.3509886e-038
-31.594515 276.94693 -65.319038 2.3509886e-038
-26.542564 277.39709 -65.425209 2.3509886e-038
-21.578871 279.20346 -65.85125 2.3509886e-038
-16.591743 281.74094 -66.449722 2.3509886e-038
-11.508304 284.20511 -67.030907 2.3509886e-038
-6.3264866 286.32025 -67.52977 2.3509886e-038
-1.0631958 287.4548 -67.797363 2.3509886e-038
4.224369 287.40216 -67.784943 2.3509886e-038
9.4688339 286.10571 -67.479179 2.3509886e-038
14.630191 284.12131 -67.011139 2.3509886e-038
19.708956 282.00015 -66.510864 2.3509886e-038
24.808624 280.99979 -66.274918 2.3509886e-038
30.236528 283.42096 -66.845963 2.3509886e-038
33.414879 287.01508 -67.693649 2.3509886e-038
-59.819115 289.14932 -73.516533 2.3509886e-038
-59.533951 288.90552 -73.454544 2.3509886e-038
-53.387348 284.47452 -72.327957 2.3509886e-038
-47.6782 281.6647 -71.613556 2.3509886e-038
-42.237495 279.94879 -71.177292 2.3509886e-038
-36.998386 279.27808 -71.006752 2.3509886e-038
-31.861238 279.28491 -71.008499 2.3509886e-038
-26.782192 279.90146 -71.165245 2.3509886e-038
-21.78714 281.89822 -71.672928 2.3509886e-038
-16.763224 284.6528 -72.373283 2.3509886e-038
-11.63017 287.21466 -73.024643 2.3509886e-038
-6.4019537 289.73572 -73.665619 2.3509886e-038
-1.0798715 291.96341 -74.23201 2.3509886e-038
4.3074374 293.05365 -74.509209 2.3509886e-038
9.6903486 292.79895 -74.44445 2.3509886e-038
15.050071 292.27545 -74.311356 2.3509886e-038
20.459497 292.73911 -74.429237 2.3509886e-038
26.13159 295.98459 -75.25441 2.3509886e-038
30.98056 300.87567 -76.497963 2.3509886e-038
-52.64975 291.09207 -79.365753 2.3509886e-038
-48.671795 287.53448 -78.395775 2.3509886e-038
-42.956364 284.71344 -77.626633 2.3509886e-038
-37.580887 283.67499 -77.343491 2.3509886e-038
-32.315144 283.2637 -77.231361 2.3509886e-038
-27.179882 284.05771 -77.447845 2.3509886e-038
-22.092573 285.85013 -77.936546 2.3509886e-038
-16.999693 288.66827 -78.70491 2.3509886e-038
-11.804186 291.51212 -79.48027 2.3509886e-038
-6.5191045 295.03763 -80.441498 2.3509886e-038
-1.1078508 299.52814 -81.665833 2.3509886e-038
4.4487429 302.6673 -82.521713 2.3509886e-038
10.065711 304.14069 -82.923431 2.3509886e-038
15.791459 306.67337 -83.613968 2.3509886e-038
21.831259 312.36655 -85.166199 2.3509886e-038
27.684206 319.79568 -87.191742 2.3509886e-038
-42.886318 291.88437 -84.951599 2.3509886e-038
-38.410145 289.93457 -84.384125 2.3509886e-038
-32.884193 288.2518 -83.894356 2.3509886e-038
-27.678495 289.26874 -84.190331 2.3509886e-038
-22.482332 290.89313 -84.663109 2.3509886e-038
-17.328083 294.2446 -85.638527 2.3509886e-038
-12.066125 297.98087 -86.725967 2.3509886e-038
-6.7066708 303.5264 -88.339966 2.3509886e-038
-1.1591972 313.41058 -91.216705 2.3509886e-038
4.7006674 319.80679 -93.078293 2.3509886e-038
9.7991562 322.16544 -93.764771 2.3509886e-038
-94.702675 254.82271 -25.018658 3.5733111e-043
-96.039223 258.41904 -39.144913 3.5733111e-043
-89.131256 252.32187 -24.327473 3.5733111e-043
-91.724258 259.66241 -43.211567 3.5733111e-043
-84.670746 252.86389 -25.408899 3.5733111e-043
-88.080353 263.04648 -46.612568 3.5733111e-043
-80.568932 254.60237 -27.334511 3.5733111e-043
-84.176826 266.00351 -49.350475 3.5733111e-043
-57.297844 192.24054 21.104973 2.3509528e-038
-58.189827 195.23325 17.655937 2.3509528e-038
-76.562347 256.87503 -29.901466 3.5733111e-043
-80.718704 270.82007 -52.341255 3.5733111e-043
-53.325142 190.6814 24.247166 2.3509528e-038
-58.172188 208.01358 8.030364 2.3509528e-038
-72.924133 260.76398 -33.256283 3.5733111e-043
-77.459923 276.98315 -56.026779 2.3509886e-038
-50.109131 191.79897 23.312126 2.3509528e-038
-54.926594 210.23842 1.0859298 2.3509528e-038
-69.690941 266.75082 -37.3405 3.5733111e-043
-73.864189 282.72443 -60.356609 2.3509886e-038
-47.409885 195.2137 20.675213 2.3509528e-038
-53.310867 219.51143 -5.4216552 2.3509528e-038
-66.069672 272.04675 -40.912262 3.5733111e-043
-69.266632 285.21045 -64.664818 2.3509886e-038
-44.849426 199.80649 16.079466 2.3509528e-038
-50.97073 227.07719 -12.411692 2.3509528e-038
-61.800232 275.32318 -42.957821 3.5733111e-043
-64.737244 288.40775 -69.456749 2.3509886e-038
-42.786026 207.63142 10.637074 2.3509528e-038
-50.079632 243.02576 -20.673862 2.3509886e-038
-56.872925 275.99213 -42.766426 3.5733111e-043
-59.59264 289.19031 -73.702797 2.3509886e-038
-40.440895 215.48933 5.4847631 2.3509528e-038
-54.587177 290.8678 -77.970619 2.3509886e-038
-37.60857 222.17717 -0.32334092 2.3509886e-038
-49.180912 290.54214 -81.292801 2.3509886e-038
-35.066982 232.42285 -7.1496472 2.3509886e-038
-43.988522 291.55457 -84.383354 2.3509886e-038
-31.803183 240.06268 -12.598791 2.3509886e-038
-38.686642 292.02167 -86.500313 2.3509886e-038
-27.875057 244.3434 -15.842758 2.3509886e-038
-33.166489 290.72632 -87.188057 2.3509886e-038
-17.975065 187.85793 34.851612 2.3418409e-038
-19.937147 208.36368 17.785479 2.3418409e-038
-23.559166 246.21751 -16.195589 2.3509886e-038
-27.936907 291.96942 -87.910095 2.3509886e-038
-14.360692 185.80931 37.48613 2.3418409e-038
-22.695734 293.65427 -88.447929 2.3509886e-038
-10.810362 183.56853 36.601723 2.3418409e-038
-17.51158 297.3605 -89.34906 2.3509886e-038
-7.5764675 187.10583 32.124817 2.3418409e-038
-12.191983 301.08902 -89.910782 2.3509886e-038
-4.5990882 208.14272 16.65888 2.3418409e-038
-6.765882 306.20615 -90.605179 2.3509886e-038
-0.89482552 241.93275 -15.703702 2.3509886e-038
-1.1672803 315.59601 -92.55751 2.3509886e-038
3.5320969 240.30389 -16.691158 2.3509886e-038
4.7135835 320.68555 -93.573441 2.3509886e-038
7.6130657 230.03273 -11.92809 2.3509886e-038
10.668695 322.3602 -93.767464 2.3509886e-038
11.31862 219.80991 -3.4700897 2.3509886e-038
16.711779 324.54617 -93.783882 2.3509886e-038
14.780274 211.47949 4.2651944 2.3418052e-038
22.781027 325.95605 -92.40432 2.3509886e-038
17.730131 200.82384 13.876251 2.3418052e-038
20.963333 237.44534 -24.384254 9.1476764e-041
21.607138 244.7375 -29.558386 9.1476764e-041
28.101625 318.29861 -86.271683 2.3509886e-038
20.96324 196.49812 20.881521 2.3418052e-038
23.584242 221.06598 -14.504404 2.3418052e-038
26.257952 246.12791 -32.934528 9.1476764e-041
31.63258 296.50681 -73.937378 2.3509886e-038
24.002216 191.89294 23.486584 2.3418052e-038
27.00606 215.90808 -2.8932018 2.3418052e-038
30.531107 244.09012 -32.528831 9.1476764e-041
34.782066 278.07568 -61.773212 2.3509886e-038
27.497101 191.64626 23.468594 2.3418052e-038
29.310614 204.28589 7.266408 2.3418052e-038
34.552429 240.8197 -30.939384 9.1476764e-041
38.506115 268.3757 -52.402645 2.3509886e-038
38.32576 236.76071 -28.826994 9.1476764e-041
42.68446 263.68692 -47.124859 2.3509886e-038
41.912304 232.49391 -26.599154 9.1476764e-041
45.37183 251.68443 -42.56488 2.3509886e-038
45.455822 228.80083 -24.471645 9.1476764e-041
48.423695 243.73956 -39.61129 9.1476764e-041
48.960659 225.5556 -22.362404 9.1476764e-041
51.162182 235.69774 -36.818798 9.1476764e-041
52.474731 222.8566 -20.284359 9.1476764e-041
53.999821 229.33356 -33.993954 9.1476764e-041
55.784279 219.74321 -18.292217 9.1476764e-041
57.144222 225.10023 -31.16732 9.1476764e-041
58.775799 215.88245 -16.422413 9.1476764e-041
60.290588 221.44626 -28.215422 9.1476764e-041
61.862312 212.83722 -14.911707 9.1476764e-041
63.137291 217.2238 -24.891563 9.1476764e-041
65.062828 210.52345 -14.678813 9.1476764e-041
66.175896 214.12498 -20.700552 9.1476764e-041
