# .PCD v0.7 - Point Cloud Data file format
VERSION 0.7
FIELDS x y z rgb
SIZE 4 4 4 4
TYPE F F F F
COUNT 1 1 1 1
WIDTH 580
HEIGHT 1
VIEWPOINT 0 0 0 1 0 0 0
POINTS 580
DATA ascii
0 0 0 9.1476764e-041
0 0 0 9.1476764e-041
-60.673489 268.38794 59.409462 3.5733111e-043
41.083572 249.23293 43.431206 2.3509528e-038
-26.81152 271.08618 81.711296 2.3418409e-038
-31.750086 270.8114 85.203918 2.3418409e-038
-30.85177 270.44717 85.089317 2.3418409e-038
-25.929178 269.06818 84.655457 2.3418409e-038
-23.744627 268.92062 84.609032 2.3418409e-038
-33.362587 274.20288 81.414734 2.3418409e-038
-31.115223 272.75659 80.985313 2.3418409e-038
-26.119452 271.04263 80.476418 2.3418409e-038
-21.336262 271.25974 80.540871 2.3418409e-038
-21.32468 271.26273 80.541763 2.3418409e-038
-33.046627 276.40866 77.174362 2.3418409e-038
-31.382378 275.09851 76.808563 2.3418409e-038
-26.292942 272.84299 76.17881 2.3418409e-038
-21.425135 272.38965 76.052238 2.3418409e-038
-19.572014 272.5336 76.09243 2.3418409e-038
-32.029125 276.79517 72.38015 2.3418409e-038
-31.534355 276.43073 72.284851 2.3418409e-038
-26.38158 273.76276 71.587189 2.3418409e-038
-21.448296 272.68408 71.305122 2.3418409e-038
-18.015881 273.03125 71.395912 2.3418409e-038
-64.310608 268.71869 65.509102 3.5733111e-043
-63.926823 268.54446 65.466629 3.5733111e-043
-59.292747 267.00235 65.090683 3.5733111e-043
-30.975714 277.04227 67.538246 2.3418409e-038
-26.468695 274.66675 66.959137 2.3418409e-038
-21.499805 273.33896 66.635445 2.3418409e-038
-16.695417 273.93832 66.781555 2.3418409e-038
-16.632206 273.97369 66.790184 2.3418409e-038
-66.972649 270.73553 61.205952 3.5733111e-043
-64.084442 269.20657 60.860298 3.5733111e-043
-58.936096 267.47928 60.469799 3.5733111e-043
-54.940842 268.12469 60.615715 3.5733111e-043
-30.323307 278.82361 63.034447 2.3418409e-038
-26.616713 276.20273 62.44194 2.3418409e-038
-21.565132 274.16949 61.982281 2.3418409e-038
-16.731791 274.53516 62.064941 2.3418409e-038
-15.236981 275.21979 62.219723 2.3509886e-038
-67.112564 272.74435 56.8297 3.5733111e-043
-64.542076 271.12903 56.49313 3.5733111e-043
-59.282215 269.05011 56.059959 3.5733111e-043
-54.592865 269.42328 56.137714 3.5733111e-043
-52.675922 270.59567 56.381996 3.5733111e-043
-29.995737 281.21295 58.594242 2.3418409e-038
-26.809931 278.20776 57.968071 2.3418409e-038
-21.651093 275.26236 57.354359 2.3418409e-038
-16.770039 275.16272 57.333599 2.3418409e-038
-13.722007 276.71878 57.657818 2.3509886e-038
-66.134483 274.04483 52.247246 3.5733111e-043
-65.088791 273.42569 52.129204 3.5733111e-043
-59.762737 271.23096 51.710773 3.5733111e-043
-54.871574 270.79874 51.628368 3.5733111e-043
-50.629784 271.62439 51.785782 3.5733111e-043
-29.673721 282.85071 53.926102 2.3418409e-038
-26.985264 280.02722 53.387798 2.3418409e-038
-21.753325 276.5621 52.727165 2.3418409e-038
-16.807638 275.77963 52.577988 2.3418409e-038
-12.256231 277.71326 52.94664 2.3509886e-038
39.998894 248.71931 47.41888 2.3509528e-038
41.850426 247.21367 47.131821 2.3509528e-038
43.148266 246.79715 47.052414 2.3509528e-038
-64.685646 275.75845 47.690178 3.5733111e-043
-60.215324 273.285 47.262421 3.5733111e-043
-55.087784 271.86575 47.016972 3.5733111e-043
-50.250034 271.74188 46.995552 3.5733111e-043
-48.533333 272.30188 47.092396 2.3509886e-038
-28.962349 283.87527 49.093922 2.3418409e-038
-27.174721 281.99323 48.768433 2.3418409e-038
-21.888895 278.28568 48.127247 2.3418409e-038
-16.871714 276.83096 47.875664 2.3418409e-038
-11.990458 277.32889 47.961773 2.3509886e-038
-10.968334 277.81833 48.046417 2.3509886e-038
37.742157 255.02837 44.105083 2.3509528e-038
38.450703 253.66911 43.87001 2.3509528e-038
42.164986 249.07179 43.07494 2.3509528e-038
45.21907 248.66936 43.005344 2.3509528e-038
-62.573902 275.98022 42.840824 3.5733111e-043
-60.538616 274.75226 42.650204 3.5733111e-043
-55.279247 272.81067 42.348804 3.5733111e-043
-50.396538 272.53415 42.305882 3.5733111e-043
-46.299557 273.83429 42.507706 3.5733111e-043
-27.790649 284.40543 44.148682 2.3418409e-038
-27.371119 284.03125 44.090591 2.3418409e-038
-22.034685 280.13922 43.486427 2.3418409e-038
-16.946363 278.05585 43.163025 2.3418409e-038
-12.010915 277.80203 43.123623 2.3509886e-038
-9.8994789 278.63113 43.252323 2.3509886e-038
36.633667 260.72617 40.472908 2.3509528e-038
38.867184 256.41675 39.803951 2.3509528e-038
42.659286 251.99165 39.117043 2.3509528e-038
45.843998 252.4325 39.185471 2.3509528e-038
-60.385696 276.40176 38.011101 3.5733111e-043
-55.569874 274.24493 37.714489 3.5733111e-043
-50.597256 273.6196 37.628494 3.5733111e-043
-45.896965 274.49036 37.748241 3.5733111e-043
-43.712074 275.40567 37.874119 3.5733111e-043
-26.557625 285.58527 39.274025 2.3418409e-038
-22.199337 282.23248 38.81295 2.3418409e-038
-17.045759 279.68671 38.462852 2.3418409e-038
-12.066095 279.07828 38.379177 2.3418409e-038
-8.980197 279.30078 38.409779 2.3509886e-038
35.406704 264.64691 36.394558 2.3509528e-038
35.424454 264.62262 36.39122 2.3509528e-038
39.209011 258.67184 35.572861 2.3509528e-038
43.095818 254.57028 35.008808 2.3509528e-038
45.502346 254.92761 35.057945 2.3509528e-038
-58.272518 276.93732 33.180084 3.5733111e-043
-55.90139 275.88101 33.053528 3.5733111e-043
-50.826908 274.86151 32.931381 3.5733111e-043
-46.015961 275.202 32.972176 3.5733111e-043
-41.330353 276.4617 33.123096 3.5733111e-043
-40.948921 276.62122 33.142212 3.5733111e-043
-25.527309 287.98514 34.503735 2.3418409e-038
-22.450859 285.43024 34.197628 2.3418409e-038
-17.190069 282.05457 33.79319 2.3418409e-038
-12.121857 280.36801 33.591118 2.3509886e-038
-7.8913627 276.24371 33.096985 2.3509886e-038
33.539051 264.97076 31.746361 2.3509528e-038
35.285778 263.58673 31.580542 2.3509528e-038
39.356842 259.64713 31.108534 2.3509528e-038
43.481335 256.84756 30.773115 2.3509528e-038
44.637348 256.84357 30.772636 2.3509528e-038
-56.387066 278.04758 28.3888 3.5733111e-043
-56.336479 278.02826 28.386826 3.5733111e-043
-51.191822 276.8349 28.264984 3.5733111e-043
-46.292416 276.85538 28.267075 3.5733111e-043
-41.516792 277.7088 28.354208 3.5733111e-043
-38.547089 279.33206 28.519945 3.5733111e-043
-24.779778 291.0748 29.718885 2.3418409e-038
-22.74423 289.16003 29.523388 2.3418409e-038
-17.331482 284.37488 29.034821 2.3418409e-038
-12.139177 280.76862 28.666616 2.3509886e-038
-6.8952465 270.13467 27.580889 2.3509886e-038
-4.8847418 264.34885 26.990149 2.3509886e-038
-3.8226302 261.33765 26.682705 2.3509886e-038
-2.0057037 256.6532 26.20442 2.3509886e-038
2.4829993 250.923 25.619366 2.3509886e-038
6.9780025 252.77335 25.808287 2.3509886e-038
10.987181 257.26349 26.266731 2.3509886e-038
31.650715 266.3598 27.195471 2.3509528e-038
35.22356 263.12192 26.864883 2.3509528e-038
39.460659 260.33206 26.580034 2.3509528e-038
43.700321 258.95294 26.439228 2.3509528e-038
-54.54364 280.09509 23.637262 3.5733111e-043
-51.670898 279.42566 23.580767 3.5733111e-043
-46.687107 279.21585 23.563063 3.5733111e-043
-41.878479 280.12817 23.640055 3.5733111e-043
-37.253674 282.68039 23.855436 3.5733111e-043
-36.361713 283.51572 23.92593 3.5733111e-043
-24.291237 293.48938 24.767607 2.3509886e-038
-22.972597 292.06339 24.647268 2.3509886e-038
-17.421238 285.84756 24.122715 2.3509886e-038
-12.090692 279.64719 23.599463 2.3509886e-038
-6.7712798 265.27808 22.386852 2.3509886e-038
-1.9670266 251.70401 21.241335 2.3509886e-038
2.4635024 248.9527 21.009151 2.3509886e-038
7.0032382 253.6875 21.408722 2.3509886e-038
11.832124 261.10172 22.034409 2.3509886e-038
12.780289 262.71756 22.170771 2.3509886e-038
29.980118 271.55869 22.916872 2.3509528e-038
31.304613 269.5014 22.743261 2.3509528e-038
35.429897 264.6633 22.334972 2.3509528e-038
39.72776 262.09418 22.118162 2.3509528e-038
42.881905 261.71991 22.086578 2.3509528e-038
-52.68539 282.72092 18.851784 3.5733111e-043
-52.251514 282.56549 18.841419 3.5733111e-043
-47.07164 281.51556 18.77141 3.5733111e-043
-42.186226 282.18671 18.816162 3.5733111e-043
-37.453358 284.19559 18.950113 3.5733111e-043
-33.391842 287.00143 19.137205 2.3509886e-038
-24.70166 293.71591 19.584929 2.3509886e-038
-23.003979 292.46234 19.501339 2.3509886e-038
-17.463907 286.54773 19.106953 2.3509886e-038
-11.945971 276.2999 18.42363 2.3509886e-038
-6.5987272 258.51797 17.237936 2.3509886e-038
-1.928229 246.7394 16.452541 2.3509886e-038
2.4584548 248.44263 16.566111 2.3509886e-038
7.0947862 257.00375 17.136967 2.3509886e-038
12.047278 265.84958 17.726805 2.3509886e-038
14.345551 269.35135 17.960302 2.3509886e-038
27.723417 275.90378 18.397217 2.3509528e-038
31.502048 271.20117 18.083647 2.3509528e-038
35.726902 266.88196 17.795643 2.3509528e-038
40.127811 264.7334 17.652378 2.3509528e-038
42.047047 264.79065 17.656197 2.3509528e-038
-50.978199 285.10669 13.961518 3.5733111e-043
-47.453865 283.80148 13.897603 3.5733111e-043
-42.414429 283.71317 13.893278 3.5733111e-043
-37.598152 285.29428 13.970705 3.5733111e-043
-32.776279 287.31747 14.069779 2.3509886e-038
-27.955015 290.09036 14.205565 2.3509886e-038
-22.845785 290.45117 14.223235 2.3509886e-038
-17.424799 285.90601 14.000661 2.3509886e-038
-11.681227 270.17661 13.230401 2.3509886e-038
-6.3988662 250.68802 12.276054 2.3509886e-038
-1.9031014 243.52403 11.925239 2.3509886e-038
2.4847643 251.10138 12.296297 2.3509886e-038
7.2689123 263.31137 12.894213 2.3509886e-038
12.318937 271.84433 13.312068 2.3509886e-038
17.164843 276.05203 13.518116 2.3509528e-038
23.411951 277.05905 13.56743 2.3509528e-038
27.055607 274.82373 13.457967 2.3509528e-038
31.550755 271.62045 13.301105 2.3509528e-038
36.025158 269.10992 13.178166 2.3509528e-038
40.63134 268.05533 13.126522 2.3509528e-038
41.194359 268.10532 13.128971 2.3509528e-038
-49.553909 287.51505 8.9874744 2.3509886e-038
-47.963955 286.85211 8.9667521 2.3509886e-038
-42.721527 285.76736 8.9328442 2.3509886e-038
-37.746639 286.42099 8.9532757 2.3509886e-038
-32.786648 287.40836 8.9841394 2.3509886e-038
-27.788229 288.35962 9.013875 2.3509886e-038
-22.700628 288.60568 9.0215673 2.3509886e-038
-17.209593 282.37491 8.8267984 2.3509886e-038
-11.314671 261.69849 8.1804714 2.3509886e-038
-6.2304344 244.0894 7.6300259 2.3509886e-038
-1.9034747 243.57179 7.6138463 2.3509886e-038
2.542732 256.95938 8.0323305 2.3509886e-038
7.4720411 270.66956 8.4608994 2.3509886e-038
12.518929 276.25757 8.6355762 2.3509886e-038
17.458771 277.00705 8.6590033 2.3509528e-038
22.27157 275.85394 8.6229582 2.3509528e-038
26.945013 273.70035 8.5556393 2.3509528e-038
31.632784 272.32666 8.5126982 2.3509528e-038
36.399982 271.90988 8.499671 2.3509528e-038
40.540508 272.68228 8.5238152 2.3509528e-038
-48.461525 290.77737 3.9396868 2.3509886e-038
-43.102188 288.31366 3.9063063 2.3509886e-038
-37.932007 287.82758 3.8997204 2.3509886e-038
-32.874111 288.17505 3.904428 2.3509886e-038
-27.818329 288.67197 3.9111609 2.3509886e-038
-22.573536 286.9899 3.8883708 2.3509886e-038
-16.721369 274.36414 3.7173071 2.3509886e-038
-10.896224 252.02019 3.414573 2.3509886e-038
-6.1277742 240.06747 3.2526281 2.3509886e-038
-1.9297062 246.92842 3.3455856 2.3509886e-038
2.6171639 264.4812 3.5834048 2.3509886e-038
7.64431 276.90988 3.7517989 2.3509886e-038
12.637604 278.87643 3.7784429 2.3509886e-038
17.492445 277.54135 3.760354 2.3509528e-038
22.287548 276.05182 3.7401729 2.3509528e-038
27.057438 274.84232 3.7237856 2.3509528e-038
31.869106 274.36118 3.7172666 2.3509528e-038
36.827232 275.10147 3.7272971 2.3509528e-038
39.970173 276.89783 3.7516351 2.3509528e-038
-47.144447 292.85181 -1.2187126 2.3509886e-038
-43.42807 290.4935 -1.2088984 2.3509886e-038
-38.097496 289.08334 -1.20303 2.3509886e-038
-32.955772 288.8909 -1.2022291 2.3509886e-038
-27.786375 288.34039 -1.1999382 2.3509886e-038
-22.1299 281.34973 -1.1708463 2.3509886e-038
-15.962584 261.91397 -1.0899638 2.3509886e-038
-10.538347 243.74281 -1.0143439 2.3509886e-038
-6.1482763 240.87068 -1.0023915 2.3509886e-038
-1.9917418 254.86661 -1.0606359 2.3509886e-038
2.7058229 273.44073 -1.1379328 2.3509886e-038
7.7961531 282.41031 -1.1752598 2.3509886e-038
12.789767 282.23422 -1.174527 2.3509886e-038
17.664942 280.2782 -1.1663871 2.3509886e-038
22.482529 278.46686 -1.1588491 2.3509528e-038
27.283825 277.14191 -1.1533353 2.3509528e-038
32.120773 276.52774 -1.1507795 2.3509528e-038
37.146847 277.48901 -1.1547798 2.3509528e-038
39.557606 279.3035 -1.1623309 2.3509528e-038
-45.464249 293.68561 -6.4234548 2.3509886e-038
-43.719681 292.44409 -6.3963003 2.3509886e-038
-38.203602 289.88843 -6.3404036 2.3509886e-038
-32.971004 289.02444 -6.321506 2.3509886e-038
-27.583639 286.23657 -6.2605305 2.3509886e-038
-21.300758 270.80838 -5.9230866 2.3509886e-038
-15.225751 249.82405 -5.4641204 2.3509886e-038
-10.413731 240.86053 -5.2680712 2.3509886e-038
-6.3539186 248.92712 -5.4445024 2.3509886e-038
-2.0910914 267.57953 -5.8524656 2.3509886e-038
2.795572 282.51047 -6.1790333 2.3509886e-038
7.9164972 286.76965 -6.2721896 2.3509886e-038
12.942531 285.60529 -6.2467227 2.3509886e-038
17.867336 283.4895 -6.2004466 2.3509886e-038
22.701689 281.18134 -6.1499624 2.3509886e-038
27.500881 279.34671 -6.1098361 2.3509886e-038
32.348141 278.48517 -6.0909925 2.3509528e-038
37.389812 279.30396 -6.108901 2.3509886e-038
39.778229 281.11084 -6.1484213 2.3509886e-038
-43.512001 293.79745 -11.629154 2.3509886e-038
-38.20219 289.87772 -11.474002 2.3509886e-038
-32.856503 288.02066 -11.400496 2.3509886e-038
-27.246708 282.74023 -11.191484 2.3509886e-038
-20.584829 261.70636 -10.358917 2.3509886e-038
-14.849867 243.65654 -9.6444654 2.3509886e-038
-10.484447 242.49615 -9.5985346 2.3509886e-038
-6.6034598 258.70337 -10.240053 2.3509886e-038
-2.1754351 278.37228 -11.018592 2.3509886e-038
2.850857 288.09738 -11.403533 2.3509886e-038
7.9829488 289.17682 -11.446259 2.3509886e-038
13.039316 287.74106 -11.389429 2.3509886e-038
18.004745 285.66965 -11.307438 2.3509886e-038
22.879589 283.3848 -11.216998 2.3509886e-038
27.705004 281.42014 -11.139233 2.3509886e-038
32.573776 280.42764 -11.099947 2.3509886e-038
37.599369 280.86935 -11.117432 2.3509886e-038
40.459076 282.79315 -11.19358 2.3509886e-038
-41.080269 290.80518 -16.66098 2.3509886e-038
-37.980003 288.1918 -16.511253 2.3509886e-038
-32.537445 285.22385 -16.341213 2.3509886e-038
-26.708427 277.15448 -15.878899 2.3509886e-038
-20.151459 256.19669 -14.678172 2.3509886e-038
-14.749798 242.01462 -13.865645 2.3509886e-038
-10.515019 243.20325 -13.933744 2.3509886e-038
-6.6639194 261.07202 -14.957492 2.3509886e-038
-2.1958897 280.98969 -16.098625 2.3509886e-038
2.8641798 289.44373 -16.582981 2.3509886e-038
8.0065937 290.03336 -16.616764 2.3509886e-038
13.093002 288.92578 -16.553305 2.3509886e-038
18.106298 287.28094 -16.45907 2.3509886e-038
23.042015 285.39661 -16.35111 2.3509886e-038
27.900101 283.40189 -16.236828 2.3509886e-038
32.762268 282.05038 -16.159397 2.3509886e-038
37.753815 282.02307 -16.157831 2.3509886e-038
41.317581 283.95868 -16.268728 2.3509886e-038
-38.605343 286.77026 -21.508598 2.3509886e-038
-37.690559 285.99548 -21.450489 2.3509886e-038
-32.112827 281.50159 -21.113436 2.3509886e-038
-26.012751 269.93539 -20.245935 2.3509886e-038
-19.797806 251.70049 -18.878263 2.3509886e-038
-14.759973 242.18155 -18.164318 2.3509886e-038
-10.58266 244.76772 -18.358286 2.3509886e-038
-6.6960497 262.33078 -19.675568 2.3509886e-038
-2.2034307 281.95468 -21.147417 2.3509886e-038
2.8720608 290.24014 -21.76885 2.3509886e-038
8.0267878 290.76486 -21.808207 2.3509886e-038
13.130783 289.75949 -21.7328 2.3509886e-038
18.174419 288.36179 -21.627968 2.3509886e-038
23.148558 286.71622 -21.504545 2.3509886e-038
28.034796 284.77008 -21.35858 2.3509886e-038
32.890621 283.1554 -21.237474 2.3509886e-038
37.877869 282.94977 -21.222052 2.3509886e-038
42.285049 284.85806 -21.365181 2.3509886e-038
-36.49247 284.59122 -26.385384 2.3509886e-038
-31.799219 278.75253 -25.844059 2.3509886e-038
-25.453886 264.13605 -24.488918 2.3509886e-038
-19.58382 248.97997 -23.083748 2.3509886e-038
-14.8371 243.44707 -22.570774 2.3509886e-038
-10.734979 248.29073 -23.019846 2.3509886e-038
-6.7983041 266.33679 -24.692957 2.3509886e-038
-2.2241721 284.60876 -26.387011 2.3509886e-038
2.8865786 291.70728 -27.045135 2.3509886e-038
8.0577078 291.88492 -27.061607 2.3509886e-038
13.175454 290.74527 -26.955946 2.3509886e-038
18.243979 289.46542 -26.837288 2.3509886e-038
23.24297 287.88562 -26.690817 2.3509886e-038
28.138071 285.81912 -26.499228 2.3509886e-038
32.985447 283.97174 -26.32795 2.3509886e-038
37.940678 283.41895 -26.276699 2.3509886e-038
43.10836 284.83017 -26.407537 2.3509886e-038
-34.369377 281.37338 -31.070255 2.3509886e-038
-31.447887 275.67273 -30.440767 2.3509886e-038
-25.04113 259.85284 -28.69388 2.3509886e-038
-19.568407 248.78404 -27.471622 2.3509886e-038
-15.056381 247.04503 -27.279594 2.3509886e-038
-11.020944 254.90483 -28.147501 2.3509886e-038
-6.9661489 272.91245 -30.135967 2.3509886e-038
-2.2497442 287.88101 -31.788853 2.3509886e-038
2.8978271 292.84399 -32.33688 2.3509886e-038
8.0889111 293.01523 -32.355789 2.3509886e-038
13.233781 292.03235 -32.247257 2.3509886e-038
18.325176 290.75375 -32.106068 2.3509886e-038
23.339167 289.07712 -31.920925 2.3509886e-038
28.226606 286.71841 -31.660475 2.3509886e-038
33.053699 284.5593 -31.422056 2.3509886e-038
37.967796 283.62155 -31.318504 2.3509886e-038
43.108753 284.39944 -31.404402 2.3509886e-038
43.728836 284.65375 -31.432484 2.3509886e-038
-31.765055 271.38327 -34.773392 2.3509886e-038
-30.691319 269.04065 -34.473221 2.3509886e-038
-24.721451 256.53552 -32.870892 2.3509886e-038
-19.70019 250.45946 -32.092342 2.3509886e-038
-15.387279 252.4744 -32.350525 2.3509886e-038
-11.394765 263.55099 -33.769814 2.3509886e-038
-7.1409106 279.75909 -35.846619 2.3509886e-038
-2.2686014 290.29401 -37.196499 2.3509886e-038
2.9029102 293.3577 -37.589058 2.3509886e-038
8.1095753 293.76379 -37.641094 2.3509886e-038
13.284696 293.15591 -37.563206 2.3509886e-038
18.393793 291.84244 -37.394905 2.3509886e-038
23.404915 289.89145 -37.144913 2.3509886e-038
28.290422 287.36667 -36.821404 2.3509886e-038
33.143013 285.32822 -36.560211 2.3509886e-038
38.094994 284.57172 -36.463276 2.3509886e-038
43.251812 285.34326 -36.562138 2.3509886e-038
44.243172 285.79373 -36.619858 2.3509886e-038
-30.23399 262.23749 -38.245831 2.3509886e-038
-29.857538 261.73172 -38.172066 2.3509886e-038
-24.635361 255.64218 -37.283943 2.3509886e-038
-19.964563 253.82057 -37.018269 2.3509886e-038
-15.756588 258.53403 -37.7057 2.3509886e-038
-11.695783 270.51328 -39.452805 2.3509886e-038
-7.2265472 283.11404 -41.290554 2.3509886e-038
-2.2693658 290.39185 -42.351978 2.3509886e-038
2.9013481 293.1998 -42.761505 2.3509886e-038
8.1177979 294.06165 -42.887203 2.3509886e-038
13.309722 293.70816 -42.835648 2.3509886e-038
18.424795 292.33435 -42.635284 2.3509886e-038
23.436308 290.28027 -42.335712 2.3509886e-038
28.365881 288.13315 -42.022564 2.3509886e-038
33.302547 286.70169 -41.813789 2.3509886e-038
38.351585 286.48846 -41.782696 2.3509886e-038
43.668537 288.0925 -42.016632 2.3509886e-038
44.810692 288.86789 -42.129723 2.3509886e-038
-30.463482 260.17465 -42.552753 2.3509886e-038
-29.620123 259.65054 -42.46703 2.3509886e-038
-24.819868 257.55679 -42.124588 2.3509886e-038
-20.309139 258.20135 -42.230011 2.3509886e-038
-16.061007 263.5289 -43.101357 2.3509886e-038
-11.811522 273.19022 -44.681507 2.3509886e-038
-7.1927695 281.79074 -46.088158 2.3509886e-038
-2.2481141 287.67242 -47.05014 2.3509886e-038
2.8879888 291.84976 -47.73336 2.3509886e-038
8.1177654 294.06046 -48.094933 2.3509886e-038
13.330679 294.17065 -48.112949 2.3509886e-038
18.451105 292.7518 -47.88089 2.3509886e-038
23.473564 290.74173 -47.552139 2.3509886e-038
28.458052 289.0694 -47.278618 2.3509886e-038
33.48494 288.27188 -47.148178 2.3509886e-038
38.730145 289.31631 -47.319008 2.3509886e-038
44.635818 294.47388 -48.162548 2.3509886e-038
46.003349 296.48004 -48.490662 2.3509886e-038
-31.289925 262.09097 -47.507904 2.3509886e-038
-29.821459 261.41547 -47.385452 2.3509886e-038
-25.102751 260.49231 -47.218117 2.3509886e-038
-20.598978 261.88623 -47.470795 2.3509886e-038
-16.215981 266.07172 -48.229469 2.3509886e-038
-11.767333 272.16818 -49.334549 2.3509886e-038
-7.0905428 277.7858 -50.352825 2.3509886e-038
-2.2122364 283.08145 -51.31274 2.3509886e-038
2.8579917 288.81839 -52.35265 2.3509886e-038
8.0949965 293.23569 -53.153347 2.3509886e-038
13.352565 294.65359 -53.410366 2.3509886e-038
18.503923 293.58981 -53.217537 2.3509886e-038
23.551039 291.70135 -52.875225 2.3509886e-038
28.575405 290.26144 -52.614223 2.3509886e-038
33.667034 289.83954 -52.537746 2.3509886e-038
39.134552 292.33728 -52.990498 2.3509886e-038
45.713711 301.58502 -54.66679 2.3509886e-038
47.284275 304.83014 -55.255016 2.3509886e-038
-31.16432 264.34451 -52.598011 2.3509886e-038
-30.106894 263.91757 -52.513058 2.3509886e-038
-25.36307 263.19363 -52.369019 2.3509886e-038
-20.800911 264.45352 -52.619701 2.3509886e-038
-16.281694 267.14996 -53.156227 2.3509886e-038
-11.695373 270.50378 -53.823555 2.3509886e-038
-7.0018992 274.31302 -54.581501 2.3509886e-038
-2.1804614 279.01544 -55.517166 2.3509886e-038
2.8224726 285.22894 -56.753494 2.3509886e-038
8.0449495 291.42279 -57.985916 2.3509886e-038
13.360565 294.83014 -58.663898 2.3509886e-038
18.582447 294.83569 -58.665001 2.3509886e-038
23.677441 293.26694 -58.352856 2.3509886e-038
28.744766 291.98175 -58.097137 2.3509886e-038
33.915173 291.97574 -58.09594 2.3509886e-038
39.545441 295.40662 -58.778599 2.3509886e-038
46.288521 305.3772 -60.762497 2.3509886e-038
47.638466 308.09586 -61.303444 2.3509886e-038
-28.911734 266.89334 -57.831947 2.3509886e-038
-25.710295 266.79678 -57.811028 2.3509886e-038
-21.035416 267.43494 -57.949303 2.3509886e-038
-16.366068 268.53436 -58.187538 2.3509886e-038
-11.678676 270.11761 -58.530602 2.3509886e-038
-6.9639444 272.82608 -59.117489 2.3509886e-038
-2.1635847 276.85593 -59.990696 2.3509886e-038
2.7969015 282.64481 -61.245064 2.3509886e-038
7.9944887 289.59485 -62.751041 2.3509886e-038
13.361763 294.85657 -63.891178 2.3509886e-038
18.673302 296.27722 -64.199013 2.3509886e-038
23.831285 295.17245 -63.959629 2.3509886e-038
28.962955 294.19806 -63.748493 2.3509886e-038
34.263023 294.9704 -63.91584 2.3509886e-038
40.086788 299.45053 -64.88662 2.3509886e-038
46.814651 308.84821 -66.922966 2.3509886e-038
47.185196 309.45779 -67.055061 2.3509886e-038
-25.013222 274.12103 -64.252853 2.3509886e-038
-21.486917 273.17511 -64.031128 2.3509886e-038
-16.545969 271.48618 -63.635254 2.3509886e-038
-11.723221 271.14792 -63.555962 2.3509886e-038
-6.968111 272.98929 -63.987576 2.3509886e-038
-2.1606457 276.47983 -64.805748 2.3509886e-038
2.7891309 281.85956 -66.066727 2.3509886e-038
7.9800172 289.07065 -67.756981 2.3509886e-038
13.39024 295.48495 -69.260468 2.3509886e-038
18.786791 298.07788 -69.86824 2.3509886e-038
24.033348 297.6752 -69.773849 2.3509886e-038
29.282373 297.44266 -69.719345 2.3509886e-038
34.744759 299.11765 -70.111961 2.3509886e-038
40.796482 304.75195 -71.432617 2.3509886e-038
45.667461 311.71973 -73.065834 2.3509886e-038
-19.573904 280.91446 -70.820313 2.3509886e-038
-16.949142 278.10144 -70.111122 2.3509886e-038
-11.886839 274.93222 -69.312149 2.3509886e-038
-7.0389152 275.76318 -69.521637 2.3509886e-038
-2.1806715 279.04236 -70.348335 2.3509886e-038
2.8140583 284.37863 -71.693642 2.3509886e-038
8.0520058 291.67838 -73.533958 2.3509886e-038
13.529286 298.55334 -75.267181 2.3509886e-038
19.041586 302.12057 -76.166504 2.3509886e-038
24.47761 303.17776 -76.433029 2.3509886e-038
29.993362 304.66467 -76.807884 2.3509886e-038
35.694202 307.29141 -77.470108 2.3509886e-038
41.81321 312.34698 -78.744652 2.3509886e-038
41.907276 312.45056 -78.77076 2.3509886e-038
-12.181941 284.18521 -76.677887 2.3509886e-038
-7.266695 284.68692 -76.813255 2.3509886e-038
-2.2512076 288.06827 -77.725601 2.3509886e-038
2.9004211 293.10614 -79.0849 2.3509886e-038
8.2704458 299.59125 -80.834694 2.3509886e-038
13.877455 306.23645 -82.627678 2.3509886e-038
19.633881 311.5181 -84.052757 2.3509886e-038
25.442484 315.12863 -85.026932 2.3509886e-038
31.408842 319.04276 -86.083031 2.3509886e-038
35.903637 322.47452 -87.008972 2.3509886e-038
0.067394994 306.47238 -88.119072 2.3509886e-038
3.0566416 308.89322 -88.815132 2.3509886e-038
8.6564865 313.57529 -90.161354 2.3509886e-038
14.434529 318.52951 -91.585823 2.3509886e-038
19.606449 324.57834 -93.325027 2.3509886e-038
-63.932098 268.56665 65.762161 3.5733111e-043
-65.459938 274.9848 49.930016 3.5733111e-043
-58.820248 266.95349 64.786537 3.5733111e-043
-60.866482 276.24026 39.095074 3.5733111e-043
-54.423073 268.58533 59.752159 3.5733111e-043
-56.348019 278.08521 28.287083 3.5733111e-043
-50.241844 271.6976 50.909889 3.5733111e-043
-52.368069 283.1958 18.004416 3.5733111e-043
-45.843334 274.16959 41.625908 3.5733111e-043
-48.569118 290.47134 4.4404445 2.3509886e-038
-41.327477 276.44247 33.81633 3.5733111e-043
-43.95652 294.02832 -10.576689 2.3509886e-038
-37.175941 282.09058 25.607422 3.5733111e-043
-37.636414 285.58463 -23.633781 2.3509886e-038
-30.834438 270.29523 85.489655 2.3418409e-038
-31.572662 276.76651 70.384186 2.3418409e-038
-32.809723 287.61063 18.523909 2.3509886e-038
-30.274286 265.38495 -55.203556 2.3509886e-038
-25.88813 268.64221 86.39521 2.3418409e-038
-27.432535 284.66858 42.746857 2.3418409e-038
-28.076118 291.34705 16.146061 2.3509886e-038
-26.18642 271.73758 -62.434059 2.3509886e-038
-21.335558 271.25079 80.564529 2.3418409e-038
-21.933554 278.85345 -68.325981 2.3509886e-038
-16.694614 273.92514 67.002365 2.3418409e-038
-17.177095 281.84171 -72.874962 2.3509886e-038
-12.009722 277.77441 52.060059 2.3509886e-038
-12.282783 284.09006 -76.596344 2.3509886e-038
-6.9483614 272.21558 30.066547 2.3509886e-038
-7.4432335 291.60315 -81.02317 2.3509886e-038
-2.0128016 257.56143 27.132788 2.3509886e-038
-2.3603311 302.03189 -86.010826 2.3509886e-038
2.5026784 252.91168 29.307579 2.3509886e-038
3.0829773 311.5546 -90.363548 2.3509886e-038
6.9892826 253.18196 29.57564 2.3509886e-038
8.7714233 317.73877 -92.710976 2.3509886e-038
11.743634 259.14902 24.819715 2.3509886e-038
14.54218 320.90506 -93.196655 2.3509886e-038
17.413414 276.28738 13.318689 2.3509528e-038
20.498497 325.23642 -93.310852 2.3509886e-038
22.378313 277.17603 12.915198 2.3509528e-038
26.410429 327.11749 -92.329048 2.3509886e-038
27.197878 276.26886 17.58285 2.3509528e-038
32.049675 325.55212 -89.888718 2.3509886e-038
31.110752 267.83249 25.801651 2.3509528e-038
37.228027 320.49612 -85.601967 2.3509886e-038
35.424294 264.62143 36.444725 2.3509528e-038
41.836723 312.52264 -78.883995 2.3509886e-038
38.30896 252.73398 45.405529 2.3509528e-038
40.90292 269.84702 11.267162 2.3509528e-038
43.168686 284.79483 -26.863552 2.3509886e-038
46.96986 309.87216 -68.215569 2.3509886e-038
41.831493 247.10182 47.663052 2.3509528e-038
43.797756 258.71671 26.904928 2.3509528e-038
