# .PCD v0.7 - Point Cloud Data file format
VERSION 0.7
FIELDS x y z rgb
SIZE 4 4 4 4
TYPE F F F F
COUNT 1 1 1 1
WIDTH 590
HEIGHT 1
VIEWPOINT 0 0 0 1 0 0 0
POINTS 590
DATA ascii
-3.3546736 234.81949 11.126761 2.3418052e-038
0 0 0 9.1476764e-041
-60.767117 268.80209 59.501141 3.5733111e-043
43.588566 250.13596 42.4105 2.3509528e-038
-26.864456 271.6214 81.872627 2.3418409e-038
-32.226353 272.80521 85.429359 2.3418409e-038
-31.246056 272.17053 85.230621 2.3418409e-038
-26.194593 269.85706 84.506142 2.3418409e-038
-22.729147 269.56491 84.41465 2.3418409e-038
-33.618629 276.2547 81.61026 2.3418409e-038
-31.500566 274.38748 81.058647 2.3418409e-038
-26.362318 271.58496 80.230736 2.3418409e-038
-21.523275 271.30087 80.146812 2.3418409e-038
-20.611652 271.49704 80.204765 2.3418409e-038
-33.385895 278.18842 77.247879 2.3418409e-038
-31.750261 276.56247 76.796387 2.3418409e-038
-26.532618 273.33939 75.901398 2.3418409e-038
-21.619202 272.51004 75.671104 2.3418409e-038
-19.161646 272.69339 75.722015 2.3418409e-038
-32.389015 278.11096 72.294128 2.3418409e-038
-31.871464 277.61823 72.166046 2.3418409e-038
-26.610096 274.13754 71.261253 2.3418409e-038
-21.644724 272.83176 70.921822 2.3418409e-038
-17.818697 273.08221 70.986931 2.3418409e-038
-64.716248 269.36746 65.244102 3.5733111e-043
-64.323669 269.19659 65.202721 3.5733111e-043
-59.364342 267.34091 64.753242 3.5733111e-043
-31.245108 277.51224 67.216873 2.3418409e-038
-26.688423 274.94449 66.594925 2.3418409e-038
-21.70167 273.54956 66.257057 2.3418409e-038
-16.877972 273.99844 66.365784 2.3418409e-038
-16.470476 274.21228 66.417572 2.3418409e-038
-67.178635 270.91681 60.81472 3.5733111e-043
-64.435272 269.66367 60.533413 3.5733111e-043
-59.242977 267.81082 60.117489 3.5733111e-043
-54.78014 268.40491 60.250847 3.5733111e-043
-30.417755 278.26517 62.46426 2.3418409e-038
-26.816967 276.26874 62.016106 2.3418409e-038
-21.778494 274.51791 61.623085 2.3418409e-038
-16.944946 275.08572 61.750542 2.3418409e-038
-15.049462 276.29282 62.021511 2.3418409e-038
-67.061081 272.62775 56.363781 3.5733111e-043
-64.885986 271.54993 56.140953 3.5733111e-043
-59.610901 269.47403 55.711773 3.5733111e-043
-54.835556 269.49237 55.715561 3.5733111e-043
-52.181107 271.0249 56.03241 3.5733111e-043
-29.881462 279.56677 57.79837 2.3418409e-038
-26.953968 277.68011 57.408325 2.3418409e-038
-21.854008 275.46979 56.951351 2.3418409e-038
-16.968998 275.47617 56.952671 2.3418409e-038
-13.538788 277.40683 57.351826 2.3509886e-038
-66.038742 275.104 51.996815 3.5733111e-043
-65.680794 274.87622 51.953754 3.5733111e-043
-60.154266 271.93033 51.396961 3.5733111e-043
-55.095741 270.77103 51.177845 3.5733111e-043
-50.364864 271.15436 51.250294 3.5733111e-043
-49.540165 271.55374 51.325787 3.5733111e-043
-29.464033 281.72989 53.249153 2.3418409e-038
-27.157389 279.77576 52.87981 2.3418409e-038
-21.959091 276.79434 52.316299 2.3418409e-038
-16.990583 275.8266 52.133389 2.3418409e-038
-12.172811 277.5127 52.452072 2.3509886e-038
-12.066956 277.60504 52.469524 2.3509886e-038
-64.392227 276.74411 47.3988 3.5733111e-043
-60.610504 273.99277 46.92757 3.5733111e-043
-55.29731 271.76166 46.545437 3.5733111e-043
-50.407749 271.38522 46.480968 3.5733111e-043
-47.214867 273.27802 46.805153 2.3509886e-038
-28.66501 283.23105 48.509838 2.3418409e-038
-27.380924 282.07864 48.312462 2.3418409e-038
-22.103848 278.61902 47.719921 2.3418409e-038
-17.053106 276.84161 47.415497 2.3418409e-038
-12.145375 276.88721 47.423309 2.3509886e-038
-10.74791 277.39868 47.51091 2.3509886e-038
40.373173 253.19388 43.36528 2.3509528e-038
42.475349 251.40222 43.058422 2.3509528e-038
46.569695 249.45134 42.724285 2.3509528e-038
47.470741 249.17421 42.676823 2.3509528e-038
-62.107296 275.81564 42.348244 3.5733111e-043
-60.805447 274.87402 42.203671 3.5733111e-043
-55.445724 272.49103 41.837788 3.5733111e-043
-50.575336 272.28748 41.806538 3.5733111e-043
-46.077461 274.25818 42.109112 3.5733111e-043
-44.994648 275.3027 42.269489 2.3509886e-038
-27.66993 285.00388 43.758987 2.3418409e-038
-27.664394 284.99896 43.758236 2.3418409e-038
-22.271753 280.73547 43.103622 2.3418409e-038
-17.128811 278.07059 42.694469 2.3418409e-038
-12.166941 277.37885 42.588257 2.3509886e-038
-9.636714 278.00336 42.684147 2.3509886e-038
38.894489 258.59924 39.704872 2.3509528e-038
39.056316 258.27661 39.655331 2.3509528e-038
42.759201 253.08231 38.857811 2.3509528e-038
46.870789 251.06415 38.547943 2.3509528e-038
47.521484 250.91959 38.525749 2.3509528e-038
-60.16209 275.95059 37.475029 3.5733111e-043
-55.740112 273.93784 37.201691 3.5733111e-043
-50.759468 273.27881 37.112194 3.5733111e-043
-46.058514 274.14539 37.229881 3.5733111e-043
-42.668579 275.87115 37.464245 3.5733111e-043
-26.600649 286.88974 38.960606 2.3418409e-038
-22.455811 283.05551 38.439907 2.3418409e-038
-17.234251 279.78232 37.995396 2.3418409e-038
-12.220851 278.60791 37.835903 2.3509886e-038
-8.5720682 277.46384 37.680538 2.3509886e-038
37.877563 264.56799 35.929237 2.3509528e-038
39.457378 260.9288 35.435024 2.3509528e-038
43.143185 255.355 34.678082 2.3509528e-038
47.041405 253.67702 34.450203 2.3509528e-038
-58.465382 277.18005 32.726269 3.5733111e-043
-56.163677 276.01944 32.589241 3.5733111e-043
-50.991615 274.52866 32.413223 3.5733111e-043
-46.13295 274.58844 32.42028 3.5733111e-043
-41.43454 275.72876 32.554916 3.5733111e-043
-40.441452 276.13876 32.603329 3.5733111e-043
-25.565731 289.35248 34.163452 2.3418409e-038
-22.725449 286.45428 33.821266 2.3418409e-038
-17.37841 282.12262 33.309834 2.3418409e-038
-12.260039 279.50131 33.00034 2.3509886e-038
-7.0875955 271.25226 32.026382 2.3418052e-038
-7.050333 271.16415 32.01598 2.3418052e-038
1.4256541 252.26433 29.784504 2.3509886e-038
2.351428 251.74666 29.723383 2.3509886e-038
6.8400354 252.63042 29.827728 2.3509886e-038
8.8282528 253.87636 29.974834 2.3509886e-038
36.224087 266.80057 31.500776 2.3509528e-038
39.541737 261.48669 30.873375 2.3509528e-038
43.451595 257.18042 30.364943 2.3509528e-038
46.349796 256.39215 30.271872 2.3509528e-038
-56.813904 278.89941 27.983044 3.5733111e-043
-56.74152 278.85931 27.979021 3.5733111e-043
-51.397003 276.71115 27.763489 3.5733111e-043
-46.407528 276.22278 27.714487 3.5733111e-043
-41.640839 277.10156 27.802662 3.5733111e-043
-38.52137 278.99908 27.993046 3.5733111e-043
-24.657217 292.12854 29.310373 2.3418409e-038
-23.027763 290.26495 29.123394 2.3418409e-038
-17.508875 284.2406 28.518948 2.3418409e-038
-12.230693 278.83224 27.976307 2.3418052e-038
-6.9165454 264.70593 26.558958 2.3418052e-038
-2.099786 250.14258 25.097761 2.3509886e-038
2.3050175 246.77789 24.76017 2.3509886e-038
6.8108463 251.55234 25.239208 2.3509886e-038
11.571396 258.23203 25.909407 2.3509886e-038
11.863369 258.63425 25.949762 2.3509886e-038
34.126949 267.84784 26.874197 2.3509528e-038
35.533669 266.20148 26.709011 2.3509528e-038
39.581795 261.75156 26.262535 2.3509528e-038
43.791027 259.18942 26.005466 2.3509528e-038
45.81348 259.20981 26.007513 2.3509528e-038
-55.070652 280.66373 23.182547 3.5733111e-043
-51.875278 279.2861 23.068758 3.5733111e-043
-46.772163 278.39313 22.994997 3.5733111e-043
-41.970692 279.2966 23.069624 3.5733111e-043
-37.39045 282.11111 23.302099 3.5733111e-043
-36.452061 283.02161 23.377304 3.5733111e-043
-24.095442 294.18826 24.299662 2.3509886e-038
-23.255949 293.14124 24.213179 2.3509886e-038
-17.585337 285.48187 23.580521 2.3509886e-038
-12.072919 275.23538 22.734171 2.3418052e-038
-6.7109046 256.83575 21.21438 2.3418052e-038
-2.0446351 243.57257 20.118855 2.3418052e-038
2.2878191 244.93661 20.231524 2.3418052e-038
6.8771315 254.00052 20.980192 2.3509886e-038
11.776146 262.8013 21.707127 2.3509886e-038
13.299875 264.92642 21.882662 2.3509886e-038
32.110954 272.32602 22.493862 2.3509528e-038
35.645508 267.03931 22.057182 2.3509528e-038
39.795856 263.16714 21.737347 2.3509528e-038
44.289253 262.13834 21.652369 2.3509528e-038
45.481602 262.55328 21.686642 2.3509528e-038
-53.146088 282.46246 18.321705 3.5733111e-043
-52.40398 282.13254 18.300303 3.5733111e-043
-47.164703 280.72955 18.209299 3.5733111e-043
-42.262287 281.23703 18.242216 3.5733111e-043
-37.557022 283.36789 18.380434 3.5733111e-043
-33.550541 286.26483 18.56834 2.3509886e-038
-24.768595 294.22571 19.084715 2.3509886e-038
-23.248947 293.05298 19.008648 2.3509886e-038
-17.570663 285.24365 18.502104 2.3509886e-038
-11.768277 268.29022 17.402431 2.3418052e-038
-6.4878325 248.29846 16.105682 2.3418052e-038
-2.0180097 240.40076 15.593404 2.3418052e-038
2.3135002 247.68607 16.065958 2.3418052e-038
7.038682 259.96722 16.862568 2.3509886e-038
12.028785 268.4393 17.4121 2.3509886e-038
14.776549 271.44177 17.606853 2.3509886e-038
29.684328 277.68881 18.012064 2.3509886e-038
31.733713 274.159 17.783104 2.3509528e-038
35.836452 268.46976 17.414076 2.3509528e-038
40.104721 265.20966 17.202612 2.3509528e-038
44.772789 265.12433 17.197079 2.3509528e-038
-51.197704 285.08243 13.435762 3.5733111e-043
-47.684101 283.82108 13.376316 3.5733111e-043
-42.569115 283.27884 13.350761 3.5733111e-043
-37.714565 284.55661 13.410981 3.5733111e-043
-32.899803 286.57562 13.506136 2.3509886e-038
-28.114664 289.63763 13.650446 2.3509886e-038
-23.009665 290.03683 13.669261 2.3509886e-038
-17.355661 281.7533 13.278863 2.3418052e-038
-11.38573 259.56903 12.233331 2.3418052e-038
-6.3180337 241.80003 11.39589 2.3418052e-038
-2.0296259 241.78458 11.395161 2.3418052e-038
2.3803864 254.84698 12.010785 2.3418052e-038
7.2540779 267.9227 12.627035 2.3509886e-038
12.261705 273.63724 12.896358 2.3509886e-038
16.923754 276.66571 13.039088 2.3509886e-038
25.856007 278.78955 13.139184 2.3509886e-038
27.22736 277.78909 13.092031 2.3509886e-038
31.635218 273.30804 12.880843 2.3509528e-038
36.010662 269.77484 12.714327 2.3509528e-038
40.505882 267.86249 12.624198 2.3509528e-038
43.525959 268.26633 12.64323 2.3509528e-038
-49.37323 288.65329 8.4848442 2.3509886e-038
-48.40115 288.08905 8.4682579 2.3509886e-038
-42.950619 285.8176 8.4014902 2.3509886e-038
-37.873463 285.75546 8.3996639 2.3509886e-038
-32.903145 286.60474 8.4246273 2.3509886e-038
-27.925138 287.68515 8.4563856 2.3509886e-038
-22.803894 287.44308 8.4492702 2.3509886e-038
-17.008673 276.12027 8.1164408 2.3418052e-038
-11.077338 252.53838 7.4232612 2.3418052e-038
-6.2672949 239.8582 7.0505323 2.3418052e-038
-2.078553 247.61313 7.2784853 2.3418052e-038
2.4679008 264.21637 7.7665305 2.3418052e-038
7.4457617 275.00235 8.08358 2.3509886e-038
12.413932 277.03439 8.1433115 2.3509886e-038
17.343145 277.29117 8.1508598 2.3509886e-038
22.240875 277.04236 8.1435452 2.3509886e-038
26.964872 275.11105 8.0867758 2.3509528e-038
31.581852 272.84698 8.0202236 2.3509528e-038
36.275745 271.76074 7.9882936 2.3509528e-038
41.135662 272.02719 7.9961271 2.3509528e-038
42.205486 272.41 8.0073795 2.3509528e-038
-47.473457 291.07306 3.3938463 2.3509886e-038
-43.335548 288.37912 3.3624358 2.3509886e-038
-38.052925 287.1095 3.3476319 2.3509886e-038
-32.997719 287.42853 3.351352 2.3509886e-038
-27.966213 288.10828 3.3592777 2.3509886e-038
-22.785006 287.20502 3.3487458 2.3509886e-038
-16.961012 275.34656 3.2104788 2.3509886e-038
-11.191516 255.14137 2.9748912 2.3418052e-038
-6.4747405 247.79742 2.8892622 2.3418052e-038
-2.176825 259.32004 3.0236135 2.3418052e-038
2.5610449 274.18848 3.1969762 2.3509886e-038
7.5856175 280.16782 3.2666938 2.3509886e-038
12.520636 279.41565 3.2579236 2.3509886e-038
17.375919 277.81522 3.2392631 2.3509886e-038
22.190498 276.41486 3.222935 2.3509886e-038
26.966698 275.12967 3.2079501 2.3509528e-038
31.736542 274.18338 3.1969166 2.3509528e-038
36.626125 274.38562 3.1992745 2.3509528e-038
41.299526 276.78973 3.2273059 2.3509528e-038
-45.535084 291.5343 -1.7710707 2.3509886e-038
-43.620083 290.27258 -1.7634059 2.3509886e-038
-38.225159 288.409 -1.7520845 2.3509886e-038
-33.097839 288.30063 -1.7514261 2.3509886e-038
-27.975077 288.19962 -1.7508124 2.3509886e-038
-22.649202 285.49319 -1.7343709 2.3509886e-038
-17.131926 278.12119 -1.6895859 2.3509886e-038
-11.767708 268.27725 -1.6297842 2.3509886e-038
-6.9694266 266.72977 -1.6203833 2.3509886e-038
-2.3113265 275.34293 -1.672708 2.3509886e-038
2.6444185 283.11456 -1.7199208 2.3509886e-038
7.6994562 284.37231 -1.7275617 2.3509886e-038
12.66053 282.53757 -1.7164156 2.3509886e-038
17.535408 280.36517 -1.7032182 2.3509886e-038
22.354263 278.45477 -1.6916126 2.3509886e-038
27.16427 277.14542 -1.6836582 2.3509886e-038
31.987108 276.34814 -1.6788149 2.3509528e-038
36.937675 276.71964 -1.6810716 2.3509528e-038
40.83802 279.44501 -1.6976281 2.3509528e-038
-43.891083 291.76062 -6.9467649 2.3509886e-038
-43.838833 291.72827 -6.9459944 2.3509886e-038
-38.342632 289.29535 -6.8880668 2.3509886e-038
-33.119396 288.4884 -6.8688536 2.3509886e-038
-27.746817 285.84808 -6.8059883 2.3509886e-038
-21.886189 275.87543 -6.568541 2.3509886e-038
-16.620539 269.81927 -6.424345 2.3509886e-038
-11.980052 273.11823 -6.502893 2.3509886e-038
-7.332159 280.61206 -6.6813192 2.3509886e-038
-2.4039781 286.38025 -6.8186598 2.3509886e-038
2.6924996 288.26218 -6.8634677 2.3509886e-038
7.7837291 287.48489 -6.8449602 2.3509886e-038
12.801609 285.68594 -6.8021283 2.3509886e-038
17.724737 283.39227 -6.7475162 2.3509886e-038
22.568111 281.11856 -6.6933794 2.3509886e-038
27.391062 279.45926 -6.653872 2.3509886e-038
32.238884 278.52335 -6.631588 2.3509528e-038
37.215611 278.80176 -6.638217 2.3509528e-038
40.939259 281.53354 -6.7032599 2.3509528e-038
-42.41608 291.78326 -12.122025 2.3509886e-038
-38.329922 289.19943 -12.014681 2.3509886e-038
-32.972733 287.21085 -11.932066 2.3509886e-038
-27.244366 280.67181 -11.660403 2.3509886e-038
-20.729828 261.2995 -10.855588 2.3509886e-038
-15.487019 251.4176 -10.445049 2.3509886e-038
-11.419074 260.32919 -10.815277 2.3509886e-038
-7.2439842 277.23749 -11.517726 2.3509886e-038
-2.4149182 287.68353 -11.951704 2.3509886e-038
2.7064111 289.75156 -12.037618 2.3509886e-038
7.828228 289.12839 -12.011729 2.3509886e-038
12.889955 287.6575 -11.950622 2.3509886e-038
17.856918 285.50565 -11.861224 2.3509886e-038
22.742306 283.28839 -11.769109 2.3509886e-038
27.59762 281.56668 -11.697581 2.3509886e-038
32.476749 280.57831 -11.656519 2.3509886e-038
37.476578 280.75681 -11.663934 2.3509886e-038
41.273731 283.2421 -11.767185 2.3509886e-038
-40.546097 289.07706 -17.136322 2.3509886e-038
-38.037777 286.99521 -17.012913 2.3509886e-038
-32.555038 283.57254 -16.81002 2.3509886e-038
-26.530409 273.31662 -16.202053 2.3509886e-038
-20.008244 252.20392 -14.950504 2.3509886e-038
-14.874596 241.47546 -14.314528 2.3509886e-038
-10.91129 248.75288 -14.74593 2.3509886e-038
-7.0390863 269.39575 -15.969626 2.3509886e-038
-2.3973908 285.59555 -16.929941 2.3509886e-038
2.7079792 289.91943 -17.18626 2.3509886e-038
7.8447323 289.73798 -17.175501 2.3509886e-038
12.933672 288.63312 -17.110006 2.3509886e-038
17.944899 286.91235 -17.008001 2.3509886e-038
22.887032 285.09119 -16.900043 2.3509886e-038
27.780508 283.43265 -16.801723 2.3509886e-038
32.658047 282.14462 -16.725372 2.3509886e-038
37.658848 282.12228 -16.724049 2.3509886e-038
41.858829 284.35501 -16.856403 2.3509886e-038
-38.267353 284.09134 -21.879078 2.3509886e-038
-37.569305 283.4606 -21.830502 2.3509886e-038
-31.929626 278.12485 -21.419571 2.3509886e-038
-25.673929 264.49316 -20.36974 2.3509886e-038
-19.617222 247.2751 -19.043703 2.3509886e-038
-14.782726 239.98405 -18.482187 2.3509886e-038
-10.800135 246.21875 -18.962349 2.3509886e-038
-6.9711142 266.79434 -20.546963 2.3509886e-038
-2.392602 285.02502 -21.950987 2.3509886e-038
2.7143712 290.60379 -22.38063 2.3509886e-038
7.8640032 290.44974 -22.368765 2.3509886e-038
12.963587 289.30072 -22.280273 2.3509886e-038
18.005451 287.88049 -22.170897 2.3509886e-038
22.999624 286.49365 -22.064091 2.3509886e-038
27.9265 284.92212 -21.94306 2.3509886e-038
32.787292 283.26123 -21.815149 2.3509886e-038
37.756737 282.85562 -21.783911 2.3509886e-038
42.643314 284.70255 -21.926149 2.3509886e-038
-36.059101 280.45081 -26.572449 2.3509886e-038
-31.423666 273.71765 -25.934486 2.3509886e-038
-25.03824 257.94427 -24.439976 2.3509886e-038
-19.433712 244.96196 -23.209913 2.3509886e-038
-14.892243 241.76196 -22.906717 2.3509886e-038
-10.929016 249.15698 -23.607386 2.3509886e-038
-7.0295429 269.03049 -25.490383 2.3509886e-038
-2.4035056 286.32397 -27.128923 2.3509886e-038
2.7250383 291.74582 -27.642637 2.3509886e-038
7.8939924 291.55737 -27.624784 2.3509886e-038
13.00535 290.23273 -27.499273 2.3509886e-038
18.070971 288.92804 -27.375656 2.3509886e-038
23.093781 287.66653 -27.25613 2.3509886e-038
28.026947 285.94693 -27.093201 2.3509886e-038
32.879532 284.05811 -26.914234 2.3509886e-038
37.805862 283.22366 -26.835171 2.3509886e-038
43.030994 284.56088 -26.961874 2.3509886e-038
43.377743 284.74667 -26.979477 2.3509886e-038
-33.708 275.86829 -31.030731 2.3509886e-038
-31.027451 270.26639 -30.400606 2.3509886e-038
-24.724039 254.70737 -28.650469 2.3509886e-038
-19.460627 245.30121 -27.592426 2.3509886e-038
-15.11775 245.42287 -27.606112 2.3509886e-038
-11.208462 255.52771 -28.742743 2.3509886e-038
-7.1662793 274.26358 -30.850227 2.3509886e-038
-2.4203033 288.32507 -32.431915 2.3509886e-038
2.7317233 292.46152 -32.897202 2.3509886e-038
7.9210372 292.55621 -32.907856 2.3509886e-038
13.066589 291.59937 -32.80022 2.3509886e-038
18.162374 290.38947 -32.664127 2.3509886e-038
23.190493 288.87122 -32.493351 2.3509886e-038
28.09498 286.64105 -32.242493 2.3509886e-038
32.922832 284.43219 -31.994034 2.3509886e-038
37.854912 283.59113 -31.899422 2.3509886e-038
43.264328 286.10391 -32.182072 2.3509886e-038
44.22456 287.03659 -32.286983 2.3509886e-038
-31.332567 266.32199 -34.680096 2.3509886e-038
-30.33358 264.22238 -34.406689 2.3509886e-038
-24.570347 253.12402 -32.961472 2.3509886e-038
-19.683163 248.10628 -32.308067 2.3509886e-038
-15.484295 251.37338 -32.733509 2.3509886e-038
-11.590119 264.22864 -34.407505 2.3509886e-038
-7.3262396 280.3855 -36.511425 2.3509886e-038
-2.4340818 289.96646 -37.759048 2.3509886e-038
2.7336702 292.66995 -38.111092 2.3509886e-038
7.9380293 293.18381 -38.178005 2.3509886e-038
13.12059 292.80444 -38.128609 2.3509886e-038
18.238869 291.61249 -37.973389 2.3509886e-038
23.256947 289.69897 -37.724216 2.3509886e-038
28.146053 287.16214 -37.393871 2.3509886e-038
32.99065 285.0181 -37.114677 2.3509886e-038
38.042603 284.99719 -37.111958 2.3509886e-038
43.916523 290.41684 -37.817696 2.3509886e-038
45.248558 292.4975 -38.088634 2.3509886e-038
-30.377552 258.67093 -38.271263 2.3509886e-038
-29.595375 257.79221 -38.141254 2.3509886e-038
-24.595142 253.37947 -37.488377 2.3509886e-038
-20.048496 252.7113 -37.389519 2.3509886e-038
-15.930911 258.62381 -38.264294 2.3509886e-038
-11.908194 271.48001 -40.166416 2.3509886e-038
-7.4100928 283.59467 -41.958817 2.3509886e-038
-2.4350903 290.08658 -42.919319 2.3509886e-038
2.7336407 292.66678 -43.301071 2.3509886e-038
7.9477701 293.54358 -43.430794 2.3509886e-038
13.143103 293.30685 -43.395767 2.3509886e-038
18.263714 292.00974 -43.203857 2.3509886e-038
23.281765 290.00812 -42.907711 2.3509886e-038
28.21104 287.82516 -42.584736 2.3509886e-038
33.136139 286.27505 -42.355392 2.3509886e-038
38.347454 287.28101 -42.504227 2.3509886e-038
44.589317 294.86597 -43.626446 2.3509886e-038
46.068573 297.59073 -44.029587 2.3509886e-038
-31.014986 258.13306 -42.769627 2.3509886e-038
-29.540581 257.31491 -42.634071 2.3509886e-038
-24.872652 256.23837 -42.4557 2.3509886e-038
-20.473516 258.0687 -42.758961 2.3509886e-038
-16.298277 264.58765 -43.839073 2.3509886e-038
-12.039244 274.46765 -45.476074 2.3509886e-038
-7.3803544 282.45654 -46.79974 2.3509886e-038
-2.4159129 287.80203 -47.685429 2.3509886e-038
2.7243974 291.67722 -48.327499 2.3509886e-038
7.9499736 293.62497 -48.650219 2.3509886e-038
13.160849 293.70291 -48.663132 2.3509886e-038
18.288403 292.40445 -48.447994 2.3509886e-038
23.322779 290.51904 -48.135601 2.3509886e-038
28.317181 288.90805 -47.868683 2.3509886e-038
33.339592 288.03275 -47.723652 2.3509886e-038
38.687588 289.82913 -48.021294 2.3509886e-038
45.093353 298.19913 -49.4081 2.3509886e-038
46.615997 301.10083 -49.888878 2.3509886e-038
-32.085747 261.00824 -47.874939 2.3509886e-038
-29.861488 260.1102 -47.71022 2.3509886e-038
-25.221865 259.836 -47.659924 2.3509886e-038
-20.798397 262.16379 -48.086895 2.3509886e-038
-16.464966 267.29367 -49.027836 2.3509886e-038
-11.992282 273.39706 -50.147335 2.3509886e-038
-7.2766805 278.4888 -51.081276 2.3509886e-038
-2.3797114 283.48944 -51.998512 2.3509886e-038
2.6988106 288.93784 -52.997875 2.3509886e-038
7.9311056 292.9281 -53.729778 2.3509886e-038
13.182467 294.18533 -53.960388 2.3509886e-038
18.343309 293.28232 -53.794758 2.3509886e-038
23.40814 291.58234 -53.482937 2.3509886e-038
28.445124 290.21341 -53.231842 2.3509886e-038
33.530571 289.68268 -53.134499 2.3509886e-038
39.008446 292.23285 -53.602257 2.3509886e-038
45.63414 301.7753 -55.352562 2.3509886e-038
47.19865 304.98633 -55.941536 2.3509886e-038
-32.238129 263.39188 -52.983364 2.3509886e-038
-30.16563 262.75946 -52.856144 2.3509886e-038
-25.490177 262.60016 -52.8241 2.3509886e-038
-20.989727 264.5755 -53.221458 2.3509886e-038
-16.505907 267.95831 -53.901932 2.3509886e-038
-11.902596 271.35242 -54.584686 2.3509886e-038
-7.1816497 274.85184 -55.28862 2.3509886e-038
-2.345608 279.42679 -56.208908 2.3509886e-038
2.6666846 285.49838 -57.43026 2.3509886e-038
7.8892446 291.38202 -58.6138 2.3509886e-038
13.199155 294.55774 -59.252625 2.3509886e-038
18.424641 294.58273 -59.257645 2.3509886e-038
23.532009 293.12531 -58.964474 2.3509886e-038
28.606304 291.85788 -58.709522 2.3509886e-038
33.772312 291.77118 -58.692078 2.3509886e-038
39.425949 295.3606 -59.414124 2.3509886e-038
46.33643 306.41949 -61.638706 2.3509886e-038
47.727768 309.4473 -62.247772 2.3509886e-038
-30.718039 266.18756 -58.266518 2.3509886e-038
-30.557119 266.16956 -58.262577 2.3509886e-038
-25.821737 266.0159 -58.228943 2.3509886e-038
-21.18891 267.08621 -58.463226 2.3509886e-038
-16.555012 268.75549 -58.828621 2.3509886e-038
-11.865133 270.49832 -59.210117 2.3509886e-038
-7.1357403 273.09482 -59.778469 2.3509886e-038
-2.3257961 277.06662 -60.647869 2.3509886e-038
2.6424093 282.89948 -61.924637 2.3509886e-038
7.845777 289.77655 -63.429981 2.3509886e-038
13.208245 294.76062 -64.520958 2.3509886e-038
18.512625 295.98944 -64.789932 2.3509886e-038
23.673794 294.89142 -64.549591 2.3509886e-038
28.809216 293.9281 -64.338722 2.3509886e-038
34.102123 294.62051 -64.490288 2.3509886e-038
39.949051 299.27942 -65.510086 2.3509886e-038
46.883152 310.03494 -67.864388 2.3509886e-038
47.318825 310.8606 -68.045128 2.3509886e-038
-27.28083 272.82465 -64.557823 2.3509886e-038
-26.456882 272.55917 -64.495003 2.3509886e-038
-21.557161 271.72803 -64.29834 2.3509886e-038
-16.694706 271.02332 -64.131577 2.3509886e-038
-11.891396 271.09708 -64.149033 2.3509886e-038
-7.1335044 273.00925 -64.601501 2.3509886e-038
-2.3216734 276.57547 -65.445374 2.3509886e-038
2.6352146 282.12918 -66.759529 2.3509886e-038
7.8355184 289.39767 -68.479462 2.3509886e-038
13.242811 295.53198 -69.931007 2.3509886e-038
18.629883 297.86423 -70.48288 2.3509886e-038
23.884111 297.51126 -70.399353 2.3509886e-038
29.142601 297.3295 -70.356339 2.3509886e-038
34.592171 298.85419 -70.717133 2.3509886e-038
40.613262 304.2554 -71.995209 2.3509886e-038
45.440296 311.12717 -73.621254 2.3509886e-038
-22.114191 280.25125 -71.28537 2.3509886e-038
-16.998152 275.94946 -70.191154 2.3509886e-038
-12.011709 273.83997 -69.654572 2.3509886e-038
-7.1920147 275.24854 -70.012863 2.3509886e-038
-2.3427193 279.08264 -70.988121 2.3509886e-038
2.6597874 284.75998 -72.432213 2.3509886e-038
7.9069166 292.0347 -74.282623 2.3509886e-038
13.384366 298.69101 -75.975746 2.3509886e-038
18.895464 302.11047 -76.845528 2.3509886e-038
24.347116 303.27866 -77.14267 2.3509886e-038
29.885363 304.90756 -77.557007 2.3509886e-038
35.582104 307.40662 -78.192665 2.3509886e-038
41.653008 312.04465 -79.372406 2.3509886e-038
41.750721 312.14597 -79.398186 2.3509886e-038
-14.363318 280.59314 -76.348572 2.3509886e-038
-12.275796 279.86053 -76.149231 2.3509886e-038
-7.3732314 282.18396 -76.781433 2.3509886e-038
-2.415725 287.77966 -78.304008 2.3509886e-038
2.7441831 293.7955 -79.940903 2.3509886e-038
8.1150331 299.72131 -81.553291 2.3509886e-038
13.704411 305.83325 -83.216331 2.3509886e-038
19.440575 310.82599 -84.574844 2.3509886e-038
25.247129 314.48959 -85.571709 2.3509886e-038
31.252075 318.85153 -86.758568 2.3509886e-038
35.700264 322.26624 -87.687698 2.3509886e-038
0.57525992 308.25546 -89.342285 2.3509886e-038
2.8943038 309.86755 -89.809525 2.3509886e-038
8.456706 312.34064 -90.526306 2.3509886e-038
13.072979 315.27527 -91.376854 2.3509886e-038
-64.326973 269.21042 65.489082 3.5733111e-043
-65.829506 275.4986 51.309269 3.5733111e-043
-59.128155 267.29175 64.607002 3.5733111e-043
-60.973412 275.63333 39.633377 3.5733111e-043
-54.639957 268.53107 60.040955 3.5733111e-043
-56.762085 278.96039 27.834887 3.5733111e-043
-50.416988 271.43497 52.907146 3.5733111e-043
-52.587093 283.11838 16.929831 3.5733111e-043
-46.100872 274.39752 44.539257 2.3509886e-038
-48.690018 289.80838 6.6317606 2.3509886e-038
-41.45295 275.85126 34.861416 3.5733111e-043
-43.846088 291.77658 -7.101367 2.3509886e-038
-37.323517 281.60611 25.208662 3.5733111e-043
-37.449406 282.55594 -23.589792 2.3509886e-038
-31.195503 271.73022 86.663246 2.3418409e-038
-31.883877 277.72632 70.119881 2.3418409e-038
-32.94067 286.93161 17.910112 2.3509886e-038
-30.585228 266.41437 -58.547871 2.3509886e-038
-26.188101 269.79016 87.615295 2.3418409e-038
-27.66567 285.01208 43.739399 2.3418409e-038
-28.25462 291.07947 15.61641 2.3509886e-038
-26.609543 274.13187 -65.620293 2.3509886e-038
-21.459932 270.50244 82.203773 2.3418409e-038
-22.225697 280.15491 -71.167725 2.3509886e-038
-16.863901 273.77002 67.691109 2.3418409e-038
-17.28854 280.66364 -74.700401 2.3509886e-038
-12.176929 277.60657 52.844482 2.3509886e-038
-12.354958 281.66522 -77.659363 2.3509886e-038
-7.0907092 271.37143 32.133232 2.3418052e-038
-7.5698004 289.70691 -81.935661 2.3509886e-038
-2.1433549 255.33282 28.526888 2.3509886e-038
-2.5385518 302.41171 -87.041061 2.3509886e-038
2.3565898 252.29929 30.196079 2.3509886e-038
2.9047415 310.98505 -90.465828 2.3509886e-038
6.8568053 253.2498 30.828377 2.3509886e-038
8.4872112 313.46735 -91.288605 2.3509886e-038
11.547322 257.69479 26.60076 2.3509886e-038
14.159564 315.99063 -91.447586 2.3509886e-038
17.331047 277.09775 12.526106 2.3509886e-038
20.072529 320.92999 -92.084862 2.3509886e-038
22.351114 278.41553 10.850914 2.3509886e-038
26.029583 324.23621 -91.945305 2.3509886e-038
27.337111 278.90881 14.767047 2.3509886e-038
31.818609 324.63162 -90.303406 2.3509886e-038
31.666637 273.57947 21.587103 2.3509528e-038
37.08577 320.39728 -86.284088 2.3509886e-038
35.627724 266.90607 30.157734 2.3509528e-038
41.679165 312.24063 -79.52314 2.3509886e-038
39.001499 257.91412 40.092224 2.3509528e-038
41.624027 275.25671 5.1446962 2.3509528e-038
43.041451 284.63004 -24.621378 2.3509886e-038
46.991543 310.75171 -69.182777 2.3509886e-038
42.442997 251.21075 45.797058 2.3509528e-038
44.786907 265.08386 17.267731 2.3509528e-038
46.501637 249.08679 45.623436 2.3509528e-038
47.21106 252.88683 35.568214 2.3509528e-038
