# .PCD v0.7 - Point Cloud Data file format
VERSION 0.7
FIELDS x y z rgb
SIZE 4 4 4 4
TYPE F F F F
COUNT 1 1 1 1
WIDTH 792
HEIGHT 1
VIEWPOINT 0 0 0 1 0 0 0
POINTS 792
DATA ascii
-51.421726 341.19443 24.103933 2.3418052e-038
-9.3212013 329.85715 48.159538 9.1476764e-041
-58.189953 316.80252 -31.333052 3.5733111e-043
0 0 0 2.3509528e-038
51.016846 349.42755 32.914093 2.3418409e-038
-12.243374 330.81677 52.9361 9.1476764e-041
-7.8181362 333.21957 53.320591 9.1476764e-041
-4.5450125 336.40857 53.830875 9.1476764e-041
-12.864273 329.37454 48.162331 9.1476764e-041
-12.276988 329.53787 48.186211 9.1476764e-041
-7.788734 331.9664 48.541317 9.1476764e-041
-3.2526178 336.37585 49.186085 9.1476764e-041
-1.7358862 338.44705 49.488941 9.1476764e-041
-12.103176 329.79959 43.675629 9.1476764e-041
-7.7992787 332.41586 44.022099 9.1476764e-041
-3.2581236 336.94522 44.621929 9.1476764e-041
0.29963243 341.81049 45.266239 9.1476764e-041
-56.016289 340.23218 40.364483 2.3509886e-038
-54.78141 339.43454 40.269852 2.3509886e-038
-50.046577 339.0748 40.227173 2.3509886e-038
-45.888138 342.94879 40.686779 2.3509886e-038
-45.635906 343.33664 40.732788 2.3509886e-038
-10.801233 331.28604 39.303131 9.1476764e-041
-7.825356 333.52725 39.569023 9.1476764e-041
-3.2708278 338.25906 40.130398 9.1476764e-041
1.4194895 344.2724 40.843807 9.1476764e-041
1.9620581 345.12518 40.944977 9.1476764e-041
-55.585499 337.62299 35.398163 2.3418052e-038
-54.396286 337.04822 35.337898 2.3418052e-038
-49.786774 337.31454 35.365822 2.3418052e-038
-45.665241 341.28296 35.781891 2.3418052e-038
-41.837219 348.60895 36.549984 2.3509886e-038
-41.632668 349.12411 36.604 2.3509886e-038
-9.561697 334.29971 35.049732 9.1476764e-041
-7.8732481 335.56851 35.182758 9.1476764e-041
-3.2917609 340.42395 35.691826 9.1476764e-041
1.4275585 346.22943 36.300507 9.1476764e-041
3.5812004 349.38879 36.631752 9.1476764e-041
48.905842 351.43848 36.846649 2.3418409e-038
50.025848 352.16833 36.923172 2.3418409e-038
55.622986 356.91504 37.420837 2.3418409e-038
56.52272 357.89694 37.523792 2.3418409e-038
-73.8759 354.31082 32.260876 2.3418052e-038
-71.354584 351.90155 32.041508 2.3418052e-038
-65.538414 346.80853 31.577778 2.3418052e-038
-64.122261 345.52988 31.461355 2.3418052e-038
-54.565639 337.80847 30.758299 2.3418052e-038
-54.514877 337.78305 30.755983 2.3418052e-038
-49.754478 337.09576 30.693407 2.3418052e-038
-45.540684 340.35205 30.989899 2.3418052e-038
-41.640331 346.96838 31.592331 2.3418052e-038
-38.518898 355.28595 32.349667 2.3509886e-038
-8.8372984 338.57343 30.827951 9.1476764e-041
-7.9526658 338.9534 30.862547 9.1476764e-041
-3.3179481 343.13214 31.243032 9.1476764e-041
1.4377118 348.69196 31.749268 9.1476764e-041
5.3476982 353.62952 32.198845 9.1476764e-041
45.358574 348.53165 31.734671 2.3418409e-038
49.787094 350.48755 31.912764 2.3418409e-038
55.310108 354.90738 32.315197 2.3418409e-038
56.877983 356.6507 32.473934 2.3418409e-038
-75.171791 355.16306 27.439793 2.3418052e-038
-71.256218 351.41647 27.15033 2.3418052e-038
-65.713608 347.7356 26.865946 2.3418052e-038
-60.492104 345.30798 26.678389 2.3418052e-038
-55.18906 341.96039 26.419758 2.3418052e-038
-50.079956 339.30093 26.214287 2.3418052e-038
-45.564346 340.5289 26.30916 2.3418052e-038
-41.469769 345.54718 26.696871 2.3418052e-038
-37.585224 353.84607 27.338041 2.3509886e-038
-35.251225 360.49841 27.851999 2.3509886e-038
-8.4102602 343.36459 26.528244 9.1476764e-041
-8.055089 343.31882 26.524708 9.1476764e-041
-3.3413789 345.55524 26.697495 9.1476764e-041
1.4423842 349.8251 27.027382 9.1476764e-041
6.3472352 354.27927 27.37151 9.1476764e-041
7.2598028 355.15738 27.439352 9.1476764e-041
42.934647 346.90533 26.8018 2.3418409e-038
44.460239 346.64639 26.781796 2.3418409e-038
49.511333 348.5463 26.928581 2.3418409e-038
54.939518 352.52945 27.236319 2.3418409e-038
55.65567 353.26993 27.293528 2.3418409e-038
-74.114342 355.44348 22.558897 2.3418052e-038
-71.643433 353.32611 22.424515 2.3418052e-038
-66.240532 350.52393 22.246668 2.3418052e-038
-61.287189 349.84659 22.203682 2.3418052e-038
-56.189732 348.16071 22.096684 2.3418052e-038
-50.923496 345.01605 21.897102 2.3418052e-038
-45.890549 342.9668 21.76704 2.3418052e-038
-41.394543 344.92038 21.891029 2.3418052e-038
-37.20668 350.28226 22.231331 2.3509886e-038
-33.114952 358.28488 22.739233 2.3509886e-038
-31.37501 362.55029 23.009945 2.3509886e-038
-7.88238 347.5351 22.056978 9.1476764e-041
-3.3605247 347.53525 22.056988 9.1476764e-041
1.4435904 350.11765 22.220884 9.1476764e-041
6.3317189 353.41324 22.430044 9.1476764e-041
9.142746 355.94809 22.590923 9.1476764e-041
40.753708 345.79654 21.946634 2.3418409e-038
44.287369 345.29852 21.91503 2.3418409e-038
49.310677 347.13373 22.031506 2.3418409e-038
53.959076 350.20526 22.226446 2.3418409e-038
-71.613083 355.34805 17.6516 2.3418052e-038
-66.72921 353.10983 17.540419 2.3418052e-038
-61.824707 352.91489 17.530737 2.3418052e-038
-56.908344 352.61334 17.515757 2.3418052e-038
-51.744595 350.57916 17.414711 2.3418052e-038
-46.476879 347.34879 17.254244 2.3418052e-038
-41.550198 346.21735 17.198042 2.3418052e-038
-36.993153 348.27203 17.300106 2.3509886e-038
-32.685627 353.6398 17.566746 2.3509886e-038
-28.466459 362.01413 17.982733 2.3509886e-038
-27.408615 364.37903 18.100208 2.3509886e-038
-7.0285101 352.83951 17.526991 9.1476764e-041
-3.3883042 350.40814 17.406216 9.1476764e-041
1.4462067 350.7522 17.423307 9.1476764e-041
6.3219633 352.86871 17.528442 9.1476764e-041
10.886632 356.61392 17.714483 9.1476764e-041
38.491543 344.96918 17.136042 2.3418409e-038
39.451191 344.65588 17.120478 2.3418409e-038
44.178417 344.44907 17.110205 2.3418409e-038
49.184574 346.246 17.199467 2.3418409e-038
52.154831 348.25388 17.299206 2.3418409e-038
-68.337349 355.34131 12.75012 2.3509886e-038
-67.074646 354.93784 12.735642 2.3418052e-038
-62.028706 354.07941 12.704841 2.3418052e-038
-57.115231 353.89523 12.698233 2.3509886e-038
-52.205433 353.70142 12.691278 2.3509886e-038
-47.1777 352.58643 12.65127 2.3509886e-038
-42.019878 350.13095 12.563166 2.3509886e-038
-37.100025 349.27814 12.532566 2.3509886e-038
-32.551468 352.18829 12.636986 2.3509886e-038
-28.179993 358.37106 12.858831 2.3509886e-038
-23.717272 365.77728 13.124577 2.3509886e-038
-23.589758 365.97797 13.131778 2.3509886e-038
-5.9157429 357.58221 12.830526 9.1476764e-041
-3.4289 354.60641 12.723751 9.1476764e-041
1.4530371 352.40878 12.644897 9.1476764e-041
6.3253698 353.05884 12.668222 9.1476764e-041
11.280021 355.73862 12.764376 9.1476764e-041
12.475277 356.70688 12.799119 9.1476764e-041
36.118149 345.68005 12.403461 2.3418409e-038
39.405781 344.25919 12.352478 2.3418409e-038
44.141117 344.15826 12.348857 2.3418409e-038
49.132111 345.87671 12.410517 2.3418409e-038
50.4212 346.8588 12.445756 2.3418409e-038
-64.952187 355.99658 7.8634591 2.3509886e-038
-62.114548 354.5694 7.8319349 2.3509886e-038
-57.108017 353.85059 7.8160577 2.3509886e-038
-52.467594 355.47763 7.8519964 2.3509886e-038
-47.829613 357.45856 7.8957529 2.3509886e-038
-42.72736 356.02606 7.86411 2.3509886e-038
-37.539948 353.4198 7.8065424 2.3509886e-038
-32.644196 353.19159 7.8015013 2.3509886e-038
-28.045235 356.65732 7.8780551 2.3509886e-038
-23.484962 362.19455 8.0003633 2.3509886e-038
-19.786669 367.56171 8.1189165 2.3509886e-038
-4.8993053 361.48434 7.9846764 2.3509886e-038
-3.4770079 359.5816 7.9426475 9.1476764e-041
1.464354 355.1535 7.8448372 9.1476764e-041
6.3510118 354.49008 7.830183 9.1476764e-041
11.29427 356.18799 7.8676872 9.1476764e-041
13.933605 357.89282 7.9053445 9.1476764e-041
33.60873 348.69913 7.7022691 2.3418409e-038
34.973656 347.39984 7.6735697 2.3418409e-038
39.528904 345.33481 7.6279559 2.3418409e-038
44.282337 345.25931 7.6262884 2.3418409e-038
48.98896 346.72849 7.65874 2.3418409e-038
-61.370651 354.96982 2.9447439 2.3509886e-038
-57.206448 354.46045 2.9405184 2.3509886e-038
-52.747456 357.37372 2.9646862 2.3509886e-038
-48.306351 361.02148 2.9949472 2.3509886e-038
-43.370697 361.38669 2.9979768 2.3509886e-038
-38.111305 358.79889 2.9765091 2.3509886e-038
-32.937767 356.36789 2.956342 2.3509886e-038
-28.070763 356.98196 2.9614363 2.3509886e-038
-23.347933 360.08124 2.9871469 2.3509886e-038
-18.660582 365.54974 3.0325124 2.3509886e-038
-15.527272 369.49948 3.0652785 2.3509886e-038
-4.7375822 367.4024 3.0478816 2.3509886e-038
-3.5354707 365.62766 3.0331585 2.3509886e-038
1.4803153 359.02469 2.9783819 2.3509886e-038
6.396956 357.0545 2.962038 9.1476764e-041
11.364481 358.40225 2.9732187 2.3509886e-038
15.519286 361.14404 2.9959636 2.3509886e-038
30.7995 353.00119 2.9284124 2.3509886e-038
35.196056 349.60895 2.9002714 2.3418409e-038
39.906128 348.63034 2.892153 2.3418409e-038
44.790028 349.21765 2.8970253 2.3418409e-038
47.986572 350.00723 2.9035757 2.3418409e-038
-58.451412 357.06659 -1.9627926 2.3509886e-038
-57.666725 357.31241 -1.9641438 2.3509886e-038
-53.222397 360.59152 -1.982169 2.3509886e-038
-48.665527 363.70584 -1.9992883 2.3509886e-038
-43.765953 364.68018 -2.0046442 2.3509886e-038
-38.587349 363.28061 -1.9969507 2.3509886e-038
-33.350468 360.83301 -1.9834965 2.3509886e-038
-28.260279 359.39209 -1.9755757 2.3509886e-038
-23.350035 360.11362 -1.979542 2.3509886e-038
-18.574499 363.86346 -2.000155 2.3509886e-038
-13.770662 369.63092 -2.0318584 2.3509886e-038
-8.7603559 373.37823 -2.0524576 2.3509886e-038
-3.5734487 369.55521 -2.0314422 2.3509886e-038
1.4958311 362.78775 -1.9942417 2.3509886e-038
6.452002 360.12701 -1.9796156 2.3509886e-038
11.444567 360.92792 -1.9840181 2.3509886e-038
16.52817 363.24466 -1.9967532 2.3509886e-038
18.612755 363.7511 -1.999537 2.3509886e-038
26.41114 357.35693 -1.9643884 2.3509886e-038
30.703623 353.40314 -1.9426546 2.3509886e-038
35.429283 351.92566 -1.9345329 2.3418409e-038
40.379414 352.76505 -1.9391469 2.3418409e-038
45.524803 354.94653 -1.9511385 2.3418409e-038
47.183823 355.73654 -1.9554813 2.3418409e-038
-56.293808 364.87186 -7.0382981 2.3509886e-038
-53.998989 365.85309 -7.0572257 2.3509886e-038
-49.047611 366.56137 -7.070889 2.3509886e-038
-43.976261 366.43256 -7.0684037 2.3509886e-038
-38.906616 366.28632 -7.0655828 2.3509886e-038
-33.790882 365.59808 -7.0523067 2.3509886e-038
-28.602491 363.74408 -7.0165434 2.3509886e-038
-23.533081 362.93665 -7.0009685 2.3509886e-038
-18.618338 364.72223 -7.0354114 2.3509886e-038
-13.730854 368.56241 -7.109488 2.3509886e-038
-8.7164946 371.50882 -7.1663232 2.3509886e-038
-3.5733287 369.54282 -7.1283998 2.3509886e-038
1.5056487 365.16885 -7.0440269 2.3509886e-038
6.5006561 362.84268 -6.9991555 2.3509886e-038
11.49556 362.53607 -6.9932413 2.3509886e-038
16.494287 362.5 -6.9925456 2.3509886e-038
21.381184 360.59424 -6.9557838 2.3509886e-038
26.055326 356.49713 -6.8767514 2.3509886e-038
30.720089 353.59265 -6.820725 2.3509886e-038
35.5919 353.54099 -6.8197279 2.3418409e-038
40.769051 356.16904 -6.8704224 2.3418409e-038
46.25079 360.71136 -6.9580431 2.3418409e-038
-53.813931 372.53156 -12.324301 2.3509886e-038
-49.585491 370.58127 -12.25978 2.3509886e-038
-44.27002 368.88031 -12.203507 2.3509886e-038
-39.213802 369.17831 -12.213367 2.3509886e-038
-34.197655 369.99911 -12.24052 2.3509886e-038
-29.034464 369.23755 -12.215325 2.3509886e-038
-23.855417 367.90784 -12.171336 2.3509886e-038
-18.763208 367.56018 -12.159835 2.3509886e-038
-13.727077 368.461 -12.189636 2.3509886e-038
-8.6611223 369.14877 -12.212388 2.3509886e-038
-3.559746 368.13812 -12.178955 2.3509886e-038
1.5099312 366.20746 -12.115083 2.3509886e-038
6.5338511 364.6955 -12.065063 2.3509886e-038
11.521707 363.36069 -12.020904 2.3509886e-038
16.457542 361.69244 -11.965715 2.3509886e-038
21.303278 359.2803 -11.885915 2.3509886e-038
26.04332 356.33282 -11.788405 2.3509886e-038
30.775723 354.23303 -11.718938 2.3509886e-038
35.715591 354.76962 -11.736691 2.3418409e-038
41.029873 358.44766 -11.858369 2.3418409e-038
45.149734 363.02676 -12.009857 2.3418409e-038
-50.56691 376.48959 -17.648098 2.3509886e-038
-50.356754 376.34537 -17.641336 2.3509886e-038
-44.846661 373.68515 -17.516638 2.3509886e-038
-39.640369 373.19424 -17.493626 2.3509886e-038
-34.521114 373.49878 -17.507902 2.3509886e-038
-29.340693 373.13193 -17.490705 2.3509886e-038
-24.119556 371.98151 -17.436779 2.3509886e-038
-18.925152 370.73254 -17.378233 2.3509886e-038
-13.778461 369.84027 -17.336409 2.3509886e-038
-8.6603289 369.11493 -17.302406 2.3509886e-038
-3.5627766 368.45154 -17.271311 2.3509886e-038
1.5161092 367.70584 -17.236355 2.3509886e-038
6.5668187 366.53564 -17.181501 2.3509886e-038
11.558372 364.517 -17.086876 2.3509886e-038
16.474239 362.05942 -16.971678 2.3509886e-038
21.315992 359.49475 -16.851458 2.3509886e-038
26.087698 356.94003 -16.731703 2.3509886e-038
30.832865 354.89075 -16.635641 2.3509886e-038
35.764816 355.25858 -16.652885 2.3418409e-038
41.107594 359.12665 -16.834204 2.3418409e-038
44.018147 362.62045 -16.997974 2.3418409e-038
-47.303436 380.65732 -23.093771 2.3509886e-038
-45.660255 380.46445 -23.082069 2.3509886e-038
-40.213333 378.58838 -22.968252 2.3509886e-038
-34.809429 376.61813 -22.848724 2.3509886e-038
-29.516476 375.3674 -22.772842 2.3509886e-038
-24.279486 374.448 -22.717064 2.3509886e-038
-19.063505 373.44281 -22.65608 2.3509886e-038
-13.869786 372.29163 -22.586241 2.3509886e-038
-8.7111511 371.28107 -22.524931 2.3509886e-038
-3.5835836 370.60333 -22.483814 2.3509886e-038
1.5249388 369.84732 -22.43795 2.3509886e-038
6.5994244 368.35556 -22.347448 2.3509886e-038
11.601746 365.88486 -22.197554 2.3509886e-038
16.522039 363.10992 -22.029203 2.3509886e-038
21.367006 360.3551 -21.862074 2.3509886e-038
26.131947 357.54547 -21.691618 2.3509886e-038
30.851597 355.10635 -21.543642 2.3509886e-038
35.72823 354.89517 -21.53083 2.3509886e-038
41.003853 358.22034 -21.732561 2.3418409e-038
42.970573 360.39935 -21.864759 2.3418409e-038
-44.332855 385.01593 -28.668631 2.3509886e-038
-40.799824 384.10992 -28.601168 2.3509886e-038
-35.114052 379.91403 -28.288738 2.3509886e-038
-29.667349 377.2861 -28.09306 2.3509886e-038
-24.394043 376.21475 -28.013285 2.3509886e-038
-19.173826 375.60394 -27.967806 2.3509886e-038
-13.963115 374.79672 -27.9077 2.3509886e-038
-8.7708321 373.82474 -27.835325 2.3509886e-038
-3.6057687 372.89764 -27.766293 2.3509886e-038
1.5324502 371.66907 -27.674809 2.3509886e-038
6.6221056 369.62155 -27.52235 2.3509886e-038
11.629495 366.76001 -27.309278 2.3509886e-038
16.555223 363.83923 -27.091795 2.3509886e-038
21.40173 360.94073 -26.875969 2.3509886e-038
26.146559 357.74542 -26.638042 2.3509886e-038
30.830912 354.86826 -26.423809 2.3509886e-038
35.638092 353.99982 -26.359142 2.3509886e-038
40.787891 356.33365 -26.532923 2.3509886e-038
42.238964 357.63245 -26.629633 2.3509886e-038
-64.373489 318.85904 -28.140495 3.5733111e-043
-60.008961 317.54843 -28.024828 3.5733111e-043
-55.63858 317.60254 -28.029604 3.5733111e-043
-54.811852 317.92474 -28.058039 3.5733111e-043
-41.788685 386.31012 -34.093304 2.3509886e-038
-41.052792 386.49152 -34.10931 2.3509886e-038
-35.344585 382.40826 -33.748951 2.3509886e-038
-29.79265 378.87958 -33.437531 2.3509886e-038
-24.479206 377.52817 -33.318264 2.3509886e-038
-19.246656 377.03064 -33.274353 2.3509886e-038
-14.021008 376.35071 -33.214344 2.3509886e-038
-8.8053322 375.29517 -33.121189 2.3509886e-038
-3.6175721 374.11832 -33.017334 2.3509886e-038
1.5361782 372.57324 -32.880974 2.3509886e-038
6.6326022 370.20743 -32.67218 2.3509886e-038
11.639145 367.06436 -32.394794 2.3509886e-038
16.564777 364.04916 -32.128693 2.3509886e-038
21.414637 361.15839 -31.873569 2.3509886e-038
26.152452 357.82602 -31.579475 2.3509886e-038
30.804993 354.56995 -31.292114 2.3509886e-038
35.541245 353.03778 -31.156897 2.3509886e-038
40.559982 354.34256 -31.272047 2.3509886e-038
42.094734 355.41324 -31.366539 2.3509886e-038
-67.574814 322.46588 -32.906502 3.5733111e-043
-65.046471 320.79163 -32.735653 3.5733111e-043
-60.231354 318.72525 -32.524788 3.5733111e-043
-55.649338 317.66394 -32.416481 3.5733111e-043
-51.513752 319.18759 -32.571964 3.5733111e-043
-47.857555 324.24374 -33.087929 3.5733111e-043
-47.392014 325.28207 -33.193886 3.5733111e-043
-39.831779 381.15253 -38.895271 2.3509886e-038
-35.218052 381.03925 -38.883709 2.3509886e-038
-29.782614 378.75192 -38.650295 2.3509886e-038
-24.478811 377.52209 -38.524796 2.3509886e-038
-19.246439 377.02634 -38.474205 2.3509886e-038
-14.019573 376.31216 -38.401329 2.3509886e-038
-8.8036661 375.22421 -38.290302 2.3509886e-038
-3.6164992 374.00739 -38.16613 2.3509886e-038
1.5356469 372.4444 -38.006634 2.3509886e-038
6.6302614 370.07678 -37.765026 2.3509886e-038
11.633101 366.87378 -37.438171 2.3509886e-038
16.556757 363.87292 -37.131947 2.3509886e-038
21.41037 361.08646 -36.847599 2.3509886e-038
26.145838 357.73553 -36.505646 2.3509886e-038
30.759109 354.04181 -36.128716 2.3509886e-038
35.422047 351.85379 -35.905437 2.3509886e-038
40.342266 352.44055 -35.965317 2.3509886e-038
42.475655 353.7709 -36.101074 2.3509886e-038
-64.697357 324.84976 -37.630363 3.5733111e-043
-61.086109 323.24835 -37.444859 3.5733111e-043
-56.350998 321.66925 -37.261936 3.5733111e-043
-51.962486 321.96802 -37.296543 3.5733111e-043
-47.911392 324.60849 -37.602417 3.5733111e-043
-44.456879 332.25217 -38.487854 2.3509886e-038
-42.99332 342.965 -39.728821 2.3509886e-038
-39.195568 368.31964 -42.665882 2.3509886e-038
-39.140476 368.48801 -42.68539 2.3509886e-038
-34.69875 375.42068 -43.488464 2.3509886e-038
-29.578924 376.16156 -43.574287 2.3509886e-038
-24.362526 375.7287 -43.524147 2.3509886e-038
-19.163776 375.40707 -43.486885 2.3509886e-038
-13.964359 374.83014 -43.420055 2.3509886e-038
-8.774827 373.99503 -43.323318 2.3509886e-038
-3.6063404 372.95679 -43.203049 2.3509886e-038
1.531809 371.51355 -43.035866 2.3509886e-038
6.6165042 369.3089 -42.780479 2.3509886e-038
11.613605 366.25891 -42.42717 2.3509886e-038
16.534134 363.37576 -42.093189 2.3509886e-038
21.382734 360.62036 -41.774006 2.3509886e-038
26.100286 357.11227 -41.36763 2.3509886e-038
30.667706 352.98975 -40.890079 2.3509886e-038
35.27562 350.39929 -40.590004 2.3509886e-038
40.164009 350.88324 -40.646065 2.3509886e-038
43.157711 353.02219 -40.893837 2.3509886e-038
-60.846359 330.60919 -42.857548 3.5733111e-043
-57.644638 329.05377 -42.65591 3.5733111e-043
-52.925709 327.93628 -42.511051 3.5733111e-043
-48.437061 328.17004 -42.541351 3.5733111e-043
-44.404053 331.85736 -43.019348 3.5733111e-043
-41.187351 343.19391 -44.48893 2.3509886e-038
-37.955425 357.33133 -46.32159 2.3509886e-038
-33.970173 367.53787 -47.644688 2.3509886e-038
-29.191732 371.23758 -48.124283 2.3509886e-038
-24.132288 372.17783 -48.24617 2.3509886e-038
-19.011578 372.42557 -48.278282 2.3509886e-038
-13.874523 372.41876 -48.277405 2.3509886e-038
-8.7324991 372.19098 -48.247879 2.3509886e-038
-3.5920446 371.47836 -48.155499 2.3509886e-038
1.5261889 370.15048 -47.983364 2.3509886e-038
6.5950389 368.11078 -47.718948 2.3509886e-038
11.58309 365.29654 -47.354137 2.3509886e-038
16.49493 362.51413 -46.99345 2.3509886e-038
21.320833 359.57642 -46.612625 2.3509886e-038
25.997301 355.70322 -46.110535 2.3509886e-038
30.530712 351.41293 -45.554375 2.3509886e-038
35.131592 348.96866 -45.237518 2.3509886e-038
40.073387 350.09155 -45.38308 2.3509886e-038
43.786526 353.56567 -45.833439 2.3509886e-038
-57.143959 335.0921 -48.060539 3.5733111e-043
-53.796612 333.33255 -47.808174 3.5733111e-043
-48.992317 331.93198 -47.6073 3.5733111e-043
-44.521095 332.73212 -47.722061 3.5733111e-043
-40.614723 338.42252 -48.538204 3.5733111e-043
-37.018394 348.50967 -49.984955 2.3509886e-038
-33.149277 358.65625 -51.440228 2.3509886e-038
-28.640558 364.22818 -52.23938 2.3509886e-038
-23.778078 366.71509 -52.596062 2.3509886e-038
-18.787161 368.02939 -52.784565 2.3509886e-038
-13.749862 369.0726 -52.934193 2.3509886e-038
-8.6751413 369.74628 -53.030811 2.3509886e-038
-3.5740716 369.61963 -53.012646 2.3509886e-038
1.519778 368.59567 -52.865784 2.3509886e-038
6.5706086 366.74716 -52.600662 2.3509886e-038
11.545719 364.11798 -52.223576 2.3509886e-038
16.439137 361.28793 -51.817673 2.3509886e-038
21.228308 358.01596 -51.348392 2.3509886e-038
25.861084 353.83945 -50.749378 2.3509886e-038
30.39011 349.79456 -50.169239 2.3509886e-038
35.031078 347.97018 -49.907581 2.3509886e-038
40.086708 350.20792 -50.228523 2.3509886e-038
44.265079 355.3103 -50.960331 2.3509886e-038
-53.650139 336.76007 -52.944611 3.5733111e-043
-49.498341 335.36038 -52.724556 3.5733111e-043
-44.77578 334.6355 -52.610592 3.5733111e-043
-40.401085 336.64236 -52.926105 3.5733111e-043
-36.402802 342.71417 -53.880699 3.5733111e-043
-32.404316 350.59619 -55.119896 2.3509886e-038
-28.011049 356.22256 -56.004459 2.3509886e-038
-23.312996 359.54239 -56.526398 2.3509886e-038
-18.476959 361.95273 -56.905342 2.3509886e-038
-13.571922 364.29639 -57.273804 2.3509886e-038
-8.5912848 366.17218 -57.568718 2.3509886e-038
-3.5494728 367.07571 -57.710762 2.3509886e-038
1.512207 366.75946 -57.661041 2.3509886e-038
6.5435152 365.23492 -57.42136 2.3509886e-038
11.501799 362.73282 -57.027988 2.3509886e-038
16.370773 359.78549 -56.564613 2.3509886e-038
21.12212 356.2251 -56.00486 2.3509886e-038
25.721294 351.92682 -55.329086 2.3509886e-038
30.26527 348.35764 -54.767956 2.3509886e-038
34.964077 347.30469 -54.602413 2.3509886e-038
40.128685 350.57465 -55.116508 2.3509886e-038
44.531563 356.83774 -56.101177 2.3509886e-038
-51.023445 340.39612 -58.211258 3.5733111e-043
-50.201443 340.12402 -58.16473 3.5733111e-043
-45.285065 338.44168 -57.877029 3.5733111e-043
-40.549042 337.87518 -57.780159 3.5733111e-043
-36.148251 340.31766 -58.197849 3.5733111e-043
-31.883657 344.96298 -58.992245 2.3509886e-038
-27.442001 348.98584 -59.680199 2.3509886e-038
-22.81945 351.93073 -60.1838 2.3509886e-038
-18.109463 354.75366 -60.666553 2.3509886e-038
-13.337967 358.01654 -61.224541 2.3509886e-038
-8.4725819 361.11292 -61.754051 2.3509886e-038
-3.5140781 363.41531 -62.147781 2.3509886e-038
1.5019345 364.26801 -62.293606 2.3509886e-038
6.5101666 363.3735 -62.140636 2.3509886e-038
11.451365 361.1423 -61.759075 2.3509886e-038
16.300253 358.23566 -61.262009 2.3509886e-038
21.027716 354.63297 -60.645912 2.3509886e-038
25.611416 350.4234 -59.926029 2.3509886e-038
30.17207 347.28491 -59.38932 2.3509886e-038
34.916397 346.83109 -59.31171 2.3509886e-038
40.147152 350.73596 -59.979485 2.3509886e-038
44.607224 357.40393 -61.119778 2.3509886e-038
-49.208721 347.54901 -64.228172 3.5733111e-043
-46.237362 345.55875 -63.860355 3.5733111e-043
-41.090302 342.38525 -63.273884 3.5733111e-043
-36.247398 341.2511 -63.064293 3.5733111e-043
-31.647089 342.40347 -63.277252 2.3509886e-038
-27.057152 344.09164 -63.589237 2.3509886e-038
-22.419125 345.75677 -63.896954 2.3509886e-038
-17.763611 347.97864 -64.307564 2.3509886e-038
-13.084146 351.20352 -64.903534 2.3509886e-038
-8.3294115 355.0108 -65.607132 2.3509886e-038
-3.4677327 358.62238 -66.274559 2.3509886e-038
1.4879143 360.86768 -66.689499 2.3509886e-038
6.4676499 361.0004 -66.714027 2.3509886e-038
11.396855 359.42322 -66.422562 2.3509886e-038
16.239141 356.89258 -65.954887 2.3509886e-038
20.964304 353.56351 -65.339661 2.3509886e-038
25.555187 349.65408 -64.617188 2.3509886e-038
30.128061 346.77835 -64.085747 2.3509886e-038
34.896626 346.63467 -64.059196 2.3509886e-038
40.165737 350.89835 -64.847137 2.3509886e-038
44.647343 357.71713 -66.107269 2.3509886e-038
-47.773228 357.42529 -70.983215 2.3509886e-038
-42.075283 350.59265 -69.626282 3.5733111e-043
-36.653919 345.07831 -68.531158 2.3509886e-038
-31.643723 342.36703 -67.992699 2.3509886e-038
-26.85585 341.53168 -67.826797 2.3509886e-038
-22.160452 341.7674 -67.873619 2.3509886e-038
-17.516607 343.13998 -68.14621 2.3509886e-038
-12.884951 345.85672 -68.685738 2.3509886e-038
-8.2038155 349.65775 -69.440613 2.3509886e-038
-3.421623 353.85385 -70.273933 2.3509886e-038
1.4724988 357.12888 -70.924347 2.3509886e-038
6.4211087 358.40265 -71.177315 2.3509886e-038
11.342628 357.71307 -71.040359 2.3509886e-038
16.186226 355.72968 -70.646461 2.3509886e-038
20.919973 352.81589 -70.06781 2.3509886e-038
25.534208 349.36703 -69.382874 2.3509886e-038
30.128006 346.77771 -68.868645 2.3509886e-038
34.921776 346.88449 -68.889847 2.3509886e-038
40.234917 351.50269 -69.807007 2.3509886e-038
44.794956 358.71167 -71.238678 2.3509886e-038
-45.2603 364.97888 -77.51741 2.3509886e-038
-43.380714 361.47012 -76.772202 2.3509886e-038
-37.312214 351.27579 -74.60704 2.3509886e-038
-31.865089 344.76208 -73.223595 2.3509886e-038
-26.841938 341.35474 -72.499908 2.3509886e-038
-22.058235 340.19098 -72.252747 2.3509886e-038
-17.394581 340.74954 -72.371368 2.3509886e-038
-12.768784 342.73859 -72.793823 2.3509886e-038
-8.1158085 345.90677 -73.466713 2.3509886e-038
-3.3833482 349.8956 -74.313896 2.3509886e-038
1.4580561 353.62604 -75.106194 2.3509886e-038
6.3753614 355.84918 -75.578369 2.3509886e-038
11.288342 356.00104 -75.610626 2.3509886e-038
16.130749 354.51044 -75.294029 2.3509886e-038
20.87009 351.97461 -74.755455 2.3509886e-038
25.512474 349.06964 -74.138481 2.3509886e-038
30.143791 346.95941 -73.690277 2.3509886e-038
34.976688 347.42996 -73.790222 2.3509886e-038
40.326797 352.30539 -74.825706 2.3509886e-038
45.163513 360.24622 -76.512245 2.3509886e-038
-40.366211 363.54001 -82.226021 2.3509886e-038
-38.174866 359.39725 -81.289017 2.3509886e-038
-32.380783 350.34158 -79.240791 2.3509886e-038
-27.072515 344.28705 -77.871361 2.3509886e-038
-22.124327 341.21024 -77.175446 2.3509886e-038
-17.385582 340.57327 -77.03138 2.3509886e-038
-12.725824 341.58548 -77.260323 2.3509886e-038
-8.0657415 343.77283 -77.755058 2.3509886e-038
-3.3559062 347.05765 -78.498024 2.3509886e-038
1.4462439 350.7612 -79.335693 2.3509886e-038
6.3352633 353.61105 -79.980286 2.3509886e-038
11.236768 354.37457 -80.152977 2.3509886e-038
16.071541 353.20917 -79.889381 2.3509886e-038
20.810028 350.96167 -79.381042 2.3509886e-038
25.480886 348.63745 -78.855347 2.3509886e-038
30.164557 347.19843 -78.529861 2.3509886e-038
35.05088 348.1669 -78.748917 2.3509886e-038
40.430759 353.21362 -79.890396 2.3509886e-038
46.230892 363.06808 -82.119286 2.3509886e-038
-35.165668 363.61728 -87.25882 2.3509886e-038
-33.336979 360.6871 -86.555641 2.3509886e-038
-27.650414 351.63629 -84.383682 2.3509886e-038
-22.387703 345.27216 -82.856453 2.3509886e-038
-17.474331 342.31183 -82.146057 2.3509886e-038
-12.73982 341.96115 -82.061905 2.3509886e-038
-8.050005 343.10214 -82.335701 2.3509886e-038
-3.3409905 345.51511 -82.914757 2.3509886e-038
1.4384931 348.88141 -83.722588 2.3509886e-038
6.3073263 352.0517 -84.483368 2.3509886e-038
11.199057 353.18524 -84.755394 2.3509886e-038
16.02737 352.2384 -84.528175 2.3509886e-038
20.769228 350.27356 -84.056664 2.3509886e-038
25.473747 348.53976 -83.640594 2.3509886e-038
30.216633 347.79782 -83.462555 2.3509886e-038
35.163551 349.2861 -83.819702 2.3509886e-038
40.592266 354.6246 -85.1008 2.3509886e-038
46.80687 364.9425 -87.576828 2.3509886e-038
49.4487 370.12228 -88.819847 2.3509886e-038
-30.299938 367.6857 -93.306526 2.3509886e-038
-28.629686 364.0899 -92.394035 2.3509886e-038
-22.892879 353.0632 -89.595818 2.3509886e-038
-17.69014 346.53937 -87.940285 2.3509886e-038
-12.824049 344.22202 -87.352211 2.3509886e-038
-8.0757389 344.19894 -87.346359 2.3509886e-038
-3.3433609 345.76022 -87.742561 2.3509886e-038
1.4371884 348.56494 -88.454308 2.3509886e-038
6.2986465 351.56723 -89.216187 2.3509886e-038
11.187331 352.81546 -89.532944 2.3509886e-038
16.021578 352.11115 -89.35421 2.3509886e-038
20.780605 350.46548 -88.9366 2.3509886e-038
25.520483 349.17923 -88.610191 2.3509886e-038
30.323704 349.03021 -88.572372 2.3509886e-038
35.327744 350.91708 -89.051193 2.3509886e-038
40.752964 356.0285 -90.348312 2.3509886e-038
46.798012 364.87347 -92.592873 2.3509886e-038
53.311417 375.29785 -95.238235 2.3509886e-038
54.840313 377.63934 -95.832428 2.3509886e-038
-24.549715 365.65564 -97.834755 2.3509886e-038
-23.561501 363.37491 -97.224533 2.3509886e-038
-18.046886 353.5278 -94.589836 2.3509886e-038
-13.01368 349.3121 -93.461884 2.3509886e-038
-8.1574354 347.681 -93.025459 2.3509886e-038
-3.3645627 347.95288 -93.098206 2.3509886e-038
1.4423294 349.81183 -93.595589 2.3509886e-038
6.3105187 352.22992 -94.242577 2.3509886e-038
11.208493 353.48285 -94.577812 2.3509886e-038
16.067591 353.12234 -94.481354 2.3509886e-038
20.860645 351.81534 -94.131645 2.3509886e-038
25.636494 350.76654 -93.851036 2.3509886e-038
30.495541 351.00809 -93.915665 2.3509886e-038
35.552414 353.14874 -94.488411 2.3509886e-038
40.937416 357.63995 -95.690079 2.3509886e-038
46.762543 364.59689 -97.551491 2.3509886e-038
52.999634 373.103 -99.82737 2.3509886e-038
59.513756 381.88086 -102.17597 2.3509886e-038
60.291462 382.8949 -102.4473 2.3509886e-038
-18.183376 363.07587 -102.15236 2.3509886e-038
-13.336021 357.96432 -100.71422 2.3509886e-038
-8.3031731 353.89249 -99.568588 2.3509886e-038
-3.4031084 351.93915 -99.019012 2.3509886e-038
1.4526509 352.31512 -99.124802 2.3509886e-038
6.3402152 353.88745 -99.567177 2.3509886e-038
11.261939 355.16837 -99.927567 2.3509886e-038
16.165333 355.27048 -99.956299 2.3509886e-038
21.00985 354.33163 -99.692154 2.3509886e-038
25.826878 353.3714 -99.421989 2.3509886e-038
30.729033 353.69562 -99.513214 2.3509886e-038
35.823223 355.83875 -100.11618 2.3509886e-038
41.177048 359.73343 -101.21197 2.3509886e-038
46.844917 365.23917 -102.76102 2.3509886e-038
52.942932 372.70383 -104.86121 2.3509886e-038
59.408306 381.20422 -107.25282 2.3509886e-038
64.386253 387.2287 -108.94783 2.3509886e-038
-11.552929 366.5961 -108.19917 2.3509886e-038
-8.5010509 362.32632 -106.93896 2.3509886e-038
-3.4584026 357.6575 -105.56097 2.3509886e-038
1.4688772 356.25052 -105.14571 2.3509886e-038
6.38972 356.65063 -105.2638 2.3509886e-038
11.345678 357.80923 -105.60576 2.3509886e-038
16.306843 358.38049 -105.77437 2.3509886e-038
21.220255 357.88016 -105.62669 2.3509886e-038
26.090662 356.98062 -105.36119 2.3509886e-038
31.016424 357.00354 -105.36796 2.3509886e-038
36.101971 358.6076 -105.84139 2.3509886e-038
41.404037 361.71646 -106.75895 2.3509886e-038
46.961281 366.14642 -108.06644 2.3509886e-038
52.925182 372.57886 -109.96494 2.3509886e-038
59.264374 380.28064 -112.23809 2.3509886e-038
65.692673 387.25543 -114.29667 2.3509886e-038
66.895287 388.3165 -114.60984 2.3509886e-038
-4.1566319 366.37146 -113.18615 2.3509886e-038
-3.5375462 365.84229 -113.02267 2.3509886e-038
1.4967208 363.00351 -112.14567 2.3509886e-038
6.4836569 361.89383 -111.80284 2.3509886e-038
11.485065 362.20511 -111.89901 2.3509886e-038
16.49999 362.62534 -112.02883 2.3509886e-038
21.482025 362.29489 -111.92674 2.3509886e-038
26.415348 361.42303 -111.65739 2.3509886e-038
31.365957 361.0267 -111.53495 2.3509886e-038
36.429142 361.85745 -111.7916 2.3509886e-038
41.675163 364.08508 -112.4798 2.3509886e-038
47.145447 367.58234 -113.56024 2.3509886e-038
52.932632 372.63132 -115.12006 2.3509886e-038
59.040268 378.84262 -117.03897 2.3509886e-038
65.291161 384.88855 -118.9068 2.3509886e-038
67.929909 387.12643 -119.59816 2.3509886e-038
4.1352401 371.47437 -119.88628 2.3509886e-038
6.6320777 370.17813 -119.46795 2.3509886e-038
11.695525 368.84244 -119.03688 2.3509886e-038
16.761618 368.37521 -118.8861 2.3509886e-038
21.812422 367.86707 -118.7221 2.3509886e-038
26.821058 366.97412 -118.43392 2.3509886e-038
31.812805 366.17001 -118.17441 2.3509886e-038
36.865414 366.19104 -118.18119 2.3509886e-038
42.059849 367.4458 -118.58614 2.3509886e-038
47.437691 369.8609 -119.36557 2.3509886e-038
53.01585 373.21713 -120.44874 2.3509886e-038
58.834953 377.52521 -121.83908 2.3509886e-038
64.865776 382.38092 -123.40618 2.3509886e-038
67.426208 384.49512 -124.08849 2.3509886e-038
13.590983 376.7056 -126.77039 2.3509886e-038
17.090326 375.59933 -126.39812 2.3509886e-038
22.218224 374.71091 -126.09914 2.3509886e-038
27.313288 373.70895 -125.76196 2.3509886e-038
32.357773 372.44263 -125.33582 2.3509886e-038
37.412388 371.62421 -125.06039 2.3509886e-038
42.55806 371.79828 -125.11897 2.3509886e-038
47.825283 372.88287 -125.48396 2.3509886e-038
53.200802 374.51913 -126.0346 2.3509886e-038
58.747089 376.9614 -126.85649 2.3509886e-038
64.542305 380.47409 -128.03859 2.3509886e-038
65.288574 380.98697 -128.21118 2.3509886e-038
24.631727 381.40048 -133.6109 2.3509886e-038
27.799829 380.36597 -133.24849 2.3509886e-038
32.883259 378.49109 -132.59169 2.3509886e-038
37.953194 376.99615 -132.06799 2.3509886e-038
43.076965 376.3316 -131.83519 2.3509886e-038
48.255905 376.24033 -131.80321 2.3509886e-038
53.473907 376.44174 -131.87376 2.3509886e-038
58.802921 377.31967 -132.18134 2.3509886e-038
61.770294 378.36151 -132.54631 2.3509886e-038
35.13781 382.75607 -139.36505 2.3509886e-038
38.411198 381.54556 -138.9243 2.3509886e-038
43.539974 380.37656 -138.49863 2.3509886e-038
48.675869 379.51468 -138.18481 2.3509886e-038
53.802986 378.75836 -137.90944 2.3509886e-038
56.247288 378.58582 -137.84662 2.3509886e-038
-71.495834 352.59818 33.667259 2.3418052e-038
-72.067909 355.41953 18.381632 2.3418052e-038
-64.685394 319.01096 -28.281342 3.5733111e-043
-65.725044 324.13818 -36.43306 3.5733111e-043
-65.549332 346.8663 32.115215 2.3418052e-038
-67.211945 355.66434 11.090913 2.3509886e-038
-60.056404 317.79947 -27.129356 3.5733111e-043
-62.081333 328.51474 -41.096859 3.5733111e-043
-60.03653 342.70743 29.464109 2.3418052e-038
-62.221977 355.18265 4.1425238 2.3509886e-038
-55.665462 317.75601 -27.75581 3.5733111e-043
-58.471104 333.77145 -46.184597 3.5733111e-043
-55.04586 341.07309 42.391075 2.3509886e-038
-57.867397 358.55579 -3.1985273 2.3509886e-038
-51.614902 319.81433 -29.686403 3.5733111e-043
-54.307468 336.49789 -51.983334 3.5733111e-043
-50.286221 340.69843 43.146904 2.3509886e-038
-54.702278 370.61801 -10.658023 2.3509886e-038
-47.898373 324.52032 -32.713879 3.5733111e-043
-50.479397 342.00723 -59.741619 3.5733111e-043
-45.901981 343.05225 40.913425 2.3509886e-038
-50.394154 376.62488 -17.912891 2.3509886e-038
-44.588009 333.23218 -36.737465 2.3509886e-038
-47.800541 357.2413 -70.859955 2.3509886e-038
-41.853542 348.745 36.89119 2.3509886e-038
-45.973324 383.07309 -25.588505 2.3509886e-038
-41.93364 349.41238 -41.395145 2.3509886e-038
-43.849052 365.37256 -79.287537 2.3509886e-038
-37.875313 356.57712 31.43844 2.3509886e-038
-40.919807 385.2395 -36.206646 2.3509886e-038
-39.161011 368.68134 -42.626446 2.3509886e-038
-38.514194 362.59186 -83.706329 2.3509886e-038
-33.439308 361.79422 25.536318 2.3509886e-038
-33.737423 365.01971 -89.097931 2.3509886e-038
-28.599766 363.70938 19.611284 2.3509886e-038
-28.929857 367.90726 -94.670456 2.3509886e-038
-23.727577 365.93625 13.313721 2.3509886e-038
-23.661901 364.9234 -98.345604 2.3509886e-038
-18.786961 368.02548 6.8425193 2.3509886e-038
-18.528553 362.96341 -101.8472 2.3509886e-038
-12.321782 330.7402 52.81908 9.1476764e-041
-12.281348 329.65488 44.400173 9.1476764e-041
-13.805064 370.55435 1.3671038 2.3509886e-038
-13.635229 365.99564 -106.49999 2.3509886e-038
-7.8479013 334.48822 55.391983 9.1476764e-041
-8.1166334 345.94193 23.758928 9.1476764e-041
-8.7603607 373.37845 -0.98962957 2.3509886e-038
-8.5913601 366.17545 -110.14729 2.3509886e-038
-3.2592187 337.0585 52.060539 9.1476764e-041
-3.5451787 366.63159 -113.65929 2.3509886e-038
1.4183599 343.99847 42.42635 9.1476764e-041
1.524883 369.8338 -117.81748 2.3509886e-038
6.3551188 354.71933 29.698095 9.1476764e-041
6.6842709 373.09137 -121.8812 2.3509886e-038
11.308737 356.64426 16.465176 9.1476764e-041
11.922123 375.98865 -125.68475 2.3509886e-038
16.506187 362.76157 0.81702447 2.3509886e-038
17.205742 378.13583 -128.9789 2.3509886e-038
21.475492 362.18472 -3.650553 2.3509886e-038
22.564371 380.54871 -132.31342 2.3509886e-038
26.138443 357.63437 -2.1701999 2.3509886e-038
27.948862 382.40506 -135.63098 2.3509886e-038
30.681019 353.14297 2.7605174 2.3509886e-038
33.254974 382.76956 -138.47667 2.3509886e-038
34.91803 346.84729 10.121913 2.3418409e-038
38.533108 382.7565 -140.79823 2.3509886e-038
39.520405 345.26056 19.276592 2.3418409e-038
43.774082 382.42178 -142.05678 2.3509886e-038
44.632195 347.98709 30.338787 2.3418409e-038
46.26001 360.6788 -6.9145298 2.3418409e-038
46.717937 364.24915 -83.534523 2.3509886e-038
48.928051 381.4809 -141.79356 2.3509886e-038
50.078724 352.54059 37.992531 2.3418409e-038
49.227352 346.54715 8.5531883 2.3418409e-038
53.430069 376.13315 -94.188698 2.3509886e-038
53.93034 379.65488 -139.6077 2.3509886e-038
55.703266 357.43015 38.806076 2.3418409e-038
54.778336 351.49515 24.56196 2.3418409e-038
59.549862 382.11252 -101.4071 2.3509886e-038
58.899208 377.9375 -135.47739 2.3509886e-038
65.849815 388.18179 -111.92491 2.3509886e-038
64.483292 380.12622 -129.29411 2.3509886e-038
