# .PCD v0.7 - Point Cloud Data file format
VERSION 0.7
FIELDS x y z rgb
SIZE 4 4 4 4
TYPE F F F F
COUNT 1 1 1 1
WIDTH 879
HEIGHT 1
VIEWPOINT 0 0 0 1 0 0 0
POINTS 879
DATA ascii
-32.457603 344.5813 58.423691 2.3418052e-038
9.8243065 347.66095 54.033688 9.1476764e-041
-87.371941 314.43088 -60.716084 3.5733111e-043
-70.938339 342.32108 33.856941 2.3509528e-038
55.080597 334.14566 23.605968 2.3418409e-038
-37.699284 345.63593 60.602467 2.3418052e-038
-35.207397 344.86502 60.467304 2.3418052e-038
-30.382654 344.67014 60.433132 2.3418052e-038
-27.016399 346.25079 60.710278 2.3418052e-038
-38.171558 344.98907 55.679756 2.3418052e-038
-35.135021 344.15607 55.545311 2.3418052e-038
-30.329685 344.06927 55.531303 2.3418052e-038
-25.694178 346.23834 55.881386 2.3418052e-038
-25.228098 346.65942 55.949345 2.3418052e-038
4.537076 347.77319 56.129101 9.1476764e-041
8.1032944 346.68802 55.95396 9.1476764e-041
12.983835 347.96259 56.159672 9.1476764e-041
15.168745 349.42044 56.394962 9.1476764e-041
-38.036602 345.78027 50.987129 2.3418052e-038
-35.195992 344.75327 50.83569 2.3418052e-038
-30.373806 344.56976 50.808632 2.3418052e-038
-25.730827 346.73221 51.127495 2.3418052e-038
-23.808502 348.82639 51.436291 2.3418052e-038
3.902211 349.13687 51.482071 9.1476764e-041
8.1045895 346.74347 51.12915 9.1476764e-041
12.957504 347.25693 51.204868 9.1476764e-041
16.507467 349.68707 51.563202 9.1476764e-041
-37.461212 347.63379 46.414272 2.3418052e-038
-35.383236 346.5874 46.274567 2.3418052e-038
-30.536821 346.41907 46.25209 2.3418052e-038
-25.924084 349.3364 46.641594 2.3418052e-038
-22.475782 354.46741 47.326664 2.3418052e-038
3.7619054 349.6243 46.680038 9.1476764e-041
8.099494 346.52542 46.266293 9.1476764e-041
12.934101 346.62973 46.280216 9.1476764e-041
16.944647 349.33823 46.641842 9.1476764e-041
-74.505348 345.96356 41.368404 2.3509528e-038
-73.863808 345.78204 41.346699 2.3509528e-038
-71.888168 345.42911 41.304497 2.3509528e-038
-36.518154 349.86795 41.835266 2.3418052e-038
-35.666588 349.36288 41.774872 2.3418052e-038
-30.77961 349.17334 41.752209 2.3418052e-038
-26.153246 352.42444 42.140961 2.3418052e-038
-21.619093 358.70914 42.892445 2.3418052e-038
-21.264349 359.35986 42.970261 2.3418052e-038
3.697638 350.45575 41.905556 9.1476764e-041
8.1025562 346.65643 41.451252 9.1476764e-041
12.943587 346.88394 41.478458 9.1476764e-041
17.088434 350.15533 41.869629 9.1476764e-041
-76.847733 343.96851 36.334774 2.3509528e-038
-73.238617 342.85535 36.217186 2.3509528e-038
-68.568535 343.4035 36.275093 2.3509528e-038
-65.989441 345.43677 36.489876 2.3509528e-038
-35.382919 352.35324 37.22049 2.3418052e-038
-30.970043 351.33368 37.112789 2.3418052e-038
-26.229694 353.45462 37.336834 2.3418052e-038
-21.574215 357.96448 37.813229 2.3418052e-038
-19.845301 360.10071 38.038887 2.3418052e-038
3.4303353 351.12753 37.091015 9.1476764e-041
8.1053553 346.77618 36.631359 9.1476764e-041
12.963749 347.42426 36.699821 9.1476764e-041
17.166824 351.37405 37.117054 9.1476764e-041
-76.755852 343.39648 31.487257 2.3509528e-038
-73.132179 342.35706 31.391949 2.3509528e-038
-68.538879 343.255 31.474285 2.3509528e-038
-64.554001 347.56357 31.869352 2.3509528e-038
-63.337864 350.15125 32.106625 2.3509528e-038
-34.173885 353.75354 32.436928 2.3418052e-038
-31.039879 352.12592 32.287685 2.3418052e-038
-26.139374 352.23749 32.29792 2.3418052e-038
-21.394167 354.97711 32.549126 2.3418052e-038
-18.177107 357.97311 32.823841 2.3418052e-038
2.6640096 350.7182 32.158611 9.1476764e-041
3.2997053 349.80386 32.074772 9.1476764e-041
8.0923729 346.22076 31.746223 9.1476764e-041
12.966199 347.48996 31.862602 9.1476764e-041
17.191389 351.86444 32.26371 9.1476764e-041
-75.85363 343.7634 26.728687 2.3509528e-038
-73.226334 342.79782 26.65361 2.3509528e-038
-68.568535 343.4035 26.700705 2.3509528e-038
-64.53907 347.48318 27.017912 2.3509528e-038
-61.070118 354.78873 27.585941 2.3509528e-038
-32.960331 353.40793 27.478579 2.3418052e-038
-31.034603 352.06607 27.374245 2.3418052e-038
-26.032379 350.79572 27.275471 2.3418052e-038
-21.219173 352.07355 27.374826 2.3418052e-038
-16.557978 354.97379 27.600328 2.3418052e-038
1.4226557 349.05566 27.140179 9.1476764e-041
3.2735226 347.02826 26.98254 9.1476764e-041
8.0630035 344.96423 26.822054 9.1476764e-041
12.945121 346.92508 26.974518 9.1476764e-041
17.169153 351.43311 27.325031 9.1476764e-041
49.873383 335.0289 26.049551 2.3418409e-038
54.481903 334.70123 26.024075 2.3418409e-038
58.640324 335.5972 26.093739 2.3418409e-038
-74.042549 343.93555 21.947462 2.3509528e-038
-73.388008 343.55469 21.923159 2.3509528e-038
-68.483536 342.97781 21.886347 2.3509528e-038
-64.276291 346.06836 22.083561 2.3509528e-038
-60.444328 351.84491 22.452179 2.3509528e-038
-58.24189 355.79208 22.70406 2.3509528e-038
-31.913816 352.97049 22.524004 2.3418052e-038
-31.062756 352.38544 22.486671 2.3418052e-038
-26.01461 350.55627 22.369949 2.3418052e-038
-21.149572 350.9187 22.393076 2.3418052e-038
-16.347239 352.85327 22.516527 2.3418052e-038
-15.218616 353.51996 22.559069 2.3418052e-038
0.024545899 349.24103 22.286018 2.3509886e-038
3.2616673 345.77142 22.064615 9.1476764e-041
8.0444088 344.1687 21.962339 9.1476764e-041
12.919005 346.22516 22.093571 9.1476764e-041
17.100973 350.52222 22.367775 9.1476764e-041
46.588619 334.65152 21.355024 2.3418409e-038
49.75658 334.30188 21.332712 2.3418409e-038
54.437557 334.4288 21.340811 2.3418409e-038
58.52005 335.63165 21.417568 2.3418409e-038
-71.407745 343.04083 17.108231 2.3509528e-038
-68.371918 342.41879 17.077208 2.3509528e-038
-63.971794 344.42892 17.17746 2.3509528e-038
-59.952885 348.98422 17.40464 2.3509528e-038
-56.129681 355.58395 17.733786 2.3509528e-038
-55.231316 357.76202 17.842411 2.3509528e-038
-31.145254 354.39612 17.674545 2.3418052e-038
-26.106964 351.80081 17.545109 2.3418052e-038
-21.172832 351.30469 17.520369 2.3418052e-038
-16.335621 352.60251 17.585093 2.3418052e-038
-14.155208 353.94156 17.651875 2.3418052e-038
-1.0088485 351.57001 17.5336 2.3418052e-038
3.2664678 346.28033 17.269793 9.1476764e-041
8.0490484 344.36719 17.174377 9.1476764e-041
12.919473 346.2377 17.267664 9.1476764e-041
16.949675 350.21552 17.466049 9.1476764e-041
43.946136 334.20407 16.667521 2.3418409e-038
45.039902 333.88403 16.65156 2.3418409e-038
49.67865 333.77829 16.646286 2.3418409e-038
54.490505 334.75412 16.694954 2.3418409e-038
57.370705 335.92639 16.753416 2.3418409e-038
-68.801224 343.48218 12.34195 2.3509528e-038
-68.574326 343.43253 12.340167 2.3509528e-038
-63.961311 344.37247 12.373941 2.3509528e-038
-59.696136 347.48972 12.48595 2.3509528e-038
-55.737602 353.10016 12.687543 2.3509528e-038
-52.268547 361.31674 12.98278 2.3509886e-038
-30.476183 357.37021 12.840973 2.3418052e-038
-26.291372 354.28574 12.730143 2.3418052e-038
-21.246675 352.52988 12.667051 2.3418052e-038
-16.366426 353.2674 12.693552 2.3418052e-038
-13.288833 355.59131 12.777054 2.3418052e-038
-1.6922019 354.76382 12.747321 2.3418052e-038
-1.59835 354.60437 12.741591 2.3418052e-038
3.2799296 347.70746 12.493773 9.1476764e-041
8.0721111 345.35391 12.409205 9.1476764e-041
12.954522 347.177 12.474712 9.1476764e-041
16.686184 350.80112 12.604933 9.1476764e-041
41.351624 334.48456 12.018649 2.3418409e-038
44.923565 333.02161 11.966084 2.3418409e-038
49.608631 333.30786 11.976369 2.3418409e-038
54.616417 335.52762 12.056129 2.3418409e-038
55.710461 336.35779 12.085958 2.3418409e-038
-66.841148 347.04611 7.6320491 2.3509528e-038
-64.433289 346.91367 7.6291366 2.3509528e-038
-59.725964 347.6633 7.6456223 2.3509528e-038
-55.44693 351.25873 7.7246909 2.3509528e-038
-51.495167 357.8248 7.8690882 2.3509528e-038
-49.330803 361.83966 7.9573812 2.3509886e-038
-29.664818 360.85214 7.9356647 2.3509886e-038
-26.542902 357.6752 7.8657985 2.3418052e-038
-21.350107 354.24606 7.7903862 2.3418052e-038
-16.423639 354.50235 7.7960229 2.3418052e-038
-12.332177 358.75894 7.8896322 2.3418052e-038
-2.7207983 359.35724 7.9027891 2.3509886e-038
-1.6103369 357.26373 7.85675 2.3509886e-038
3.2958226 349.39227 7.6836448 9.1476764e-041
8.101099 346.59412 7.6221094 9.1476764e-041
13.003539 348.49066 7.6638165 9.1476764e-041
16.317169 351.65985 7.7335124 9.1476764e-041
38.582035 335.1879 7.3712697 2.3418409e-038
40.420795 334.17657 7.3490291 2.3418409e-038
44.899483 332.84311 7.3197041 2.3418409e-038
49.625633 333.42209 7.332437 2.3418409e-038
53.653667 335.9697 7.3884625 2.3418409e-038
-64.788399 350.81052 2.824384 2.3509528e-038
-59.890717 348.62234 2.806767 2.3509528e-038
-55.215691 349.79379 2.8161981 2.3509528e-038
-50.961544 354.11679 2.8510029 2.3509528e-038
-46.735989 359.58716 2.8950448 2.3509886e-038
-46.273705 360.13153 2.8994274 2.3509886e-038
-28.847496 364.29257 2.9329281 2.3509886e-038
-26.829611 361.5387 2.9107568 2.3509886e-038
-21.474434 356.3089 2.8686514 2.3509886e-038
-16.482498 355.77283 2.8643355 2.3418052e-038
-11.684604 360.76639 2.9045389 2.3509886e-038
-9.9547968 363.15826 2.9237957 2.3509886e-038
-5.9606075 364.72232 2.936388 2.3509886e-038
-1.616351 358.59799 2.8870809 2.3509886e-038
3.3094537 350.83731 2.8245995 2.3509886e-038
8.129734 347.81918 2.8003006 9.1476764e-041
13.047792 349.67661 2.8152547 9.1476764e-041
15.966034 352.34283 2.8367205 9.1476764e-041
35.611851 336.11823 2.7060957 2.3418409e-038
35.950298 335.93396 2.7046123 2.3418409e-038
40.425503 334.21545 2.6907768 2.3418409e-038
44.96928 333.3605 2.6838932 2.3418409e-038
49.744778 334.2226 2.690834 2.3418409e-038
51.505898 335.20187 2.6987181 2.3418409e-038
-61.735786 350.21677 -2.0625572 2.3509528e-038
-59.976631 349.12244 -2.0561123 2.3509528e-038
-55.057983 348.79474 -2.0541823 2.3509528e-038
-50.619308 351.73871 -2.0715206 2.3509528e-038
-46.337887 356.52417 -2.099704 2.3509528e-038
-43.199673 360.90948 -2.1255307 2.3509886e-038
-28.284012 366.59805 -2.1590328 2.3509886e-038
-27.068907 364.76331 -2.1482272 2.3509886e-038
-21.596354 358.33182 -2.1103499 2.3509886e-038
-16.514042 356.45367 -2.0992889 2.3509886e-038
-11.63217 359.14743 -2.1151533 2.3509886e-038
-6.672153 361.67645 -2.1300476 2.3509886e-038
-1.6099007 357.16696 -2.1034896 2.3509886e-038
3.3145318 351.37564 -2.0693822 2.3509886e-038
8.1525946 348.7973 -2.0541975 2.3509886e-038
13.066745 350.18454 -2.0623674 9.1476764e-041
15.868258 352.11725 -2.07375 9.1476764e-041
32.485111 338.06369 -1.9909832 2.3418409e-038
36.016392 336.55157 -1.982078 2.3418409e-038
40.55862 335.31604 -1.9748013 2.3418409e-038
45.14156 334.6376 -1.9708059 2.3418409e-038
49.549042 335.69 -1.9770037 2.3418409e-038
-58.850918 349.1835 -6.9242411 2.3509528e-038
-55.103085 349.08044 -6.9221973 2.3509528e-038
-50.575451 351.43396 -6.9688673 2.3509528e-038
-46.242374 355.78931 -7.055233 2.3509528e-038
-42.03413 362.267 -7.1836839 2.3509886e-038
-39.759819 366.76511 -7.272881 2.3509886e-038
-28.241724 366.79648 -7.2735028 2.3509886e-038
-27.113466 365.36374 -7.2450924 2.3509886e-038
-21.664684 359.46561 -7.1281328 2.3509886e-038
-16.517591 356.5303 -7.0699267 2.3509886e-038
-11.538298 356.24911 -7.0643511 2.3509886e-038
-6.5739388 356.35257 -7.066402 2.3509886e-038
-1.5962702 354.14297 -7.0225863 2.3509886e-038
3.3120496 351.11252 -6.9624929 2.3509886e-038
8.16537 349.34384 -6.9274206 2.3509886e-038
13.046806 349.65021 -6.933496 2.3509886e-038
16.569145 350.41641 -6.9486895 2.3509886e-038
28.678276 340.46262 -6.751308 2.3418409e-038
31.565454 339.13803 -6.7250414 2.3418409e-038
36.188324 338.15814 -6.7056103 2.3418409e-038
40.835403 337.60431 -6.6946278 2.3418409e-038
45.490707 337.22589 -6.6871238 2.3418409e-038
47.725876 337.77567 -6.6980262 2.3418409e-038
-56.633568 351.9819 -11.886513 2.3509528e-038
-55.562962 351.99377 -11.886913 2.3509528e-038
-50.843601 353.29727 -11.930932 2.3509528e-038
-46.26083 355.93127 -12.019884 2.3509528e-038
-41.790367 360.16614 -12.162896 2.3509886e-038
-37.195099 364.33502 -12.30368 2.3509886e-038
-32.949265 365.30597 -12.33647 2.3509886e-038
-30.935642 364.60605 -12.312833 2.3509886e-038
-26.878355 362.19556 -12.23143 2.3509886e-038
-21.635878 358.98761 -12.123096 2.3509886e-038
-16.519825 356.57849 -12.04174 2.3509886e-038
-11.496881 354.9704 -11.987434 2.3509886e-038
-6.5265803 353.78543 -11.947417 2.3509886e-038
-1.5892227 352.57941 -11.906691 2.3509886e-038
3.3108313 350.98334 -11.852791 2.3509886e-038
8.1675291 349.43625 -11.800546 2.3509886e-038
12.996492 348.30179 -11.762235 2.3509886e-038
17.78039 346.90524 -11.715073 2.3509886e-038
22.437319 344.15878 -11.622324 2.3418409e-038
27.002239 341.21695 -11.522978 2.3418409e-038
31.63419 339.8765 -11.47771 2.3418409e-038
36.376221 339.91391 -11.478973 2.3418409e-038
41.199631 340.61554 -11.502667 2.3418409e-038
46.074783 341.72626 -11.540176 2.3418409e-038
-54.555397 357.60681 -17.061661 2.3509528e-038
-51.392193 357.10928 -17.037924 2.3509528e-038
-46.413971 357.10956 -17.037935 2.3509528e-038
-41.585541 358.40088 -17.099546 2.3509886e-038
-36.696106 359.44727 -17.149471 2.3509886e-038
-31.688009 359.47852 -17.150961 2.3509886e-038
-26.623108 358.75601 -17.116491 2.3509886e-038
-21.568663 357.87241 -17.074331 2.3509886e-038
-16.521292 356.61017 -17.014111 2.3509886e-038
-11.498195 355.01093 -16.937809 2.3509886e-038
-6.521699 353.52081 -16.866716 2.3509886e-038
-1.5888387 352.4942 -16.817736 2.3509886e-038
3.3125534 351.16592 -16.754362 2.3509886e-038
8.1658716 349.36533 -16.668453 2.3509886e-038
12.960179 347.32864 -16.571283 2.3509886e-038
17.688807 345.11841 -16.465832 2.3509886e-038
22.35968 342.9679 -16.36323 2.3418409e-038
26.999949 341.18802 -16.278309 2.3418409e-038
31.66939 340.25473 -16.233782 2.3418409e-038
36.466309 340.75574 -16.257685 2.3418409e-038
41.440678 342.60837 -16.346075 2.3418409e-038
44.391769 344.71164 -16.446423 2.3418409e-038
-52.083035 362.95297 -22.376451 2.3509886e-038
-46.784275 359.95868 -22.191851 2.3509886e-038
-41.600708 358.53159 -22.103868 2.3509886e-038
-36.532825 357.8479 -22.061718 2.3509886e-038
-31.506706 357.42172 -22.035444 2.3509886e-038
-26.51333 357.2767 -22.026503 2.3509886e-038
-21.539654 357.39105 -22.033554 2.3509886e-038
-16.532709 356.85666 -22.000605 2.3509886e-038
-11.516254 355.56854 -21.921192 2.3509886e-038
-6.5328441 354.12497 -21.832193 2.3509886e-038
-1.5911548 353.00806 -21.763336 2.3509886e-038
3.3158784 351.5184 -21.671495 2.3509886e-038
8.1679745 349.45526 -21.544302 2.3509886e-038
12.954978 347.18924 -21.4046 2.3509886e-038
17.688768 345.11761 -21.276882 2.3509886e-038
22.375818 343.21542 -21.159609 2.3418409e-038
27.021238 341.45703 -21.051205 2.3418409e-038
31.673611 340.30005 -20.979874 2.3418409e-038
36.468311 340.77448 -21.009123 2.3418409e-038
41.544132 343.46368 -21.174915 2.3418409e-038
42.759815 344.76486 -21.255135 2.3418409e-038
-50.123402 367.61786 -27.788797 2.3509886e-038
-47.438293 364.99072 -27.590208 2.3509886e-038
-41.869686 360.84973 -27.277185 2.3509886e-038
-36.615757 358.66022 -27.111675 2.3509886e-038
-31.537067 357.76614 -27.044094 2.3509886e-038
-26.538935 357.62173 -27.033175 2.3509886e-038
-21.565432 357.81876 -27.048069 2.3509886e-038
-16.555264 357.34344 -27.012138 2.3509886e-038
-11.533997 356.11633 -26.91938 2.3509886e-038
-6.543468 354.70087 -26.812382 2.3509886e-038
-1.5932571 353.47446 -26.719679 2.3509886e-038
3.3193293 351.88425 -26.59947 2.3509886e-038
8.1757803 349.78925 -26.441105 2.3509886e-038
12.969747 347.58502 -26.274485 2.3509886e-038
17.718513 345.698 -26.131842 2.3509886e-038
22.412903 343.78427 -25.987181 2.3509886e-038
27.046867 341.78091 -25.835743 2.3418409e-038
31.680111 340.36987 -25.72908 2.3418409e-038
36.471798 340.80704 -25.762127 2.3418409e-038
41.557686 344.18573 -26.017529 2.3418409e-038
-49.18811 373.14108 -33.408058 2.3509886e-038
-48.347851 371.98883 -33.304893 2.3509886e-038
-42.311363 364.65631 -32.648399 2.3509886e-038
-36.796467 360.43033 -32.270039 2.3509886e-038
-31.61754 358.67908 -32.113247 2.3509886e-038
-26.583391 358.22079 -32.072212 2.3509886e-038
-21.585377 358.14972 -32.065849 2.3509886e-038
-16.564672 357.54657 -32.011848 2.3509886e-038
-11.541863 356.35922 -31.905542 2.3509886e-038
-6.5493636 355.02045 -31.785679 2.3509886e-038
-1.5946101 353.77463 -31.674143 2.3509886e-038
3.3222418 352.19299 -31.532534 2.3509886e-038
8.1841059 350.14545 -31.349216 2.3509886e-038
12.984928 347.99188 -31.156401 2.3509886e-038
17.743412 346.18381 -30.99452 2.3509886e-038
22.443226 344.24936 -30.821325 2.3509886e-038
27.078558 342.18137 -30.636173 2.3509886e-038
31.721287 340.81229 -30.513597 2.3418409e-038
36.545292 341.49377 -30.574612 2.3418409e-038
40.915165 344.70871 -30.86245 2.3418409e-038
-48.706272 377.87241 -39.099365 2.3509886e-038
-42.728508 368.25143 -38.103863 2.3509886e-038
-36.928772 361.72632 -37.428692 2.3509886e-038
-31.636801 358.89755 -37.135998 2.3509886e-038
-26.570696 358.04974 -37.048267 2.3509886e-038
-21.558971 357.71158 -37.013279 2.3509886e-038
-16.540733 357.02982 -36.942734 2.3509886e-038
-11.529901 355.98984 -36.835125 2.3509886e-038
-6.5471168 354.89862 -36.722214 2.3509886e-038
-1.5948076 353.81845 -36.610447 2.3509886e-038
3.3234532 352.32141 -36.455547 2.3509886e-038
8.1886711 350.34079 -36.250603 2.3509886e-038
12.995403 348.27261 -36.036606 2.3509886e-038
17.761923 346.54495 -35.857838 2.3509886e-038
22.470581 344.66895 -35.663723 2.3509886e-038
27.114958 342.64133 -35.453922 2.3509886e-038
31.772449 341.362 -35.321548 2.3509886e-038
36.640678 342.3851 -35.42741 2.3509886e-038
40.730175 345.86069 -35.787037 2.3509886e-038
-48.154076 377.86292 -44.365929 2.3509886e-038
-42.774441 368.64731 -43.283897 2.3509886e-038
-36.879089 361.23965 -42.414143 2.3509886e-038
-31.554441 357.96329 -42.029461 2.3509886e-038
-26.492846 357.00067 -41.916435 2.3509886e-038
-21.491138 356.58606 -41.867756 2.3509886e-038
-16.49074 355.95074 -41.793159 2.3509886e-038
-11.504563 355.20755 -41.705898 2.3509886e-038
-6.5407848 354.55539 -41.62933 2.3509886e-038
-1.5943702 353.72141 -41.531406 2.3509886e-038
3.3224714 352.21732 -41.354809 2.3509886e-038
8.1858301 350.21918 -41.120201 2.3509886e-038
12.996652 348.30606 -40.895576 2.3509886e-038
17.77314 346.76379 -40.714497 2.3509886e-038
22.490595 344.97595 -40.504578 2.3509886e-038
27.134937 342.8938 -40.260109 2.3509886e-038
31.792688 341.57944 -40.105785 2.3509886e-038
36.70282 342.96579 -40.268559 2.3509886e-038
40.845669 346.98752 -40.740761 2.3509886e-038
-47.462379 371.98233 -48.861073 2.3509886e-038
-42.306377 364.61331 -47.893127 2.3509886e-038
-36.617146 358.67383 -47.112957 2.3509886e-038
-31.387735 356.07211 -46.77121 2.3509886e-038
-26.376036 355.42661 -46.68642 2.3509886e-038
-21.407026 355.19049 -46.655407 2.3509886e-038
-16.436443 354.77875 -46.601322 2.3509886e-038
-11.480386 354.46103 -46.559589 2.3509886e-038
-6.5363159 354.31317 -46.540169 2.3509886e-038
-1.5941564 353.67395 -46.456207 2.3509886e-038
3.3208973 352.05045 -46.24295 2.3509886e-038
8.1792364 349.9371 -45.965359 2.3509886e-038
12.990399 348.13852 -45.729107 2.3509886e-038
17.773355 346.76804 -45.549091 2.3509886e-038
22.488815 344.94867 -45.310112 2.3509886e-038
27.115225 342.64468 -45.007473 2.3509886e-038
31.759228 341.21994 -44.820332 2.3509886e-038
36.696514 342.90689 -45.04192 2.3509886e-038
41.140064 347.54999 -45.651802 2.3509886e-038
-47.158203 363.97659 -52.88348 2.3509886e-038
-41.622997 358.72366 -52.120262 2.3509886e-038
-36.25946 355.17023 -51.60397 2.3509886e-038
-31.181847 353.73642 -51.395649 2.3509886e-038
-26.239424 353.58572 -51.373749 2.3509886e-038
-21.318626 353.72369 -51.393799 2.3509886e-038
-16.389927 353.77469 -51.401211 2.3509886e-038
-11.463648 353.94427 -51.425846 2.3509886e-038
-6.5335879 354.16528 -51.457958 2.3509886e-038
-1.5943286 353.71219 -51.392128 2.3509886e-038
3.3217778 352.1438 -51.164246 2.3509886e-038
8.1805897 349.995 -50.852039 2.3509886e-038
12.988744 348.09415 -50.575859 2.3509886e-038
17.76296 346.56519 -50.353714 2.3509886e-038
22.456564 344.45395 -50.046967 2.3509886e-038
27.055725 341.89285 -49.67485 2.3509886e-038
31.686745 340.44116 -49.463932 2.3509886e-038
36.613468 342.13086 -49.709431 2.3509886e-038
41.629169 347.22113 -50.449017 2.3509886e-038
-47.740696 355.78088 -56.652435 2.3509886e-038
-46.153919 355.1087 -56.545403 2.3509886e-038
-40.934917 352.79352 -56.176743 2.3509886e-038
-35.881901 351.47189 -55.966297 2.3509886e-038
-30.96125 351.23392 -55.928406 2.3509886e-038
-26.088373 351.55029 -55.978779 2.3509886e-038
-21.218237 352.05801 -56.059628 2.3509886e-038
-16.338957 352.6745 -56.157795 2.3509886e-038
-11.444186 353.34335 -56.264301 2.3509886e-038
-6.527257 353.82211 -56.34053 2.3509886e-038
-1.593941 353.62619 -56.309334 2.3509886e-038
3.3233216 352.30746 -56.099346 2.3509886e-038
8.186121 350.23163 -55.768803 2.3509886e-038
12.990451 348.13989 -55.43573 2.3509886e-038
17.748405 346.28122 -55.139767 2.3509886e-038
22.41283 343.78317 -54.741989 2.3509886e-038
26.987282 341.02795 -54.303265 2.3509886e-038
31.613749 339.65692 -54.084949 2.3509886e-038
36.517216 341.23145 -54.33567 2.3509886e-038
41.875603 346.20407 -55.12748 2.3509886e-038
42.364044 346.92108 -55.241657 2.3509886e-038
-86.603645 312.3031 -54.082935 3.5733111e-043
-84.258865 312.79333 -54.167828 3.5733111e-043
-80.269081 314.2446 -54.419151 3.5733111e-043
-76.23497 315.67975 -54.667686 3.5733111e-043
-72.362221 317.99994 -55.069481 3.5733111e-043
-71.94355 318.48907 -55.154186 3.5733111e-043
-50.182762 346.59186 -60.02087 2.3509886e-038
-49.891712 346.68286 -60.036633 2.3509886e-038
-45.148239 347.371 -60.1558 2.3509886e-038
-40.290398 347.2388 -60.132904 2.3509886e-038
-35.487019 347.60394 -60.19614 2.3509886e-038
-30.713221 348.4202 -60.337494 2.3509886e-038
-25.91675 349.23755 -60.479042 2.3509886e-038
-21.097687 350.0578 -60.621086 2.3509886e-038
-16.268774 351.15964 -60.811893 2.3509886e-038
-11.410361 352.29904 -61.009209 2.3509886e-038
-6.5133486 353.06818 -61.142403 2.3509886e-038
-1.5920023 353.19604 -61.164551 2.3509886e-038
3.3224692 352.2171 -60.995022 2.3509886e-038
8.1885338 350.33484 -60.669064 2.3509886e-038
12.991905 348.17886 -60.2957 2.3509886e-038
17.737564 346.06967 -59.930439 2.3509886e-038
22.381609 343.30426 -59.451542 2.3509886e-038
26.941952 340.45511 -58.958141 2.3509886e-038
31.566925 339.15387 -58.7328 2.3509886e-038
36.452099 340.62296 -58.987213 2.3509886e-038
41.744152 345.11737 -59.765526 2.3509886e-038
42.994957 346.95044 -60.08297 2.3509886e-038
-93.912704 315.40033 -59.016109 3.5733111e-043
-93.69912 315.21317 -58.981091 3.5733111e-043
-88.45826 312.22479 -58.421921 3.5733111e-043
-83.979286 311.75549 -58.334103 3.5733111e-043
-79.745483 312.19476 -58.416298 3.5733111e-043
-75.603783 313.0661 -58.579338 3.5733111e-043
-71.670311 314.95929 -58.933582 3.5733111e-043
-68.120056 318.89359 -59.669746 3.5733111e-043
-64.62426 323.64984 -60.559715 3.5733111e-043
-60.922424 328.01089 -61.375732 3.5733111e-043
-57.005352 331.82672 -62.089729 3.5733111e-043
-52.96891 335.56036 -62.788353 3.5733111e-043
-48.73011 338.61121 -63.359207 3.5733111e-043
-44.260422 340.5401 -63.720139 3.5733111e-043
-39.656559 341.77609 -63.951412 2.3509886e-038
-35.037888 343.20459 -64.218697 2.3509886e-038
-30.394682 344.80661 -64.518463 2.3509886e-038
-25.6924 346.21439 -64.781883 2.3509886e-038
-20.93778 347.40463 -65.004585 2.3509886e-038
-16.16494 348.91833 -65.287827 2.3509886e-038
-11.354508 350.57455 -65.597725 2.3509886e-038
-6.4908781 351.85013 -65.836411 2.3509886e-038
-1.5882553 352.36478 -65.932709 2.3509886e-038
3.3179727 351.74042 -65.81588 2.3509886e-038
8.184453 350.16028 -65.52021 2.3509886e-038
12.99053 348.142 -65.142563 2.3509886e-038
17.732222 345.96545 -64.735298 2.3509886e-038
22.370371 343.13187 -64.205093 2.3509886e-038
26.929148 340.2933 -63.673958 2.3509886e-038
31.553686 339.0116 -63.434132 2.3509886e-038
36.431728 340.43265 -63.700027 2.3509886e-038
41.703358 344.78006 -64.513496 2.3509886e-038
43.317341 347.17081 -64.960838 2.3509886e-038
-96.858994 319.48401 -64.233971 3.5733111e-043
-94.321266 317.30612 -63.796104 3.5733111e-043
-89.277451 315.11624 -63.355812 3.5733111e-043
-84.881943 315.10638 -63.353828 3.5733111e-043
-80.636017 315.68109 -63.469379 3.5733111e-043
-76.307541 315.98029 -63.52953 3.5733111e-043
-71.960365 316.23395 -63.580536 3.5733111e-043
-67.889671 317.81503 -63.898415 3.5733111e-043
-64.048798 320.76785 -64.492096 3.5733111e-043
-60.227985 324.27197 -65.196617 3.5733111e-043
-56.263889 327.51068 -65.847778 3.5733111e-043
-52.153103 330.39218 -66.427116 3.5733111e-043
-47.900063 332.84348 -66.919968 3.5733111e-043
-43.519604 334.84027 -67.321434 3.5733111e-043
-39.047504 336.52704 -67.660568 3.5733111e-043
-34.530834 338.23792 -68.004547 2.3509886e-038
-29.977135 340.06982 -68.372864 2.3509886e-038
-25.37059 341.87787 -68.736382 2.3509886e-038
-20.707441 343.58279 -69.079163 2.3509886e-038
-16.014223 345.66519 -69.497841 2.3509886e-038
-11.273 348.05792 -69.978912 2.3509886e-038
-6.4596467 350.15717 -70.400978 2.3509886e-038
-1.5831816 351.23917 -70.618515 2.3509886e-038
3.3114121 351.04492 -70.57946 2.3509886e-038
8.1760225 349.79959 -70.329086 2.3509886e-038
12.983788 347.96133 -69.959488 2.3509886e-038
17.724504 345.81488 -69.527939 2.3509886e-038
22.362776 343.01538 -68.96508 2.3509886e-038
26.929502 340.29782 -68.418701 2.3509886e-038
31.570278 339.18985 -68.195938 2.3509886e-038
36.464886 340.74243 -68.508095 2.3509886e-038
41.743858 345.11493 -69.387207 2.3509886e-038
43.467644 347.68176 -69.903282 2.3509886e-038
-92.224007 319.85559 -68.767609 3.5733111e-043
-90.654076 319.97522 -68.793327 3.5733111e-043
-86.589745 321.44623 -69.109589 3.5733111e-043
-82.53978 323.13412 -69.472473 3.5733111e-043
-78.058388 323.23032 -69.493156 3.5733111e-043
-73.19619 321.66483 -69.156586 3.5733111e-043
-68.641266 321.33356 -69.085358 3.5733111e-043
-64.446297 322.75861 -69.391739 3.5733111e-043
-60.37183 325.04645 -69.883614 3.5733111e-043
-56.209511 327.19415 -70.345367 3.5733111e-043
-51.921261 328.92343 -70.717155 3.5733111e-043
-47.519901 330.20184 -70.991997 3.5733111e-043
-43.06036 331.30685 -71.229576 3.5733111e-043
-38.590958 332.59235 -71.505951 3.5733111e-043
-34.094166 333.96063 -71.800125 2.3509886e-038
-29.576939 335.52988 -72.137505 2.3509886e-038
-25.035715 337.3653 -72.53212 2.3509886e-038
-20.455446 339.40164 -72.969917 2.3509886e-038
-15.837806 341.85721 -73.497856 2.3509886e-038
-11.167541 344.80185 -74.130943 2.3509886e-038
-6.4147997 347.72614 -74.759651 2.3509886e-038
-1.5759469 349.63409 -75.169853 2.3509886e-038
3.3025889 350.10959 -75.272079 2.3509886e-038
8.1640701 349.28827 -75.095505 2.3509886e-038
12.971936 347.64371 -74.741928 2.3509886e-038
17.713741 345.60486 -74.303589 2.3509886e-038
22.358833 342.9549 -73.733856 2.3509886e-038
26.94298 340.46811 -73.199203 2.3509886e-038
31.613667 339.65604 -73.024612 2.3509886e-038
36.550327 341.54083 -73.429848 2.3509886e-038
41.872356 346.17725 -74.426651 2.3509886e-038
43.548038 348.70667 -74.970459 2.3509886e-038
-70.506927 329.70276 -75.480911 3.5733111e-043
-70.428368 329.69958 -75.480179 3.5733111e-043
-65.835533 329.71616 -75.483971 3.5733111e-043
-61.294739 330.01544 -75.55249 3.5733111e-043
-56.822311 330.76123 -75.723221 3.5733111e-043
-52.277023 331.17725 -75.818466 3.5733111e-043
-47.632805 330.98639 -75.774773 3.5733111e-043
-42.976131 330.65875 -75.699768 3.5733111e-043
-38.387699 330.84058 -75.741394 3.5733111e-043
-33.82925 331.36569 -75.86161 2.3509886e-038
-29.296789 332.35178 -76.087364 2.3509886e-038
-24.777449 333.88507 -76.438393 2.3509886e-038
-20.240433 335.83408 -76.88459 2.3509886e-038
-15.671097 338.25879 -77.439697 2.3509886e-038
-11.055367 341.33847 -78.144737 2.3509886e-038
-6.3602295 344.76807 -78.929901 2.3509886e-038
-1.5666001 347.56042 -79.569176 2.3509886e-038
3.2912841 348.91113 -79.878395 2.3509886e-038
8.1494741 348.66376 -79.821762 2.3509886e-038
12.957766 347.26395 -79.501297 2.3509886e-038
17.701086 345.35797 -79.064949 2.3509886e-038
22.361082 342.98941 -78.522705 2.3509886e-038
26.976545 340.89224 -78.042587 2.3509886e-038
31.691286 340.48996 -77.950485 2.3509886e-038
36.709133 343.02478 -78.5308 2.3509886e-038
42.170292 348.64044 -79.816422 2.3509886e-038
43.886806 351.38715 -80.445244 2.3509886e-038
-56.00267 336.80301 -81.801575 3.5733111e-043
-53.082157 336.27777 -81.674004 3.5733111e-043
-48.206161 334.97046 -81.356491 3.5733111e-043
-43.316406 333.27686 -80.945152 3.5733111e-043
-38.500065 331.80899 -80.588631 2.3509886e-038
-33.783436 330.91696 -80.371986 2.3509886e-038
-29.176043 330.98199 -80.387779 2.3509886e-038
-24.635899 331.97763 -80.629593 2.3509886e-038
-20.099905 333.50238 -80.999916 2.3509886e-038
-15.549504 335.63425 -81.5177 2.3509886e-038
-10.965177 338.55377 -82.226791 2.3509886e-038
-6.3108311 342.09033 -83.085739 2.3509886e-038
-1.5572547 345.48709 -83.910728 2.3509886e-038
3.2793951 347.65079 -84.436241 2.3509886e-038
8.1351023 348.04889 -84.532928 2.3509886e-038
12.945867 346.94504 -84.264832 2.3509886e-038
17.690222 345.14603 -83.827888 2.3509886e-038
22.370876 343.13965 -83.340584 2.3509886e-038
27.033224 341.60849 -82.968704 2.3509886e-038
31.813837 341.80664 -83.016838 2.3509886e-038
36.962757 345.39478 -83.888306 2.3509886e-038
42.693054 352.96231 -85.72628 2.3509886e-038
45.135269 357.33029 -86.787163 2.3509886e-038
-48.3969 342.07196 -87.849899 2.3509886e-038
-44.146008 339.65985 -87.230431 2.3509886e-038
-39.000946 336.12579 -86.322823 2.3509886e-038
-34.016224 333.1972 -85.570709 2.3509886e-038
-29.245926 331.77478 -85.205406 2.3509886e-038
-24.626167 331.8465 -85.223831 2.3509886e-038
-20.058804 332.8204 -85.473946 2.3509886e-038
-15.500093 334.56772 -85.922684 2.3509886e-038
-10.921247 337.19745 -86.598045 2.3509886e-038
-6.28371 340.62015 -87.477051 2.3509886e-038
-1.5515199 344.21478 -88.400215 2.3509886e-038
3.2716238 346.82693 -89.07106 2.3509886e-038
8.1265087 347.68121 -89.290459 2.3509886e-038
12.942156 346.84561 -89.075851 2.3509886e-038
17.692833 345.19693 -88.652451 2.3509886e-038
22.3962 343.52808 -88.223854 2.3509886e-038
27.110703 342.58755 -87.982315 2.3509886e-038
31.977549 343.56555 -88.233475 2.3509886e-038
37.275433 348.31656 -89.453613 2.3509886e-038
43.288727 357.88699 -91.911476 2.3509886e-038
48.176338 367.31262 -94.33213 2.3509886e-038
-41.939571 345.48001 -93.541298 2.3509886e-038
-39.821175 343.19485 -92.922569 2.3509886e-038
-34.579254 338.71219 -91.708855 2.3509886e-038
-29.621435 336.03467 -90.983887 2.3509886e-038
-24.827484 334.55933 -90.584435 2.3509886e-038
-20.147762 334.29648 -90.513268 2.3509886e-038
-15.532001 335.25647 -90.773186 2.3509886e-038
-10.928596 337.42435 -91.360161 2.3509886e-038
-6.2823744 340.54776 -92.205849 2.3509886e-038
-1.5503609 343.95767 -93.129105 2.3509886e-038
3.2696431 346.61694 -93.849129 2.3509886e-038
8.1275339 347.7251 -94.149162 2.3509886e-038
12.955737 347.20956 -94.009583 2.3509886e-038
17.725933 345.84277 -93.639519 2.3509886e-038
22.457951 344.47522 -93.269234 2.3509886e-038
27.220739 343.97806 -93.134628 2.3509886e-038
32.16275 345.55536 -93.561691 2.3509886e-038
37.552177 350.90253 -95.009476 2.3509886e-038
43.674221 361.07407 -97.763504 2.3509886e-038
50.38401 373.50027 -101.12799 2.3509886e-038
53.360374 378.5907 -102.50626 2.3509886e-038
-35.00061 347.93683 -99.056885 2.3509886e-038
-30.409506 344.97476 -98.213585 2.3509886e-038
-25.323156 341.23868 -97.149933 2.3509886e-038
-20.422611 338.85681 -96.471825 2.3509886e-038
-15.676725 338.38031 -96.336159 2.3509886e-038
-10.998726 339.58963 -96.68045 2.3509886e-038
-6.3079467 341.93396 -97.347878 2.3509886e-038
-1.5537976 344.72012 -98.14109 2.3509886e-038
3.2741418 347.09387 -98.816895 2.3509886e-038
8.1427202 348.37479 -99.181564 2.3509886e-038
12.998753 348.36237 -99.178032 2.3509886e-038
17.80928 347.4689 -98.923668 2.3509886e-038
22.583963 346.40811 -98.621651 2.3509886e-038
27.39299 346.15472 -98.549515 2.3509886e-038
32.384857 347.94168 -99.058258 2.3509886e-038
37.787491 353.10141 -100.52723 2.3509886e-038
43.817711 362.26035 -103.13475 2.3509886e-038
50.399906 373.61813 -106.36829 2.3509886e-038
57.234241 384.54242 -109.47842 2.3509886e-038
59.066238 387.28241 -110.25848 2.3509886e-038
-27.929386 354.07574 -105.74058 2.3509886e-038
-26.119272 351.96664 -105.11073 2.3509886e-038
-20.940729 347.45352 -103.76294 2.3509886e-038
-15.993865 345.22574 -103.09764 2.3509886e-038
-11.162362 344.64197 -102.92329 2.3509886e-038
-6.3689866 345.24277 -103.10272 2.3509886e-038
-1.5629827 346.75787 -103.55519 2.3509886e-038
3.2878253 348.54446 -104.08874 2.3509886e-038
8.1806278 349.99661 -104.5224 2.3509886e-038
13.084971 350.67303 -104.7244 2.3509886e-038
17.960024 350.40997 -104.64585 2.3509886e-038
22.798685 349.70163 -104.43431 2.3509886e-038
27.663065 349.56757 -104.39426 2.3509886e-038
32.690697 351.22757 -104.89001 2.3509886e-038
38.062046 355.66696 -106.21578 2.3509886e-038
43.923901 363.13824 -108.447 2.3509886e-038
50.285851 372.77261 -111.32418 2.3509886e-038
56.966686 382.74475 -114.30225 2.3509886e-038
63.654953 391.05447 -116.78385 2.3509886e-038
63.674896 391.0762 -116.79034 2.3509886e-038
-19.58288 358.91614 -112.18955 2.3509886e-038
-16.531052 356.82086 -111.53461 2.3509886e-038
-11.454268 353.65466 -110.54493 2.3509886e-038
-6.4817114 351.35321 -109.82554 2.3509886e-038
-1.5811058 350.77863 -109.64595 2.3509886e-038
3.3171098 351.64893 -109.91798 2.3509886e-038
8.2547865 353.16937 -110.39324 2.3509886e-038
13.224597 354.41495 -110.78257 2.3509886e-038
18.180614 354.71384 -110.876 2.3509886e-038
23.10358 354.37836 -110.77113 2.3509886e-038
28.038752 354.31494 -110.75132 2.3509886e-038
33.091797 355.53702 -111.13332 2.3509886e-038
38.391285 358.7435 -112.13559 2.3509886e-038
44.057327 364.24139 -113.85412 2.3509886e-038
50.159924 371.83911 -116.229 2.3509886e-038
56.616657 380.39301 -118.90276 2.3509886e-038
63.096611 387.62442 -121.16315 2.3509886e-038
66.492325 390.52328 -122.06927 2.3509886e-038
-9.1378527 362.31934 -118.30422 2.3509886e-038
-6.6375747 359.80206 -117.48228 2.3509886e-038
-1.608445 356.84399 -116.51642 2.3509886e-038
3.3647747 356.7019 -116.47002 2.3509886e-038
8.3685293 358.03574 -116.90554 2.3509886e-038
13.405604 359.26587 -117.3072 2.3509886e-038
18.434397 359.66528 -117.43761 2.3509886e-038
23.436918 359.49133 -117.38081 2.3509886e-038
28.438667 359.36853 -117.34072 2.3509886e-038
33.505264 359.97928 -117.54015 2.3509886e-038
38.732327 361.93033 -118.17721 2.3509886e-038
44.229671 365.6662 -119.39703 2.3509886e-038
50.078182 371.23315 -121.21475 2.3509886e-038
56.255814 377.9686 -123.414 2.3509886e-038
62.569454 384.38593 -125.50938 2.3509886e-038
67.501343 388.49539 -126.8512 2.3509886e-038
2.6259768 363.62457 -123.79948 2.3509886e-038
3.4303422 363.6528 -123.80909 2.3509886e-038
8.5175629 364.41196 -124.06755 2.3509886e-038
13.617821 364.95322 -124.25184 2.3509886e-038
18.70635 364.97122 -124.25796 2.3509886e-038
23.773573 364.65515 -124.15035 2.3509886e-038
28.826998 364.27573 -124.02117 2.3509886e-038
33.904064 364.26395 -124.01717 2.3509886e-038
39.092098 365.29218 -124.36723 2.3509886e-038
44.474144 367.68738 -125.1827 2.3509886e-038
50.099289 371.38962 -126.44316 2.3509886e-038
55.97414 376.07611 -128.03873 2.3509886e-038
62.066734 381.29749 -129.81639 2.3509886e-038
66.593872 385.06808 -131.10013 2.3509886e-038
13.207442 371.76273 -131.7527 2.3509886e-038
13.867723 371.65051 -131.71292 2.3509886e-038
19.01347 370.96332 -131.46939 2.3509886e-038
24.141081 370.29221 -131.23155 2.3509886e-038
29.241467 369.51321 -130.95547 2.3509886e-038
34.342407 368.97351 -130.76422 2.3509886e-038
39.523838 369.32651 -130.88931 2.3509886e-038
44.828808 370.61954 -131.34755 2.3509886e-038
50.2733 372.6796 -132.07764 2.3509886e-038
55.877693 375.4281 -133.05171 2.3509886e-038
61.696171 379.02103 -134.32504 2.3509886e-038
63.882866 380.58344 -134.87875 2.3509886e-038
23.589334 376.43317 -138.65555 2.3509886e-038
24.52249 376.14252 -138.54849 2.3509886e-038
29.656286 374.75513 -138.03745 2.3509886e-038
34.788345 373.76465 -137.67262 2.3509886e-038
39.9757 373.54889 -137.59315 2.3509886e-038
45.228874 373.92706 -137.73245 2.3509886e-038
50.541763 374.66971 -138.00598 2.3509886e-038
55.946491 375.89035 -138.4556 2.3509886e-038
58.894417 376.94934 -138.84567 2.3509886e-038
36.981598 377.69455 -144.38539 2.3509886e-038
40.372715 377.25879 -144.2188 2.3509886e-038
45.600376 376.99844 -144.11929 2.3509886e-038
48.200722 376.97452 -144.11014 2.3509886e-038
-93.678322 315.14322 -58.759285 3.5733111e-043
-94.871407 319.15689 -67.192513 3.5733111e-043
-88.398636 312.01434 -54.944412 3.5733111e-043
-90.884956 320.79013 -69.427658 3.5733111e-043
-84.466606 313.56454 -53.447109 3.5733111e-043
-87.23484 323.84103 -70.743599 3.5733111e-043
-80.805588 316.34494 -53.25024 3.5733111e-043
-83.411446 326.5466 -71.693214 2.3509886e-038
-76.630791 317.31882 -53.794865 3.5733111e-043
-79.181488 327.88095 -72.625328 3.5733111e-043
-72.399391 318.16327 -54.960049 3.5733111e-043
-74.598114 327.82565 -73.722183 3.5733111e-043
-73.903557 345.96814 41.547974 2.3509528e-038
-73.434738 343.77347 20.74811 2.3509528e-038
-68.835953 322.2449 -56.876167 3.5733111e-043
-70.440636 329.75702 -75.516945 3.5733111e-043
-68.779984 344.46249 39.491596 2.3509528e-038
-68.618744 343.65497 11.965486 2.3509528e-038
-65.268021 326.87393 -58.713787 3.5733111e-043
-66.437569 332.73126 -77.502815 3.5733111e-043
-64.518822 347.37418 34.28978 2.3509528e-038
-65.10688 350.54034 3.4393609 2.3509528e-038
-61.423817 330.71042 -59.988243 3.5733111e-043
-62.058437 334.12729 -78.985939 3.5733111e-043
-60.967567 354.89069 27.393917 2.3509528e-038
-60.001499 349.26721 -4.8236556 2.3509528e-038
-57.483059 334.60742 -60.699146 3.5733111e-043
-57.710865 335.93347 -80.859657 3.5733111e-043
-56.31234 356.74112 19.572529 2.3509528e-038
-55.869228 353.93399 -13.814403 2.3509528e-038
-53.650719 339.87964 -60.925449 3.5733111e-043
-53.39233 338.24274 -83.503014 3.5733111e-043
-52.024467 361.50278 12.55904 2.3509886e-038
-52.203186 362.74463 -22.131258 2.3509886e-038
-49.969952 347.22653 -59.850056 2.3509886e-038
-49.137711 341.44354 -87.139282 2.3509886e-038
-46.846535 360.43771 3.8261268 2.3509886e-038
-48.887928 376.1442 -36.681774 2.3509886e-038
-47.170059 362.92691 -53.369602 2.3509886e-038
-44.806076 344.7384 -91.284187 2.3509886e-038
-42.084393 362.70016 -3.9294338 2.3509886e-038
-40.090767 345.51828 -94.817596 2.3509886e-038
-35.345631 346.21902 64.536194 2.3418052e-038
-35.867912 351.3349 39.155827 2.3418052e-038
-37.556557 367.87558 -9.6140003 2.3509886e-038
-35.471085 347.44791 -98.576576 2.3509886e-038
-30.468445 345.6434 64.417542 2.3418052e-038
-31.217272 354.13831 18.196444 2.3418052e-038
-32.172459 364.97427 -12.416007 2.3509886e-038
-31.066509 352.42801 -103.18837 2.3509886e-038
-25.71246 346.48468 57.435474 2.3418052e-038
-26.309431 354.52908 -106.8965 2.3509886e-038
-21.599121 358.37775 44.227348 2.3418052e-038
-21.528673 357.20886 -110.58073 2.3509886e-038
-16.435287 354.75378 27.164814 2.3418052e-038
-16.726864 361.04745 -114.3267 2.3509886e-038
-11.67504 360.4711 5.7983127 2.3418052e-038
-11.741242 362.51511 -117.16375 2.3509886e-038
-6.7327738 364.96252 2.5214953 2.3509886e-038
-6.6768303 361.93002 -119.29232 2.3509886e-038
-1.5967216 354.2431 13.419783 2.3418052e-038
-1.6306733 361.77548 -121.39477 2.3509886e-038
3.3123629 351.14572 35.933739 9.1476764e-041
3.4355094 364.20056 -124.34308 2.3509886e-038
8.1032658 346.68677 60.61068 9.1476764e-041
8.6154737 368.60089 -128.30411 2.3509886e-038
13.001648 348.43997 59.410061 9.1476764e-041
13.886465 372.15277 -132.24353 2.3509886e-038
17.862629 348.50977 -9.4648581 2.3509886e-038
19.208548 374.76935 -135.91432 2.3509886e-038
22.459784 344.50336 -10.949649 2.3418409e-038
24.558439 376.69397 -139.20427 2.3509886e-038
27.024794 341.50198 -8.3611536 2.3418409e-038
29.872736 377.49033 -141.84514 2.3509886e-038
31.522173 338.67303 -3.288825 2.3418409e-038
35.152412 377.67618 -143.88348 2.3509886e-038
35.952969 335.95889 3.2304058 2.3418409e-038
40.414375 377.64804 -144.96181 2.3509886e-038
40.486702 334.72141 10.512154 2.3418409e-038
41.631741 344.18799 -25.591341 2.3418409e-038
41.973743 347.01547 -52.798386 2.3509886e-038
45.634251 377.2785 -144.71341 2.3509886e-038
45.108051 334.38922 18.753683 2.3418409e-038
46.091724 341.68127 -11.489082 2.3418409e-038
50.244183 372.46375 -97.920128 2.3509886e-038
50.803116 376.60715 -143.18558 2.3509886e-038
49.864635 335.02786 26.040253 2.3418409e-038
49.934517 335.49741 -1.031008 2.3418409e-038
57.279331 384.84534 -107.83498 2.3509886e-038
56.017082 376.36462 -140.61563 2.3509886e-038
54.696541 336.01984 29.361036 2.3418409e-038
54.746239 336.32516 9.790534 2.3418409e-038
63.657768 391.07181 -116.7636 2.3509886e-038
61.593628 378.39105 -136.92316 2.3509886e-038
