# .PCD v0.7 - Point Cloud Data file format
VERSION 0.7
FIELDS x y z rgb
SIZE 4 4 4 4
TYPE F F F F
COUNT 1 1 1 1
WIDTH 813
HEIGHT 1
VIEWPOINT 0 0 0 1 0 0 0
POINTS 813
DATA ascii
-30.334509 338.99133 55.879356 2.3418052e-038
4.8185291 341.03461 51.397644 9.1476764e-041
-93.920914 316.53885 -59.632328 3.5733111e-043
-66.12841 326.53134 32.295273 2.3509528e-038
49.433266 328.00055 20.082264 2.3418409e-038
-36.727665 346.33682 59.926239 2.3418052e-038
-35.866745 345.29739 59.746387 2.3418052e-038
-30.298399 339.30692 58.709862 2.3418052e-038
-25.095694 335.87268 58.115643 2.3418052e-038
-25.013647 335.84769 58.111313 2.3418052e-038
-37.321362 346.89145 54.965534 2.3418052e-038
-35.850548 345.14148 54.688244 2.3418052e-038
-30.278797 339.0874 53.72897 2.3418052e-038
-25.042299 335.15805 53.106358 2.3418052e-038
-22.911907 334.79398 53.048668 2.3418052e-038
2.0518072 343.78946 54.474014 9.1476764e-041
4.3602309 342.11786 54.209148 9.1476764e-041
8.9680319 340.73111 53.989418 9.1476764e-041
-36.613949 346.63425 49.871845 2.3418052e-038
-35.910488 345.71854 49.740101 2.3418052e-038
-30.28886 339.2001 48.802265 2.3418052e-038
-25.037697 335.09644 48.211853 2.3418052e-038
-21.903965 334.77002 48.16489 2.3418052e-038
0.45545858 344.47955 49.561844 9.1476764e-041
4.3554773 341.74484 49.168385 9.1476764e-041
9.3057585 340.59702 49.003242 9.1476764e-041
10.345361 340.66785 49.013435 9.1476764e-041
-35.6427 346.28784 44.774132 2.3418052e-038
-30.337578 339.74567 43.928242 2.3418052e-038
-25.097824 335.90121 43.431164 2.3418052e-038
-21.255964 336.14084 43.462151 2.3418052e-038
-0.040633462 344.34665 44.52314 9.1476764e-041
4.3463483 341.02856 44.09412 9.1476764e-041
9.2812681 339.70065 43.922421 9.1476764e-041
10.621993 339.72467 43.925526 9.1476764e-041
-70.137619 328.60522 37.697712 2.3509528e-038
-67.383415 327.24402 37.54155 2.3509528e-038
-65.004967 326.36624 37.440853 2.3509528e-038
-34.605515 346.09674 39.704346 2.3509886e-038
-30.435673 340.84421 39.101772 2.3418052e-038
-25.205931 337.34805 38.700687 2.3418052e-038
-20.487797 338.97842 38.887726 2.3418052e-038
-0.20533405 344.53592 39.525284 9.1476764e-041
4.3371077 340.3035 39.039742 9.1476764e-041
9.2487068 338.50888 38.833858 9.1476764e-041
10.687209 338.45837 38.828064 9.1476764e-041
-72.601196 329.76926 33.024162 2.3509528e-038
-67.395111 327.30084 32.776966 2.3509528e-038
-62.356968 325.90515 32.637199 2.3509528e-038
-59.593609 326.68292 32.715084 2.3509528e-038
-33.681252 346.35031 34.684643 2.3418052e-038
-30.567039 342.31537 34.280571 2.3418052e-038
-25.331072 339.02292 33.950851 2.3418052e-038
-20.551327 341.72064 34.221012 2.3418052e-038
-19.329887 343.32498 34.381676 2.3418052e-038
-0.45278132 345.25073 34.574528 9.1476764e-041
4.3352633 340.15878 34.064602 9.1476764e-041
9.2388287 338.14734 33.863171 9.1476764e-041
10.928684 338.12781 33.861217 9.1476764e-041
-72.340851 331.21713 28.340967 2.3509528e-038
-67.672691 328.6489 28.121212 2.3509528e-038
-62.537903 326.8508 27.967356 2.3509528e-038
-58.115829 328.7883 28.133142 2.3509528e-038
-57.506504 329.58493 28.201303 2.3509528e-038
-32.85471 346.21857 29.62458 2.3418052e-038
-30.676086 343.53659 29.395094 2.3418052e-038
-25.429922 340.34586 29.122076 2.3418052e-038
-20.611511 342.72137 29.32534 2.3418052e-038
-17.856586 346.13562 29.617483 2.3418052e-038
-1.0254387 345.17981 29.535698 2.3509886e-038
-0.63149387 344.63962 29.489477 9.1476764e-041
4.326509 339.47189 29.047295 9.1476764e-041
9.2264576 337.69452 28.895212 9.1476764e-041
11.457688 337.89151 28.912067 9.1476764e-041
-71.027496 333.35294 23.664406 2.3509528e-038
-68.225388 331.33298 23.521011 2.3509528e-038
-62.924942 328.87366 23.346426 2.3509528e-038
-58.408386 330.44345 23.457865 2.3509528e-038
-56.052578 333.30646 23.661106 2.3509528e-038
-32.148979 346.92105 24.627594 2.3418052e-038
-30.83889 345.3598 24.516762 2.3418052e-038
-25.531618 341.70694 24.257448 2.3418052e-038
-20.606913 342.6449 24.324034 2.3418052e-038
-16.419285 346.03638 24.564791 2.3418052e-038
-1.8047491 344.60178 24.462952 9.1476764e-041
-0.62857199 343.04501 24.352438 9.1476764e-041
4.3110485 338.25882 24.012671 9.1476764e-041
9.2032852 336.84641 23.912403 9.1476764e-041
12.177002 337.36801 23.94943 9.1476764e-041
48.357277 334.88739 23.773335 2.3418409e-038
52.490238 331.13559 23.507 2.3418409e-038
53.19936 330.68869 23.475273 2.3418409e-038
-69.144257 335.22003 18.910408 2.3509528e-038
-68.999657 335.0932 18.903254 2.3509528e-038
-63.449211 331.61368 18.706966 2.3509528e-038
-58.729748 332.26154 18.743513 2.3509528e-038
-54.499435 336.04184 18.956768 2.3509528e-038
-54.085564 336.63107 18.990005 2.3509528e-038
-31.609097 349.11325 19.694151 2.3418052e-038
-31.116535 348.46912 19.657812 2.3418052e-038
-25.671665 343.5813 19.382082 2.3418052e-038
-20.637491 343.15335 19.357943 2.3418052e-038
-15.763869 345.9747 19.517099 2.3418052e-038
-15.258488 346.35995 19.538834 2.3418052e-038
-2.4912782 344.88333 19.455532 2.3418052e-038
-0.62714034 342.26367 19.307753 9.1476764e-041
4.3014455 337.50534 19.039326 9.1476764e-041
9.1877785 336.27887 18.970137 9.1476764e-041
12.832797 336.99292 19.01042 9.1476764e-041
44.250835 332.23181 18.741837 2.3418409e-038
47.244728 328.22797 18.515972 2.3418409e-038
51.413181 324.34097 18.296698 2.3418409e-038
53.006603 323.84909 18.26895 2.3418409e-038
-67.393326 336.61337 14.082157 2.3509528e-038
-63.953964 334.2518 13.983359 2.3509528e-038
-58.939716 333.44943 13.949793 2.3509528e-038
-54.368668 335.2355 14.024514 2.3509528e-038
-51.301678 338.00861 14.140526 2.3509528e-038
-31.067774 350.86053 14.678183 2.3509886e-038
-25.810984 345.44586 14.451662 2.3418052e-038
-20.684042 343.92737 14.388135 2.3418052e-038
-15.752828 345.73239 14.463648 2.3418052e-038
-14.234363 346.71078 14.504579 2.3418052e-038
-3.0024359 345.63876 14.459731 2.3418052e-038
-0.62699878 342.18643 14.315304 9.1476764e-041
4.3004169 337.42462 14.116096 9.1476764e-041
9.1894064 336.33844 14.070654 9.1476764e-041
13.10489 337.1987 14.106644 9.1476764e-041
41.396854 331.5051 13.868452 2.3418409e-038
42.643726 329.64725 13.79073 2.3418409e-038
46.697952 324.42929 13.572437 2.3418409e-038
50.919659 321.22757 13.438495 2.3418409e-038
51.974827 321.28009 13.440691 2.3418409e-038
-65.943329 337.97983 9.2125502 2.3509886e-038
-64.464897 336.92212 9.1837187 2.3509528e-038
-59.173286 334.77084 9.1250801 2.3509528e-038
-54.315506 334.90775 9.1288118 2.3509528e-038
-49.846569 337.70618 9.2050905 2.3509528e-038
-48.456112 339.44415 9.2524643 2.3509528e-038
-30.168186 351.53473 9.5820246 2.3509886e-038
-25.973881 347.62604 9.4754839 2.3418052e-038
-20.764067 345.258 9.4109364 2.3418052e-038
-15.775276 346.2251 9.4372969 2.3418052e-038
-13.110719 347.97989 9.4851294 2.3418052e-038
-3.3964651 347.55066 9.4734287 2.3418052e-038
-0.628901 343.22458 9.3555098 9.1476764e-041
4.3084011 338.05112 9.2144938 9.1476764e-041
9.2053566 336.92224 9.1837225 9.1476764e-041
12.955598 337.90353 9.2104702 9.1476764e-041
38.997643 332.86551 9.0731459 2.3418409e-038
42.449673 328.14719 8.9445343 2.3418409e-038
46.637268 324.00769 8.8317022 2.3418409e-038
50.761116 322.05847 8.7785702 2.3418409e-038
-64.620377 340.1084 4.3127699 2.3509886e-038
-59.524414 336.75732 4.2702765 2.3509528e-038
-54.375088 335.27509 4.2514811 2.3509528e-038
-49.780834 337.26083 4.2766619 2.3509528e-038
-46.167885 342.49274 4.3430047 2.3509528e-038
-29.058912 353.66046 4.4846182 2.3509886e-038
-26.211937 350.8121 4.4484997 2.3418052e-038
-20.873053 347.07019 4.4010496 2.3418052e-038
-15.832608 347.48337 4.4062891 2.3418052e-038
-11.267617 351.7757 4.4607186 2.3418052e-038
-3.8995256 351.32498 4.4550028 2.3509886e-038
-0.63318759 345.56396 4.3819499 2.3509886e-038
4.3277712 339.57098 4.3059549 9.1476764e-041
9.2429771 338.29916 4.2898278 9.1476764e-041
12.472252 339.29846 4.3024998 9.1476764e-041
36.397278 334.20972 4.2379713 2.3418409e-038
38.118347 332.08609 4.2110424 2.3418409e-038
42.419811 327.91632 4.1581678 2.3418409e-038
46.886398 325.73853 4.1305518 2.3418409e-038
49.475243 325.44495 4.1268291 2.3418409e-038
-63.00473 342.21048 -0.64900416 2.3509886e-038
-59.972008 339.28958 -0.64346468 2.3509886e-038
-54.508064 336.09503 -0.63740623 2.3509528e-038
-49.793694 337.34796 -0.63978243 2.3509528e-038
-45.628666 343.00494 -0.65051091 2.3509528e-038
-44.077156 345.75513 -0.65572667 2.3509528e-038
-28.068653 356.28436 -0.67569536 2.3509886e-038
-26.46191 354.15768 -0.67166215 2.3509886e-038
-20.961945 348.54825 -0.6610238 2.3509886e-038
-15.870049 348.30511 -0.66056269 2.3418052e-038
-10.957739 353.62952 -0.6706605 2.3509886e-038
-5.840888 355.94745 -0.6750564 2.3509886e-038
-0.63700545 347.64758 -0.65931565 2.3509886e-038
4.3522673 341.49301 -0.64764351 9.1476764e-041
9.3015661 340.44357 -0.64565331 9.1476764e-041
11.844969 341.38303 -0.64743495 9.1476764e-041
33.008698 334.48645 -0.63435555 2.3418409e-038
33.459949 333.90683 -0.63325626 2.3418409e-038
37.83493 329.617 -0.62512058 2.3418409e-038
42.366871 327.50708 -0.62111908 2.3418409e-038
47.229908 328.125 -0.62229103 2.3418409e-038
47.762844 328.47525 -0.62295526 2.3418409e-038
-60.779915 342.4173 -5.6408539 2.3509886e-038
-60.456467 342.03036 -5.6344795 2.3509886e-038
-54.725204 337.4339 -5.5587587 2.3509528e-038
-49.876842 337.91129 -5.5666232 2.3509528e-038
-45.55545 342.45453 -5.6414666 2.3509528e-038
-41.533016 348.35519 -5.7386723 2.3509528e-038
-27.764671 357.18942 -5.8842034 2.3509886e-038
-26.558739 355.45358 -5.8556085 2.3509886e-038
-20.986797 348.96152 -5.7486601 2.3509886e-038
-15.83639 347.56635 -5.7256765 2.3509886e-038
-10.885368 351.29395 -5.7870846 2.3509886e-038
-5.796289 353.22955 -5.8189707 2.3509886e-038
-0.63620287 347.20956 -5.7197995 2.3509886e-038
4.3670206 342.6506 -5.6446967 2.3509886e-038
9.3529739 342.32513 -5.6393352 9.1476764e-041
11.572406 343.26425 -5.6548057 9.1476764e-041
29.398243 336.83865 -5.5489531 2.3418409e-038
33.222755 331.53976 -5.4616609 2.3418409e-038
37.628647 327.81985 -5.4003806 2.3418409e-038
42.297581 326.97144 -5.386404 2.3418409e-038
45.503342 328.11075 -5.4051728 2.3418409e-038
-58.361389 342.06171 -10.621269 2.3509886e-038
-55.099533 339.742 -10.549241 2.3509528e-038
-50.109642 339.48849 -10.541369 2.3509528e-038
-45.5662 342.53534 -10.635976 2.3509528e-038
-41.134075 347.27188 -10.78305 2.3509528e-038
-37.52076 353.457 -10.975101 2.3509528e-038
-29.68611 357.20755 -11.091558 2.3509886e-038
-26.465473 354.20538 -10.998339 2.3509886e-038
-20.987249 348.96902 -10.835747 2.3509886e-038
-15.795838 346.67636 -10.764557 2.3509886e-038
-10.770864 347.59869 -10.793197 2.3509886e-038
-5.7126131 348.13025 -10.809702 2.3509886e-038
-0.63243276 345.15204 -10.717226 2.3509886e-038
4.3677187 342.70535 -10.641254 2.3509886e-038
9.3547859 342.39145 -10.631508 2.3509886e-038
12.632427 343.16815 -10.655624 2.3509886e-038
25.143215 340.09244 -10.560122 2.3418409e-038
28.75001 335.74548 -10.425146 2.3418409e-038
33.15374 330.85104 -10.27317 2.3418409e-038
37.61808 327.72778 -10.17619 2.3418409e-038
42.332211 327.23917 -10.161018 2.3418409e-038
43.509983 327.64911 -10.173747 2.3418409e-038
-56.448448 344.23129 -15.706524 2.3509886e-038
-55.75457 343.78094 -15.685976 2.3509886e-038
-50.547512 342.45499 -15.625475 2.3509886e-038
-45.697105 343.51938 -15.674042 2.3509528e-038
-40.993282 346.08322 -15.791023 2.3509528e-038
-36.322411 349.6842 -15.955329 2.3509886e-038
-31.421766 351.88733 -16.055853 2.3509886e-038
-26.2155 350.8598 -16.008968 2.3509886e-038
-20.939463 348.17441 -15.886441 2.3509886e-038
-15.769806 346.10501 -15.792018 2.3509886e-038
-10.695855 345.17798 -15.749719 2.3509886e-038
-5.6535769 344.53259 -15.72027 2.3509886e-038
-0.62911189 343.33966 -15.66584 2.3509886e-038
4.3588276 342.00772 -15.605068 2.3509886e-038
9.3200703 341.12082 -15.564599 2.3509886e-038
14.280727 340.83649 -15.551626 2.3509886e-038
19.215244 340.23651 -15.52425 2.3418409e-038
23.998196 337.7496 -15.410778 2.3418409e-038
28.621445 334.24408 -15.250829 2.3418409e-038
33.178448 331.09763 -15.107264 2.3418409e-038
37.766792 329.02338 -15.012619 2.3418409e-038
41.845913 329.46573 -15.032803 2.3418409e-038
-55.053177 349.57413 -21.046103 2.3509886e-038
-51.278122 347.40485 -20.915499 2.3509886e-038
-45.967384 345.55118 -20.8039 2.3509886e-038
-40.91769 345.44507 -20.797512 2.3509886e-038
-35.981689 346.40399 -20.855244 2.3509886e-038
-31.021532 347.40515 -20.91552 2.3509886e-038
-25.977917 347.68005 -20.93207 2.3509886e-038
-20.86755 346.9787 -20.889843 2.3509886e-038
-15.752114 345.71671 -20.813866 2.3509886e-038
-10.673771 344.46527 -20.738522 2.3509886e-038
-5.6374121 343.54745 -20.683266 2.3509886e-038
-0.62806183 342.76657 -20.636253 2.3509886e-038
4.3524213 341.5051 -20.560307 2.3509886e-038
9.2889671 339.98245 -20.468636 2.3509886e-038
14.190815 338.69058 -20.390858 2.3418409e-038
19.062105 337.52496 -20.320683 2.3418409e-038
23.852264 335.69577 -20.210554 2.3418409e-038
28.555065 333.46887 -20.076485 2.3418409e-038
33.23708 331.68274 -19.96895 2.3418409e-038
37.968662 330.78201 -19.914724 2.3418409e-038
40.13974 331.29041 -19.945332 2.3418409e-038
-53.853863 355.84274 -26.610651 2.3509886e-038
-52.260696 354.06171 -26.477459 2.3509886e-038
-46.341629 348.36447 -26.051409 2.3509886e-038
-40.954857 345.75885 -25.856556 2.3509886e-038
-35.911003 345.72351 -25.853912 2.3509886e-038
-30.940474 346.49741 -25.911787 2.3509886e-038
-25.909904 346.76981 -25.932158 2.3509886e-038
-20.837839 346.48468 -25.910835 2.3509886e-038
-15.742624 345.50842 -25.83783 2.3509886e-038
-10.673964 344.4715 -25.760284 2.3509886e-038
-5.6416297 343.8045 -25.710405 2.3509886e-038
-0.62868476 343.10657 -25.658213 2.3509886e-038
4.355577 341.75269 -25.556967 2.3509886e-038
9.2844887 339.81854 -25.412327 2.3509886e-038
14.158822 337.92697 -25.270874 2.3418409e-038
18.999653 336.4191 -25.158112 2.3418409e-038
23.794403 334.88147 -25.043123 2.3418409e-038
28.548452 333.39166 -24.931711 2.3418409e-038
33.307091 332.38138 -24.856161 2.3418409e-038
38.150688 332.36783 -24.855148 2.3418409e-038
38.598152 332.47787 -24.863377 2.3418409e-038
-52.536652 358.83371 -32.065067 2.3509886e-038
-46.641323 350.61737 -31.330864 2.3509886e-038
-41.037575 346.45718 -30.959114 2.3509886e-038
-35.963959 346.23331 -30.93911 2.3509886e-038
-30.997883 347.14035 -31.020161 2.3509886e-038
-25.939522 347.1662 -31.022472 2.3509886e-038
-20.849916 346.68549 -30.979515 2.3509886e-038
-15.749026 345.64896 -30.88689 2.3509886e-038
-10.681365 344.71036 -30.803019 2.3509886e-038
-5.6474528 344.15936 -30.753782 2.3509886e-038
-0.62924474 343.41217 -30.687014 2.3509886e-038
4.3590031 342.02151 -30.562748 2.3509886e-038
9.2915277 340.07614 -30.38891 2.3509886e-038
14.169236 338.17557 -30.219076 2.3509886e-038
19.014254 336.67767 -30.085224 2.3418409e-038
23.817722 335.20963 -29.954042 2.3418409e-038
28.596109 333.94818 -29.841322 2.3418409e-038
33.402149 333.33002 -29.786079 2.3418409e-038
37.556686 333.92374 -29.839136 2.3418409e-038
-50.938759 357.0036 -37.105629 2.3509886e-038
-46.702278 351.07559 -36.489494 2.3509886e-038
-41.070671 346.73657 -36.038509 2.3509886e-038
-35.99321 346.51492 -36.015472 2.3509886e-038
-31.026356 347.4592 -36.113621 2.3509886e-038
-25.954866 347.37158 -36.104511 2.3509886e-038
-20.855639 346.78064 -36.043087 2.3509886e-038
-15.7515 345.70325 -35.93111 2.3509886e-038
-10.681278 344.70755 -35.827621 2.3509886e-038
-5.6461644 344.08087 -35.762486 2.3509886e-038
-0.62911755 343.34274 -35.685772 2.3509886e-038
4.3589511 342.01743 -35.548019 2.3509886e-038
9.2959013 340.23624 -35.362892 2.3509886e-038
14.185378 338.56082 -35.188755 2.3509886e-038
19.046824 337.25436 -35.052967 2.3509886e-038
23.869444 335.93756 -34.916103 2.3418409e-038
28.678148 334.90628 -34.808914 2.3418409e-038
33.57198 335.02481 -34.821236 2.3418409e-038
37.200886 336.7962 -35.005344 2.3509886e-038
-49.313992 352.98077 -41.832939 2.3509886e-038
-46.53233 349.79807 -41.455746 2.3509886e-038
-40.998966 346.13123 -41.021179 2.3509886e-038
-35.93446 345.94931 -40.999622 2.3509886e-038
-30.974104 346.87402 -41.109207 2.3509886e-038
-25.92074 346.91483 -41.114044 2.3509886e-038
-20.839804 346.51733 -41.066933 2.3509886e-038
-15.746167 345.58618 -40.956581 2.3509886e-038
-10.679106 344.63745 -40.844147 2.3509886e-038
-5.6450224 344.01126 -40.769932 2.3509886e-038
-0.62905169 343.30682 -40.686447 2.3509886e-038
4.359045 342.02481 -40.534512 2.3509886e-038
9.3005524 340.40643 -40.342716 2.3509886e-038
14.202153 338.96118 -40.171432 2.3509886e-038
19.07748 337.79718 -40.033478 2.3509886e-038
23.913425 336.55658 -39.886456 2.3509886e-038
28.753437 335.78552 -39.795071 2.3509886e-038
33.760555 336.90665 -39.92794 2.3509886e-038
37.105877 339.72989 -40.262531 2.3509886e-038
-48.247192 349.36313 -46.496895 2.3509886e-038
-46.232475 347.54395 -46.25478 2.3509886e-038
-40.819771 344.61838 -45.865417 2.3509886e-038
-35.794678 344.60361 -45.863449 2.3509886e-038
-30.866226 345.66592 -46.004837 2.3509886e-038
-25.856722 346.05804 -46.057018 2.3509886e-038
-20.812613 346.06519 -46.057972 2.3509886e-038
-15.74078 345.46796 -45.978485 2.3509886e-038
-10.684827 344.82205 -45.892521 2.3509886e-038
-5.6513238 344.39526 -45.83572 2.3509886e-038
-0.62966257 343.6402 -45.735229 2.3509886e-038
4.361918 342.25021 -45.55024 2.3509886e-038
9.3087921 340.70801 -45.344982 2.3509886e-038
14.222571 339.44852 -45.177357 2.3509886e-038
19.106256 338.3067 -45.025391 2.3509886e-038
23.935984 336.87402 -44.834717 2.3509886e-038
28.781776 336.11646 -44.733894 2.3509886e-038
33.841057 337.71002 -44.945976 2.3509886e-038
37.005936 340.64194 -45.336189 2.3509886e-038
-48.162125 346.91318 -51.227837 2.3509886e-038
-45.906593 345.09418 -50.959229 2.3509886e-038
-40.59285 342.70264 -50.606075 2.3509886e-038
-35.626053 342.98019 -50.647064 2.3509886e-038
-30.743713 344.29391 -50.841061 2.3509886e-038
-25.782379 345.06302 -50.954628 2.3509886e-038
-20.777674 345.48425 -51.01683 2.3509886e-038
-15.736075 345.36469 -50.999176 2.3509886e-038
-10.695148 345.15515 -50.968235 2.3509886e-038
-5.6603212 344.94354 -50.936985 2.3509886e-038
-0.63052237 344.10944 -50.813816 2.3509886e-038
4.3653522 342.51968 -50.57906 2.3509886e-038
9.3144865 340.91644 -50.342316 2.3509886e-038
14.234292 339.72824 -50.166851 2.3509886e-038
19.119574 338.54251 -49.99176 2.3509886e-038
23.93107 336.8049 -49.735168 2.3509886e-038
28.750513 335.75134 -49.579597 2.3509886e-038
33.749451 336.79584 -49.733833 2.3509886e-038
37.049263 339.02618 -50.063183 2.3509886e-038
-49.550808 346.37234 -56.197071 2.3509886e-038
-45.689812 343.46454 -55.725296 2.3509886e-038
-40.448399 341.48309 -55.403812 2.3509886e-038
-35.512417 341.88623 -55.469219 2.3509886e-038
-30.643736 343.17429 -55.6782 2.3509886e-038
-25.70528 344.03119 -55.817226 2.3509886e-038
-20.732258 344.7291 -55.930462 2.3509886e-038
-15.72718 345.16946 -56.001904 2.3509886e-038
-10.702881 345.40472 -56.040073 2.3509886e-038
-5.6667638 345.33621 -56.028957 2.3509886e-038
-0.63136095 344.56711 -55.904179 2.3509886e-038
4.3705673 342.92889 -55.63839 2.3509886e-038
9.3232126 341.23584 -55.363701 2.3509886e-038
14.243782 339.95474 -55.155846 2.3509886e-038
19.122091 338.5871 -54.933952 2.3509886e-038
23.907713 336.47617 -54.591469 2.3509886e-038
28.685915 334.99698 -54.351475 2.3509886e-038
33.5979 335.28348 -54.397964 2.3509886e-038
37.161888 336.73688 -54.633766 2.3509886e-038
-99.114159 320.21509 -56.621017 3.5733111e-043
-98.523636 319.93225 -56.571011 3.5733111e-043
-93.551094 318.87949 -56.384857 3.5733111e-043
-89.168449 319.83249 -56.553368 3.5733111e-043
-85.227982 322.56412 -57.036381 3.5733111e-043
-81.742432 327.43713 -57.898037 3.5733111e-043
-78.626099 334.48514 -59.144279 3.5733111e-043
-77.440414 337.46298 -59.67083 2.3509886e-038
-52.792336 345.06995 -61.015903 2.3509886e-038
-50.816319 344.27615 -60.875546 2.3509886e-038
-45.478443 341.87567 -60.451088 2.3509886e-038
-40.356438 340.70673 -60.244392 2.3509886e-038
-35.434391 341.13501 -60.320126 2.3509886e-038
-30.549669 342.12085 -60.494442 2.3509886e-038
-25.616623 342.84464 -60.622421 2.3509886e-038
-20.668152 343.66318 -60.767159 2.3509886e-038
-15.700873 344.59213 -60.931416 2.3509886e-038
-10.699192 345.28564 -61.054047 2.3509886e-038
-5.6687493 345.45715 -61.08437 2.3509886e-038
-0.6320315 344.93304 -60.991692 2.3509886e-038
4.3773737 343.46292 -60.731747 2.3509886e-038
9.3380013 341.77713 -60.433659 2.3509886e-038
14.260496 340.35364 -60.181957 2.3509886e-038
19.132364 338.76898 -59.901756 2.3509886e-038
23.903761 336.42053 -59.4865 2.3509886e-038
28.655701 334.6441 -59.17239 2.3509886e-038
33.513626 334.4425 -59.136738 2.3509886e-038
37.209946 335.43365 -59.311996 2.3509886e-038
-101.45506 318.62283 -60.984062 3.5733111e-043
-97.536461 316.72662 -60.621136 3.5733111e-043
-92.839203 316.45291 -60.568745 3.5733111e-043
-88.562698 317.65973 -60.799728 3.5733111e-043
-84.50589 319.83121 -61.215347 3.5733111e-043
-80.763977 323.51773 -61.920944 3.5733111e-043
-77.259125 328.66986 -62.907063 3.5733111e-043
-73.629845 333.939 -63.915558 3.5733111e-043
-69.497223 337.50961 -64.598969 3.5733111e-043
-64.804321 338.69614 -64.826073 3.5733111e-043
-59.944836 339.13586 -64.910233 3.5733111e-043
-55.090706 339.68759 -65.015839 3.5733111e-043
-50.180946 339.97156 -65.07019 2.3509886e-038
-45.176487 339.60574 -65.000175 2.3509886e-038
-40.214115 339.50516 -64.980927 2.3509886e-038
-35.316704 340.00208 -65.076027 2.3509886e-038
-30.426239 340.73859 -65.216995 2.3509886e-038
-25.509993 341.41751 -65.346939 2.3509886e-038
-20.587326 342.31921 -65.519524 2.3509886e-038
-15.657343 343.63675 -65.771698 2.3509886e-038
-10.685642 344.84839 -66.003616 2.3509886e-038
-5.6686568 345.45157 -66.119049 2.3509886e-038
-0.63263655 345.26324 -66.083015 2.3509886e-038
4.3845768 344.02811 -65.846603 2.3509886e-038
9.3555813 342.42056 -65.538918 2.3509886e-038
14.283408 340.90048 -65.247986 2.3509886e-038
19.15461 339.16287 -64.915413 2.3509886e-038
23.930273 336.7937 -64.461945 2.3509886e-038
28.685238 334.98907 -64.116547 2.3509886e-038
33.537106 334.67676 -64.05677 2.3509886e-038
37.284519 335.55789 -64.22541 2.3509886e-038
-96.77375 314.58374 -64.7967 3.5733111e-043
-92.283127 314.5575 -64.79129 3.5733111e-043
-88.071014 315.89615 -65.067024 3.5733111e-043
-84.043182 318.08002 -65.516846 3.5733111e-043
-80.178131 321.17099 -66.153511 3.5733111e-043
-76.334473 324.73633 -66.887886 3.5733111e-043
-72.372032 328.23434 -67.608391 3.5733111e-043
-68.169525 331.06171 -68.190765 3.5733111e-043
-63.683784 332.83969 -68.556984 3.5733111e-043
-59.06963 334.18442 -68.833969 3.5733111e-043
-54.384869 335.33542 -69.071037 3.5733111e-043
-49.634068 336.26651 -69.262833 3.5733111e-043
-44.825977 336.97086 -69.407913 3.5733111e-043
-39.979401 337.52362 -69.521759 2.3509886e-038
-35.123909 338.14597 -69.649948 2.3509886e-038
-30.264736 338.92993 -69.811424 2.3509886e-038
-25.391476 339.83133 -69.997093 2.3509886e-038
-20.502653 340.91129 -70.219543 2.3509886e-038
-15.607654 342.5462 -70.55629 2.3509886e-038
-10.66663 344.23483 -70.904114 2.3509886e-038
-5.6666961 345.33206 -71.130112 2.3509886e-038
-0.63310838 345.52075 -71.168983 2.3509886e-038
4.3907356 344.51132 -70.961067 2.3509886e-038
9.3711863 342.9917 -70.648056 2.3509886e-038
14.304931 341.41415 -70.32312 2.3509886e-038
19.177654 339.57095 -69.943466 2.3509886e-038
23.965948 337.29575 -69.474823 2.3509886e-038
28.748125 335.72345 -69.150978 2.3509886e-038
33.63443 335.64804 -69.135437 2.3509886e-038
37.416813 336.65771 -69.343407 2.3509886e-038
-84.437363 317.74091 -70.078758 3.5733111e-043
-84.011078 317.9585 -70.126747 3.5733111e-043
-80.002502 320.46747 -70.680115 3.5733111e-043
-75.95311 323.11395 -71.263794 3.5733111e-043
-71.778168 325.54095 -71.799088 3.5733111e-043
-67.465996 327.64505 -72.263153 3.5733111e-043
-63.015633 329.34763 -72.638664 3.5733111e-043
-58.503475 330.98141 -72.998993 3.5733111e-043
-53.906807 332.3877 -73.309143 3.5733111e-043
-49.225925 333.5014 -73.554787 3.5733111e-043
-44.496254 334.49222 -73.773308 3.5733111e-043
-39.717701 335.31421 -73.954605 3.5733111e-043
-34.909328 336.08011 -74.123528 2.3509886e-038
-30.094313 337.02139 -74.331123 2.3509886e-038
-25.269995 338.20544 -74.592278 2.3509886e-038
-20.419128 339.52249 -74.882751 2.3509886e-038
-15.548938 341.25754 -75.265419 2.3509886e-038
-10.631939 343.11523 -75.675148 2.3509886e-038
-5.6547098 344.60159 -76.002968 2.3509886e-038
-0.6327042 345.30017 -76.157043 2.3509886e-038
4.3937345 344.74664 -76.034958 2.3509886e-038
9.3838606 343.45563 -75.750214 2.3509886e-038
14.323442 341.85596 -75.3974 2.3509886e-038
19.198555 339.94101 -74.97506 2.3509886e-038
24.005655 337.85458 -74.514893 2.3509886e-038
28.834301 336.72983 -74.266823 2.3509886e-038
33.784363 337.14423 -74.358215 2.3509886e-038
37.645401 338.46405 -74.649315 2.3509886e-038
-72.390373 325.33353 -76.49575 3.5733111e-043
-71.77179 325.51202 -76.53772 3.5733111e-043
-67.310036 326.88763 -76.861168 3.5733111e-043
-62.806034 328.25217 -77.182007 3.5733111e-043
-58.2635 329.62375 -77.504517 3.5733111e-043
-53.644081 330.76773 -77.773491 3.5733111e-043
-48.953239 331.65396 -77.981873 3.5733111e-043
-44.228096 332.47641 -78.175255 3.5733111e-043
-39.468254 333.20828 -78.347351 3.5733111e-043
-34.690521 333.9736 -78.52729 2.3509886e-038
-29.913998 335.00208 -78.769119 2.3509886e-038
-25.131027 336.34555 -79.085007 2.3509886e-038
-20.317793 337.83752 -79.435822 2.3509886e-038
-15.474892 339.63242 -79.857849 2.3509886e-038
-10.585849 341.62787 -80.327042 2.3509886e-038
-5.6361766 343.47217 -80.760696 2.3509886e-038
-0.6314978 344.64182 -81.035713 2.3509886e-038
4.3913422 344.55893 -81.01622 2.3509886e-038
9.3864384 343.54993 -80.778976 2.3509886e-038
14.33149 342.04803 -80.425835 2.3509886e-038
19.216408 340.25711 -80.004738 2.3509886e-038
24.053629 338.52979 -79.598587 2.3509886e-038
28.94434 338.01486 -79.477516 2.3509886e-038
33.995213 339.24832 -79.76754 2.3509886e-038
38.17609 341.52194 -80.302132 2.3509886e-038
-63.030602 330.27631 -82.472435 3.5733111e-043
-58.444138 330.64572 -82.564674 3.5733111e-043
-53.636196 330.71912 -82.583 3.5733111e-043
-48.829098 330.8129 -82.60643 3.5733111e-043
-44.034702 331.02258 -82.658783 3.5733111e-043
-39.246281 331.33429 -82.736618 3.5733111e-043
-34.478523 331.93268 -82.88604 2.3509886e-038
-29.730349 332.9454 -83.138931 2.3509886e-038
-24.980389 334.32947 -83.484535 2.3509886e-038
-20.205549 335.97119 -83.894485 2.3509886e-038
-15.397197 337.92722 -84.382919 2.3509886e-038
-10.54153 340.19757 -84.949844 2.3509886e-038
-5.6193361 342.44592 -85.511276 2.3509886e-038
-0.63032097 343.99954 -85.899223 2.3509886e-038
4.3877897 344.28021 -85.969315 2.3509886e-038
9.3858042 343.52676 -85.781166 2.3509886e-038
14.338523 342.21588 -85.453835 2.3509886e-038
19.241318 340.69818 -85.074852 2.3509886e-038
24.116684 339.41721 -84.75499 2.3509886e-038
29.087765 339.68982 -84.823059 2.3509886e-038
34.337124 342.6604 -85.564827 2.3509886e-038
39.662155 348.45316 -87.01133 2.3509886e-038
-56.260242 333.39203 -88.110336 3.5733111e-043
-53.959881 332.71494 -87.931389 3.5733111e-043
-48.959354 331.6954 -87.661942 3.5733111e-043
-43.994263 330.7186 -87.403786 3.5733111e-043
-39.112251 330.20276 -87.267456 2.3509886e-038
-34.326824 330.47223 -87.338676 2.3509886e-038
-29.590921 331.384 -87.579643 2.3509886e-038
-24.859385 332.70996 -87.930077 2.3509886e-038
-20.116158 334.48477 -88.399132 2.3509886e-038
-15.339485 336.66061 -88.974167 2.3509886e-038
-10.512253 339.25272 -89.659218 2.3509886e-038
-5.6103663 341.89929 -90.358673 2.3509886e-038
-0.6299637 343.80453 -90.862198 2.3509886e-038
4.3891907 344.39014 -91.016953 2.3509886e-038
9.3951626 343.86926 -90.879303 2.3509886e-038
14.362682 342.79251 -90.594734 2.3509886e-038
19.292007 341.59573 -90.27845 2.3509886e-038
24.209576 340.72455 -90.04821 2.3509886e-038
29.270205 341.82037 -90.337814 2.3509886e-038
34.794571 347.22543 -91.766281 2.3509886e-038
41.097931 358.04419 -94.625511 2.3509886e-038
43.305843 362.54376 -95.814682 2.3509886e-038
-49.439068 335.95581 -93.685158 2.3509886e-038
-44.282639 332.88638 -92.829224 2.3509886e-038
-39.192432 330.87967 -92.269615 2.3509886e-038
-34.332649 330.52829 -92.171631 2.3509886e-038
-29.5749 331.20456 -92.360222 2.3509886e-038
-24.827791 332.28717 -92.662109 2.3509886e-038
-20.086275 333.98792 -93.136391 2.3509886e-038
-15.321694 336.27014 -93.772812 2.3509886e-038
-10.50601 339.05124 -94.548363 2.3509886e-038
-5.6108599 341.92938 -95.35096 2.3509886e-038
-0.63056177 344.13092 -95.96489 2.3509886e-038
4.3971767 345.01675 -96.211906 2.3509886e-038
9.4199686 344.77716 -96.145096 2.3509886e-038
14.414407 344.02701 -95.935905 2.3509886e-038
19.383991 343.22443 -95.712097 2.3509886e-038
24.351429 342.72101 -95.571709 2.3509886e-038
29.485361 344.33301 -96.021233 2.3509886e-038
35.193344 351.20486 -97.937538 2.3509886e-038
41.763458 363.84222 -101.4616 2.3509886e-038
48.911701 378.3158 -105.49773 2.3509886e-038
-42.173592 335.59146 -98.475525 2.3509886e-038
-39.544071 333.84839 -97.964043 2.3509886e-038
-34.543228 332.5556 -97.584679 2.3509886e-038
-29.722221 332.8544 -97.672356 2.3509886e-038
-24.929739 333.65161 -97.906288 2.3509886e-038
-20.150372 335.05368 -98.317719 2.3509886e-038
-15.360667 337.12552 -98.925674 2.3509886e-038
-10.526974 339.72781 -99.689293 2.3509886e-038
-5.62076 342.53268 -100.51234 2.3509886e-038
-0.63210839 344.97501 -101.22901 2.3509886e-038
4.4137139 346.3143 -101.62202 2.3509886e-038
9.4694729 346.58905 -101.70264 2.3509886e-038
14.506639 346.22833 -101.59679 2.3509886e-038
19.520483 345.64127 -101.42452 2.3509886e-038
24.540155 345.37714 -101.34702 2.3509886e-038
29.73805 347.28391 -101.90654 2.3509886e-038
35.493401 354.19922 -103.93576 2.3509886e-038
42.023289 366.10587 -107.42963 2.3509886e-038
49.01844 378.92548 -111.1914 2.3509886e-038
54.589588 387.26736 -113.63923 2.3509886e-038
-34.575542 336.28421 -103.58085 2.3509886e-038
-30.03668 336.37598 -103.60912 2.3509886e-038
-25.205389 337.34079 -103.9063 2.3509886e-038
-20.345612 338.30008 -104.20177 2.3509886e-038
-15.483246 339.8158 -104.66863 2.3509886e-038
-10.594224 341.8981 -105.31001 2.3509886e-038
-5.649826 344.30399 -106.05106 2.3509886e-038
-0.6354717 346.81055 -106.82313 2.3509886e-038
4.444788 348.7525 -107.42128 2.3509886e-038
9.5566988 349.78162 -107.73826 2.3509886e-038
14.658257 349.84695 -107.75838 2.3509886e-038
19.72928 349.33835 -107.60173 2.3509886e-038
24.820688 349.32535 -107.59773 2.3509886e-038
30.092199 351.41971 -108.24283 2.3509886e-038
35.796391 357.22287 -110.03028 2.3509886e-038
42.089233 366.68039 -112.94335 2.3509886e-038
48.826801 377.44406 -116.25874 2.3509886e-038
55.635185 386.51981 -119.05421 2.3509886e-038
59.073925 390.04865 -120.14115 2.3509886e-038
-25.06896 344.07352 -110.99565 2.3509886e-038
-20.701506 344.21774 -111.04218 2.3509886e-038
-15.735062 345.3425 -111.40501 2.3509886e-038
-10.747679 346.85043 -111.89147 2.3509886e-038
-5.7130232 348.15527 -112.3124 2.3509886e-038
-0.6416508 350.1828 -112.96647 2.3509886e-038
4.494225 352.63144 -113.75639 2.3509886e-038
9.6829185 354.40134 -114.32734 2.3509886e-038
14.86713 354.83212 -114.4663 2.3509886e-038
20.01639 354.42206 -114.33402 2.3509886e-038
25.198488 354.64249 -114.40514 2.3509886e-038
30.530167 356.5343 -115.01542 2.3509886e-038
36.127388 360.526 -116.30311 2.3509886e-038
42.110138 366.86249 -118.34721 2.3509886e-038
48.536472 375.19974 -121.03675 2.3509886e-038
55.168991 383.28098 -123.6437 2.3509886e-038
61.692352 389.18732 -125.54905 2.3509886e-038
61.731815 389.21655 -125.55848 2.3509886e-038
-13.366954 356.02286 -120.04023 2.3509886e-038
-11.021775 355.69611 -119.93006 2.3509886e-038
-5.8160944 354.43649 -119.50536 2.3509886e-038
-0.65113038 355.35632 -119.8155 2.3509886e-038
4.5637388 358.08575 -120.73577 2.3509886e-038
9.8421926 360.23087 -121.45905 2.3509886e-038
15.112385 360.68558 -121.61237 2.3509886e-038
20.346922 360.27466 -121.47381 2.3509886e-038
25.606142 360.37979 -121.50925 2.3509886e-038
30.945057 361.37946 -121.84631 2.3509886e-038
36.419136 363.43738 -122.54018 2.3509886e-038
42.148846 367.19971 -123.80873 2.3509886e-038
48.275764 373.18442 -125.8266 2.3509886e-038
54.690361 379.95575 -128.10968 2.3509886e-038
61.141315 385.71106 -130.0502 2.3509886e-038
62.30801 386.63834 -130.36285 2.3509886e-038
0.37029245 363.37399 -127.81575 2.3509886e-038
4.6617255 365.77411 -128.65997 2.3509886e-038
10.045035 367.65503 -129.32159 2.3509886e-038
15.393153 367.38663 -129.22717 2.3509886e-038
20.691856 366.38229 -128.87392 2.3509886e-038
25.994604 365.84698 -128.68562 2.3509886e-038
31.328764 365.86044 -128.69035 2.3509886e-038
36.742298 366.66235 -128.97241 2.3509886e-038
42.339668 368.86212 -129.74619 2.3509886e-038
48.221306 372.76343 -131.11845 2.3509886e-038
54.328144 377.4393 -132.76318 2.3509886e-038
60.553463 382.00259 -134.3683 2.3509886e-038
60.676739 382.10156 -134.40311 2.3509886e-038
13.236 375.88016 -137.69398 2.3509886e-038
15.709873 374.94577 -137.3517 2.3509886e-038
21.052977 372.77652 -136.55705 2.3509886e-038
26.378445 371.24915 -135.99753 2.3509886e-038
31.723194 370.46658 -135.71086 2.3509886e-038
37.129688 370.52823 -135.73346 2.3509886e-038
42.662247 371.67245 -136.1526 2.3509886e-038
48.365578 373.87869 -136.9608 2.3509886e-038
54.194057 376.50772 -137.92387 2.3509886e-038
56.965519 377.85117 -138.41602 2.3509886e-038
23.663034 377.63437 -143.84145 2.3509886e-038
26.733238 376.24249 -143.31126 2.3509886e-038
32.095734 374.81717 -142.76836 2.3509886e-038
37.510563 374.3291 -142.58244 2.3509886e-038
42.999588 374.61136 -142.68996 2.3509886e-038
48.594517 375.64844 -143.08499 2.3509886e-038
50.552368 376.09641 -143.25562 2.3509886e-038
-98.601494 320.18506 -56.286991 3.5733111e-043
-96.889328 314.62521 -64.745483 3.5733111e-043
-93.875511 319.98529 -54.506577 3.5733111e-043
-92.202957 314.28421 -66.83931 3.5733111e-043
-89.508636 321.05267 -54.075825 3.5733111e-043
-88.039413 315.78281 -68.548302 3.5733111e-043
-85.697693 324.34186 -54.763809 3.5733111e-043
-84.022339 318.0011 -70.266792 3.5733111e-043
-82.224266 329.36722 -56.370491 3.5733111e-043
-80.050964 320.66159 -72.281242 3.5733111e-043
-78.81971 335.30878 -58.686604 2.3509886e-038
-75.981743 323.23575 -74.486275 3.5733111e-043
-74.988358 340.10037 -61.192467 2.3509886e-038
-71.79982 325.63916 -76.828163 3.5733111e-043
-67.4058 327.35269 38.174282 2.3509528e-038
-69.042427 335.30093 18.654888 2.3509528e-038
-70.289574 341.35764 -63.089996 2.3509886e-038
-67.471176 327.67023 -79.301689 3.5733111e-043
-62.363136 325.93738 35.777901 2.3509528e-038
-64.960365 339.51169 5.5143867 2.3509886e-038
-65.111618 340.30215 -64.073608 3.5733111e-043
-63.172832 330.16922 -82.347748 3.5733111e-043
-58.068489 328.52048 29.683762 2.3509528e-038
-60.511211 342.34012 -6.1778884 2.3509886e-038
-60.164429 340.3782 -64.181442 2.3509886e-038
-58.819824 332.77112 -86.124695 3.5733111e-043
-54.516567 336.14746 19.890623 2.3509528e-038
-56.019268 345.41306 -17.153685 2.3509886e-038
-55.574356 342.66977 -62.994488 2.3509886e-038
-54.151978 333.89941 -89.727875 3.5733111e-043
-49.960434 338.4776 11.936176 2.3509528e-038
-52.917221 358.50958 -30.625313 2.3509886e-038
-51.086891 346.10928 -58.976208 2.3509886e-038
-49.581902 335.91309 -93.572044 2.3509886e-038
-45.672363 343.33344 3.1583078 2.3509528e-038
-44.701584 336.03577 -96.935555 2.3509886e-038
-41.2952 348.63217 -6.1245365 2.3509528e-038
-39.712955 335.27417 -99.993027 2.3509886e-038
-35.892567 345.54599 61.246162 2.3418052e-038
-35.98222 346.40912 46.464668 2.3418052e-038
-36.780106 354.09052 -11.589356 2.3509528e-038
-34.915012 336.13486 -103.33311 2.3509886e-038
-30.344006 339.81769 62.411156 2.3418052e-038
-31.286142 350.3685 16.499348 2.3509886e-038
-31.840012 356.5712 -12.549071 2.3509886e-038
-30.28709 339.1803 -106.96023 2.3509886e-038
-25.097208 335.89294 58.221199 2.3418052e-038
-25.670021 343.5593 -110.56977 2.3509886e-038
-20.406443 339.31155 38.48056 2.3418052e-038
-20.872715 347.06458 -113.66359 2.3509886e-038
-15.772097 346.15527 21.896717 2.3418052e-038
-16.059763 352.46881 -117.58688 2.3509886e-038
-10.923768 352.53323 3.7601686 2.3418052e-038
-11.089039 357.86685 -121.69041 2.3509886e-038
-5.8403096 355.91217 0.16336334 2.3509886e-038
-5.8935781 359.15839 -124.24392 2.3509886e-038
-0.63286978 345.39053 32.565994 9.1476764e-041
-0.66394526 362.35007 -127.12691 2.3509886e-038
4.361702 342.23328 56.626717 9.1476764e-041
4.6946592 368.35818 -131.03217 2.3509886e-038
9.3098898 340.74823 53.335342 9.1476764e-041
10.216135 373.91736 -135.42998 2.3509886e-038
14.347933 342.44049 -12.869711 2.3509886e-038
15.794471 376.96487 -139.47119 2.3509886e-038
19.281246 341.40518 -14.032537 2.3418409e-038
21.331213 377.70309 -142.71942 2.3509886e-038
24.191879 340.47549 -11.391429 2.3418409e-038
26.819366 377.45468 -145.12129 2.3509886e-038
28.887236 337.34802 -6.2302551 2.3418409e-038
32.280895 376.97952 -146.58667 2.3509886e-038
33.508499 334.3913 0.038137015 2.3418409e-038
37.727589 376.49481 -147.06346 2.3509886e-038
38.272564 333.42963 7.6155796 2.3418409e-038
38.203487 332.82785 -26.356304 2.3418409e-038
40.343136 351.46841 -89.147743 2.3509886e-038
43.171757 376.11127 -146.33345 2.3509886e-038
42.900719 331.63388 16.557451 2.3418409e-038
42.507046 328.5907 -13.089209 2.3418409e-038
48.950481 378.40015 -105.5574 2.3509886e-038
48.645416 376.0419 -144.27203 2.3509886e-038
48.190212 334.79663 23.624218 2.3418409e-038
47.304985 328.64661 -1.6429185 2.3418409e-038
55.918259 388.48645 -115.48722 2.3509886e-038
54.221783 376.70035 -140.72995 2.3509886e-038
52.754078 332.80002 24.576267 2.3418409e-038
50.99387 321.69574 9.6320105 2.3418409e-038
61.702454 389.25104 -125.46404 2.3509886e-038
60.527821 381.84082 -134.58282 2.3509886e-038
