# .PCD v0.7 - Point Cloud Data file format
VERSION 0.7
FIELDS x y z rgb
SIZE 4 4 4 4
TYPE F F F F
COUNT 1 1 1 1
WIDTH 698
HEIGHT 1
VIEWPOINT 0 0 0 1 0 0 0
POINTS 698
DATA ascii
-67.196358 365.83591 36.182648 2.3418052e-038
0 0 0 3.5733111e-043
0 0 0 3.5733111e-043
-26.299412 372.27173 63.118591 2.3509528e-038
32.117233 340.9678 36.934818 2.3418409e-038
-32.232826 375.40369 66.074799 2.3509528e-038
-31.652008 375.00217 66.004128 2.3509528e-038
-26.405359 372.82288 65.620552 2.3509528e-038
-21.347172 372.90231 65.634529 2.3509528e-038
-20.894569 373.01993 65.655228 2.3509528e-038
-32.341286 375.40881 60.977875 2.3509528e-038
-31.639791 374.85745 60.888321 2.3509528e-038
-26.36162 372.20532 60.457531 2.3509528e-038
-21.272707 371.6015 60.359451 2.3509528e-038
-18.369038 372.50623 60.506413 2.3509528e-038
-31.608053 375.23123 55.853607 2.3509528e-038
-26.359463 372.17487 55.398666 2.3509528e-038
-21.246754 371.1481 55.245831 2.3509528e-038
-16.594608 372.68945 55.475262 2.3509528e-038
-30.695761 375.45639 50.788643 2.3509528e-038
-26.412325 372.92123 50.445709 2.3509528e-038
-21.268105 371.52112 50.256317 2.3509528e-038
-16.265057 372.48245 50.386353 2.3509528e-038
-15.082195 373.30545 50.497684 2.3509528e-038
-29.781225 376.45258 45.811405 2.3509528e-038
-26.500406 374.16486 45.533005 2.3509528e-038
-21.301361 372.10202 45.281975 2.3509528e-038
-16.277107 372.75842 45.361855 2.3509528e-038
-13.535701 374.7829 45.608219 2.3509528e-038
30.606089 343.26129 41.772282 2.3418409e-038
31.603645 343.043 41.745716 2.3418409e-038
35.494457 343.77374 41.834641 2.3418409e-038
-73.645607 367.94226 39.779335 2.3418052e-038
-70.786209 366.69174 39.644138 2.3418052e-038
-65.754135 366.39853 39.612438 2.3418052e-038
-62.889889 367.91965 39.77689 2.3418052e-038
-28.747051 377.28418 40.789318 2.3509528e-038
-26.59235 375.46304 40.59243 2.3509528e-038
-21.32913 372.58716 40.281509 2.3509528e-038
-16.297333 373.22162 40.350101 2.3509528e-038
-11.879722 378.11264 40.878883 2.3509528e-038
27.749603 342.91144 37.073181 2.3418409e-038
31.466871 341.55838 36.926895 2.3418409e-038
36.221573 342.66092 37.046097 2.3418409e-038
37.646801 343.47717 37.134342 2.3418409e-038
-73.742325 368.57535 34.842739 2.3418052e-038
-70.90097 367.28622 34.720875 2.3418052e-038
-65.842094 366.88861 34.683289 2.3418052e-038
-61.263306 369.32019 34.913151 2.3418052e-038
-58.946362 372.16998 35.182556 2.3418052e-038
-27.611961 378.09479 35.742649 2.3509528e-038
-26.712431 377.15848 35.654137 2.3509528e-038
-21.362017 373.16159 35.276295 2.3509528e-038
-16.307941 373.46454 35.304935 2.3509528e-038
-11.418785 379.52237 35.877605 2.3509528e-038
-10.188294 382.17572 36.128433 2.3509528e-038
26.550463 342.03708 32.333984 2.3418409e-038
26.852707 341.86374 32.317596 2.3418409e-038
31.375647 340.56818 32.195126 2.3418409e-038
36.095051 341.46402 32.279808 2.3418409e-038
38.409435 342.59229 32.386471 2.3418409e-038
-72.041977 369.508 29.913204 2.3418052e-038
-71.255104 369.12076 29.881853 2.3418052e-038
-66.046448 368.02737 29.793339 2.3418052e-038
-61.266823 369.3414 29.899715 2.3418052e-038
-56.833744 373.16513 30.209263 2.3418052e-038
-55.692001 374.59088 30.324682 2.3418052e-038
-26.491407 379.56445 30.727316 2.3509528e-038
-21.419956 374.17371 30.290911 2.3509528e-038
-16.293324 373.12976 30.2064 2.3509528e-038
-11.37644 378.11493 30.60997 2.3509528e-038
-8.8103819 383.04269 31.008892 2.3509528e-038
26.189489 342.23157 27.705065 2.3418409e-038
26.848743 341.81329 27.671202 2.3418409e-038
31.352587 340.31787 27.550142 2.3418409e-038
36.015118 340.70786 27.581713 2.3418409e-038
38.611332 341.63177 27.656507 2.3418409e-038
-69.585693 370.5412 24.965122 2.3418052e-038
-66.274681 369.2991 24.881439 2.3418052e-038
-61.212189 369.01205 24.862097 2.3418052e-038
-56.507149 371.02072 24.997433 2.3418052e-038
-52.498138 375.0531 25.269112 2.3418052e-038
-25.37579 380.06033 25.606474 2.3509528e-038
-21.471224 375.06931 25.270203 2.3509528e-038
-16.25058 372.15097 25.07358 2.3509528e-038
-11.281401 374.95618 25.262583 2.3509528e-038
-7.7189574 379.48755 25.567883 2.3509528e-038
26.185204 343.73212 23.158869 2.3418409e-038
26.94705 343.06485 23.113911 2.3418409e-038
31.410654 340.94812 22.971298 2.3418409e-038
36.048119 341.02005 22.976143 2.3418409e-038
38.569283 341.78586 23.027739 2.3418409e-038
-66.855225 371.19699 19.968679 2.3418052e-038
-66.582085 371.01202 19.958731 2.3418052e-038
-61.182995 368.83606 19.841673 2.3418052e-038
-56.244965 369.29926 19.86659 2.3418052e-038
-51.705555 372.72656 20.050962 2.3418052e-038
-48.787682 376.31216 20.243853 2.3418052e-038
-24.185064 379.71783 20.427061 2.3509528e-038
-21.518826 375.90082 20.221724 2.3509528e-038
-16.20207 371.04001 19.960236 2.3509528e-038
-11.160362 370.93326 19.954493 2.3509528e-038
-6.2261834 372.00342 20.012062 2.3509528e-038
26.157125 345.45346 18.583797 2.3418409e-038
27.060007 344.50293 18.532663 2.3418409e-038
31.504999 341.97223 18.396523 2.3418409e-038
36.150673 341.9902 18.39749 2.3418409e-038
38.314228 342.65155 18.433067 2.3418409e-038
-63.977493 371.06 14.92253 2.3509886e-038
-61.313988 369.62573 14.86485 2.3509886e-038
-56.19492 368.97067 14.838506 2.3418052e-038
-51.51437 371.34839 14.934128 2.3418052e-038
-47.058811 376.04001 15.122807 2.3418052e-038
-44.630852 379.60068 15.266002 2.3418052e-038
-22.684044 378.20364 15.209818 2.3509528e-038
-21.545752 376.37115 15.136124 2.3509528e-038
-16.138468 369.5835 14.863152 2.3509528e-038
-11.009065 365.90463 14.715202 2.3509528e-038
-5.9636798 361.26291 14.528532 2.3509528e-038
-1.8554564 354.31308 14.249037 2.3509886e-038
25.765139 346.75 13.94488 2.3418409e-038
27.128128 345.37018 13.88939 2.3418409e-038
31.589664 342.8912 13.789697 2.3418409e-038
36.241108 342.84573 13.787868 2.3418409e-038
37.972939 343.31747 13.806839 2.3418409e-038
-60.964127 371.59412 9.8979778 2.3509886e-038
-56.420002 370.44852 9.8674631 2.3418052e-038
-51.536926 371.51099 9.8957634 2.3418052e-038
-46.845146 374.33264 9.9709225 2.3418052e-038
-42.265972 378.85056 10.091264 2.3418052e-038
-40.578018 380.93307 10.146735 2.3418052e-038
-21.022882 372.83716 9.9310884 2.3509528e-038
-15.928449 364.7739 9.7163105 2.3509528e-038
-10.745163 357.13342 9.5127954 2.3509886e-038
-5.7612243 348.99872 9.2961149 2.3509886e-038
-1.0006942 341.71097 9.1019945 2.3509886e-038
3.620683 339.93909 9.0547981 2.3509886e-038
6.3057737 341.7536 9.1031294 2.3509886e-038
24.738297 348.88773 9.2931576 2.3418409e-038
27.220772 346.54962 9.2308788 2.3418409e-038
31.706415 344.15851 9.1671877 2.3418409e-038
36.368477 344.05069 9.1643152 2.3418409e-038
37.901794 344.44244 9.1747522 2.3418409e-038
-57.742828 373.59863 4.8781319 2.3418052e-038
-56.870056 373.40356 4.8755846 2.3418052e-038
-51.733208 372.9259 4.869348 2.3418052e-038
-46.735378 373.45554 4.8762631 2.3418052e-038
-41.8881 375.4635 4.9024811 2.3418052e-038
-37.120152 378.83795 4.9465418 2.3418052e-038
-36.378067 379.33719 4.9530606 2.3418052e-038
-19.679712 359.21939 4.6903796 2.3509886e-038
-15.352597 351.58643 4.5907154 2.3509886e-038
-10.346506 343.88339 4.4901352 2.3509886e-038
-5.5759649 337.77625 4.4103937 2.3509886e-038
-0.98427469 336.10413 4.3885608 2.3509886e-038
3.6101203 338.94739 4.4256854 2.3509886e-038
8.3495426 344.59009 4.4993629 2.3509886e-038
11.449573 348.41284 4.5492768 2.3509886e-038
22.555462 351.82465 4.5938253 2.3509886e-038
22.844015 351.61633 4.5911055 2.3509886e-038
27.336367 348.02127 4.5441642 2.3418409e-038
31.866968 345.90121 4.5164824 2.3418409e-038
36.569649 345.95377 4.5171685 2.3418409e-038
38.380642 346.50781 4.5244026 2.3418409e-038
-54.321613 376.41345 -0.1965781 2.3418052e-038
-52.072262 375.37003 -0.19603316 2.3418052e-038
-46.779377 373.80707 -0.19521694 2.3418052e-038
-41.699574 373.77365 -0.19519949 2.3418052e-038
-36.718708 374.74094 -0.19570464 2.3418052e-038
-31.428705 372.35657 -0.19445942 2.3418052e-038
-30.370132 371.0426 -0.19377322 2.3418052e-038
-20.668049 345.57999 -0.18047564 2.3509886e-038
-19.611176 342.57709 -0.17890739 2.3509886e-038
-14.567493 333.60693 -0.17422283 2.3509886e-038
-9.9576082 330.9577 -0.1728393 2.3509886e-038
-5.477458 331.80896 -0.17328386 2.3509886e-038
-0.98574334 336.60568 -0.17578888 2.3509886e-038
3.6494107 342.63629 -0.17893833 2.3509886e-038
8.4383993 348.25726 -0.18187383 2.3509886e-038
13.323285 352.37698 -0.1840253 2.3509886e-038
18.182331 353.81619 -0.1847769 2.3509886e-038
22.879644 352.16473 -0.18391445 2.3509886e-038
27.436092 349.29086 -0.18241361 2.3418409e-038
32.035191 347.7272 -0.18159701 2.3418409e-038
36.805435 348.18439 -0.18183576 2.3418409e-038
39.190357 349.14749 -0.18233873 2.3418409e-038
-50.964024 377.92178 -5.3293247 2.3418052e-038
-47.013332 375.67661 -5.2976642 2.3418052e-038
-41.704861 373.82101 -5.2714972 2.3418052e-038
-36.392036 371.40701 -5.2374554 2.3418052e-038
-30.588926 362.40714 -5.1105428 2.3509886e-038
-24.473423 345.54547 -4.8727651 2.3509886e-038
-18.791395 328.25674 -4.6289659 2.3509886e-038
-14.111929 323.17416 -4.5572925 2.3509886e-038
-9.8366776 326.93839 -4.610374 2.3509886e-038
-5.5260792 334.7543 -4.720592 2.3509886e-038
-1.0072458 343.94815 -4.8502402 2.3509886e-038
3.7310045 350.29697 -4.9397688 2.3509886e-038
8.5675545 353.58759 -4.9861727 2.3509886e-038
13.417407 354.86639 -5.0042052 2.3509886e-038
18.205481 354.26663 -4.995748 2.3509886e-038
22.886921 352.2767 -4.9676867 2.3509886e-038
27.498274 350.08252 -4.9367447 2.3418409e-038
32.15485 349.02606 -4.9218469 2.3418409e-038
36.976963 349.80704 -4.9328599 2.3418409e-038
39.748505 351.09308 -4.9509954 2.3418409e-038
-47.732334 380.00967 -10.519079 2.3509886e-038
-47.536423 379.85654 -10.514839 2.3509886e-038
-41.898247 375.55447 -10.395754 2.3418052e-038
-36.072155 368.1424 -10.19058 2.3509886e-038
-29.698866 351.862 -9.7399216 2.3509886e-038
-23.552431 332.54178 -9.2051163 2.3509886e-038
-18.377188 321.02124 -8.8862152 2.3509886e-038
-14.114355 323.22971 -8.9473486 2.3509886e-038
-10.046337 333.90677 -9.2429008 2.3509886e-038
-5.7172532 346.33508 -9.5869303 2.3509886e-038
-1.0420097 355.81912 -9.8494587 2.3509886e-038
3.8288264 359.48126 -9.9508305 2.3509886e-038
8.7025642 359.15948 -9.9419222 2.3509886e-038
13.514974 357.44681 -9.8945141 2.3509886e-038
18.249081 355.11508 -9.8299704 2.3509886e-038
22.917286 352.74411 -9.7643385 2.3509886e-038
27.554321 350.79608 -9.7104149 2.3418409e-038
32.225803 349.79623 -9.6827383 2.3418409e-038
37.047222 350.47171 -9.701436 2.3418409e-038
40.1842 351.88324 -9.740509 2.3418409e-038
-44.219742 381.86646 -15.755989 2.3509886e-038
-42.271084 378.89639 -15.633442 2.3509886e-038
-35.765892 365.01675 -15.060762 2.3509886e-038
-28.956999 343.07263 -14.155336 2.3509886e-038
-22.955679 324.11612 -13.373182 2.3509886e-038
-18.309864 319.84518 -13.196961 2.3509886e-038
-14.406908 329.92941 -13.613042 2.3509886e-038
-10.406979 345.89328 -14.271718 2.3509886e-038
-5.9352059 359.53806 -14.834707 2.3509886e-038
-1.0732434 366.48462 -15.121325 2.3509886e-038
3.9078245 366.89825 -15.138393 2.3509886e-038
8.8152161 363.80869 -15.010916 2.3509886e-038
13.614243 360.07236 -14.856753 2.3509886e-038
18.332607 356.74048 -14.719278 2.3509886e-038
22.999451 354.00879 -14.606568 2.3509886e-038
27.63382 351.80817 -14.515769 2.3418409e-038
32.276508 350.34659 -14.455463 2.3418409e-038
37.043442 350.43591 -14.459149 2.3418409e-038
40.732571 351.77167 -14.514262 2.3418409e-038
-39.676281 375.00745 -20.565353 2.3509886e-038
-35.520725 362.51465 -19.880251 2.3509886e-038
-28.545834 338.20129 -18.546909 2.3509886e-038
-22.767027 321.45248 -17.628407 2.3509886e-038
-18.420259 321.77362 -17.646019 2.3509886e-038
-14.686422 336.33051 -18.444315 2.3509886e-038
-10.657702 354.22653 -19.425732 2.3509886e-038
-6.0558209 366.84457 -20.117702 2.3509886e-038
-1.0878934 371.48724 -20.372305 2.3509886e-038
3.9474704 370.62051 -20.324774 2.3509886e-038
8.8909492 366.93423 -20.12262 2.3509886e-038
13.708429 362.56342 -19.882923 2.3509886e-038
18.442444 358.87781 -19.680805 2.3509886e-038
23.11754 355.82645 -19.51347 2.3509886e-038
27.735611 353.1041 -19.364176 2.3509886e-038
32.326153 350.8855 -19.24251 2.3509886e-038
37.006424 350.08572 -19.19865 2.3418409e-038
41.396915 351.03177 -19.25053 2.3418409e-038
-34.401306 357.36218 -24.450449 2.3509886e-038
-28.42601 336.78165 -23.042345 2.3509886e-038
-22.818989 322.18616 -22.043732 2.3509886e-038
-18.487665 322.95111 -22.096069 2.3509886e-038
-14.714612 336.97604 -23.055645 2.3509886e-038
-10.676671 354.85696 -24.279045 2.3509886e-038
-6.0718713 367.81683 -25.165749 2.3509886e-038
-1.0903193 372.31561 -25.473553 2.3509886e-038
3.9601619 371.81213 -25.439104 2.3509886e-038
8.9332476 368.67993 -25.224802 2.3509886e-038
13.782176 364.51389 -24.939762 2.3509886e-038
18.541304 360.80154 -24.685768 2.3509886e-038
23.225262 357.4845 -24.458818 2.3509886e-038
27.825167 354.24423 -24.23712 2.3509886e-038
32.362064 351.2753 -24.033989 2.3509886e-038
36.946114 349.5152 -23.913565 2.3509886e-038
41.693703 349.52661 -23.914345 2.3509886e-038
42.064838 349.72467 -23.927896 2.3509886e-038
-30.162907 340.72229 -27.938782 2.3509886e-038
-28.2981 335.2662 -27.491388 2.3509886e-038
-22.95112 324.05173 -26.571817 2.3509886e-038
-18.545319 323.95822 -26.56415 2.3509886e-038
-14.636091 335.17786 -27.484146 2.3509886e-038
-10.590887 352.00577 -28.864014 2.3509886e-038
-6.040978 365.9454 -30.007044 2.3509886e-038
-1.0876573 371.40662 -30.454855 2.3509886e-038
3.9591873 371.72061 -30.480602 2.3509886e-038
8.9468203 369.24008 -30.277203 2.3509886e-038
13.819866 365.51071 -29.971399 2.3509886e-038
18.605038 362.04181 -29.686954 2.3509886e-038
23.307604 358.75192 -29.417189 2.3509886e-038
27.903183 355.23746 -29.129005 2.3509886e-038
32.397591 351.66092 -28.835733 2.3509886e-038
36.903023 349.10757 -28.626364 2.3509886e-038
41.531403 348.16602 -28.549156 2.3509886e-038
42.74229 348.5715 -28.582407 2.3509886e-038
-27.88921 333.01077 -31.828529 2.3509886e-038
-23.104618 326.21899 -31.179386 2.3509886e-038
-18.667183 326.08701 -31.166769 2.3509886e-038
-14.6347 335.146 -32.032612 2.3509886e-038
-10.54548 350.49661 -33.499798 2.3509886e-038
-6.0155077 364.4025 -34.828896 2.3509886e-038
-1.0844556 370.31335 -35.393837 2.3509886e-038
3.9517636 371.02365 -35.461727 2.3509886e-038
8.9377813 368.86703 -35.255604 2.3509886e-038
13.819746 365.50751 -34.934505 2.3509886e-038
18.625769 362.44519 -34.641815 2.3509886e-038
23.35364 359.46051 -34.356544 2.3509886e-038
27.955996 355.90982 -34.017178 2.3509886e-038
32.416832 351.86975 -33.631039 2.3509886e-038
36.8647 348.74503 -33.332382 2.3509886e-038
41.427097 347.29163 -33.193466 2.3509886e-038
43.675678 347.70145 -33.232639 2.3509886e-038
-27.475018 333.36844 -36.389656 2.3509886e-038
-23.298239 328.95279 -35.907654 2.3509886e-038
-18.855734 329.38068 -35.954361 2.3509886e-038
-14.752773 337.85001 -36.878849 2.3509886e-038
-10.583293 351.75339 -38.396507 2.3509886e-038
-6.011919 364.18512 -39.753525 2.3509886e-038
-1.0817113 369.37622 -40.320171 2.3509886e-038
3.9399154 369.91122 -40.378571 2.3509886e-038
8.9147987 367.91852 -40.161053 2.3509886e-038
13.7971 364.90857 -39.832497 2.3509886e-038
18.613792 362.21213 -39.538155 2.3509886e-038
23.355062 359.48242 -39.240189 2.3509886e-038
27.95521 355.89981 -38.849121 2.3509886e-038
32.382534 351.49744 -38.368572 2.3509886e-038
36.783127 347.97333 -37.983887 2.3509886e-038
41.30299 346.25119 -37.795902 2.3509886e-038
44.801926 346.72906 -37.848068 2.3509886e-038
-28.068789 336.37775 -41.285969 2.3509886e-038
-23.506685 331.89587 -40.735882 2.3509886e-038
-19.066872 333.06894 -40.879856 2.3509886e-038
-14.915125 341.56796 -41.923 2.3509886e-038
-10.650683 353.99323 -43.448044 2.3509886e-038
-6.0141826 364.32224 -44.715794 2.3509886e-038
-1.078684 368.3425 -45.209225 2.3509886e-038
3.9254911 368.55695 -45.235546 2.3509886e-038
8.8881607 366.81918 -45.022255 2.3509886e-038
13.773797 364.29227 -44.712112 2.3509886e-038
18.597763 361.90021 -44.418518 2.3509886e-038
23.334938 359.17261 -44.08374 2.3509886e-038
27.915108 355.38928 -43.619389 2.3509886e-038
32.316307 350.77863 -43.05349 2.3509886e-038
36.701927 347.20517 -42.614891 2.3509886e-038
41.243656 345.75378 -42.436756 2.3509886e-038
45.989929 347.33701 -42.631073 2.3509886e-038
-28.869589 338.47787 -46.140057 2.3509886e-038
-28.532894 338.04797 -46.081455 2.3509886e-038
-23.665918 334.1441 -45.549297 2.3509886e-038
-19.241901 336.12643 -45.819519 2.3509886e-038
-15.03981 344.42334 -46.950523 2.3509886e-038
-10.685244 355.14191 -48.411636 2.3509886e-038
-5.9994001 363.42679 -49.541 2.3509886e-038
-1.0738075 366.67728 -49.984097 2.3509886e-038
3.9083049 366.94339 -50.02037 2.3509886e-038
8.8602333 365.6666 -49.846321 2.3509886e-038
13.749974 363.66217 -49.57309 2.3509886e-038
18.575211 361.46133 -49.273079 2.3509886e-038
23.295662 358.56808 -48.878677 2.3509886e-038
27.852287 354.58948 -48.336334 2.3509886e-038
32.251011 350.06985 -47.72023 2.3509886e-038
36.661842 346.82596 -47.278034 2.3509886e-038
41.29039 346.14557 -47.185287 2.3509886e-038
46.401512 349.23648 -47.606632 2.3509886e-038
47.077553 349.9664 -47.706131 2.3509886e-038
-29.285019 338.07343 -50.675755 2.3509886e-038
-28.477083 337.38675 -50.572823 2.3509886e-038
-23.750834 335.34305 -50.266483 2.3509886e-038
-19.346378 337.95151 -50.657478 2.3509886e-038
-15.079632 345.3353 -51.764275 2.3509886e-038
-10.649736 353.96173 -53.057343 2.3509886e-038
-5.9516115 360.53183 -54.042171 2.3509886e-038
-1.0654482 363.82278 -54.535469 2.3509886e-038
3.8861184 364.86032 -54.690994 2.3509886e-038
8.8282566 364.34689 -54.614029 2.3509886e-038
13.71738 362.80011 -54.382179 2.3509886e-038
18.535196 360.68274 -54.064789 2.3509886e-038
23.235996 357.64975 -53.610157 2.3509886e-038
27.781326 353.6861 -53.016026 2.3509886e-038
32.204334 349.56317 -52.398018 2.3509886e-038
36.663719 346.84369 -51.990379 2.3509886e-038
41.394524 347.01855 -52.016586 2.3509886e-038
46.660091 351.18268 -52.64077 2.3509886e-038
47.725292 352.5054 -52.839043 2.3509886e-038
-29.368389 337.46161 -55.166565 2.3509886e-038
-28.445852 337.01675 -55.093845 2.3509886e-038
-23.81708 336.27841 -54.973141 2.3509886e-038
-19.391962 338.74777 -55.37682 2.3509886e-038
-15.037174 344.36301 -56.294769 2.3509886e-038
-10.54728 350.55646 -57.307247 2.3509886e-038
-5.8714552 355.67621 -58.144196 2.3509886e-038
-1.0528755 359.52954 -58.774124 2.3509886e-038
3.8556573 362.00037 -59.17804 2.3509886e-038
8.7880383 362.68704 -59.290295 2.3509886e-038
13.675373 361.68912 -59.127159 2.3509886e-038
18.485796 359.72141 -58.805485 2.3509886e-038
23.174046 356.69617 -58.310932 2.3509886e-038
27.719402 352.89774 -57.689987 2.3509886e-038
32.171581 349.20767 -57.08675 2.3509886e-038
36.669895 346.90213 -56.709854 2.3509886e-038
41.455681 347.53125 -56.812698 2.3509886e-038
46.756096 351.90521 -57.527737 2.3509886e-038
47.899643 353.27747 -57.752064 2.3509886e-038
-29.38147 337.88031 -59.823219 2.3509886e-038
-28.496752 337.61978 -59.777088 2.3509886e-038
-23.888819 337.29129 -59.718929 2.3509886e-038
-19.402372 338.9296 -60.008999 2.3509886e-038
-14.953096 342.43753 -60.630093 2.3509886e-038
-10.42147 346.37494 -61.327225 2.3509886e-038
-5.7820816 350.26224 -62.015491 2.3509886e-038
-1.0379242 354.42407 -62.752357 2.3509886e-038
3.8155801 358.23761 -63.427567 2.3509886e-038
8.7321672 360.38123 -63.807098 2.3509886e-038
13.624508 360.34381 -63.800484 2.3509886e-038
18.441179 358.85318 -63.536564 2.3509886e-038
23.132595 356.05814 -63.041687 2.3509886e-038
27.685095 352.46094 -62.404785 2.3509886e-038
32.154068 349.01758 -61.795124 2.3509886e-038
36.670574 346.90854 -61.421707 2.3509886e-038
41.480732 347.74124 -61.569138 2.3509886e-038
46.784016 352.11536 -62.343597 2.3509886e-038
47.941341 353.44006 -62.57814 2.3509886e-038
-29.225571 339.57297 -64.734123 2.3509886e-038
-28.649506 339.42957 -64.706787 2.3509886e-038
-23.995079 338.7916 -64.585175 2.3509886e-038
-19.410763 339.0762 -64.639427 2.3509886e-038
-14.870826 340.5535 -64.921051 2.3509886e-038
-10.311999 342.73651 -65.337204 2.3509886e-038
-5.7052827 345.60992 -65.884979 2.3509886e-038
-1.0235486 349.5152 -66.629456 2.3509886e-038
3.7707305 354.02676 -67.48951 2.3509886e-038
8.6621237 357.49048 -68.149811 2.3509886e-038
13.564912 358.76761 -68.393272 2.3509886e-038
18.401464 358.08035 -68.26226 2.3509886e-038
23.108622 355.68918 -67.806419 2.3509886e-038
27.673143 352.30881 -67.16201 2.3509886e-038
32.15435 349.02066 -66.535172 2.3509886e-038
36.685398 347.04883 -66.159279 2.3509886e-038
41.530476 348.15823 -66.370773 2.3509886e-038
46.897335 352.96823 -67.28772 2.3509886e-038
48.151451 354.48703 -67.577248 2.3509886e-038
-28.656584 343.33322 -70.113213 2.3509886e-038
-24.201281 341.70303 -69.780304 2.3509886e-038
-19.462994 339.98859 -69.430191 2.3509886e-038
-14.824498 339.49255 -69.328896 2.3509886e-038
-10.239778 340.33609 -69.501152 2.3509886e-038
-5.6522403 342.39679 -69.921982 2.3509886e-038
-1.0123825 345.70227 -70.597 2.3509886e-038
3.7299685 350.19971 -71.515442 2.3509886e-038
8.5888004 354.46439 -72.386345 2.3509886e-038
13.497287 356.97903 -72.899872 2.3509886e-038
18.353708 357.15106 -72.934998 2.3509886e-038
23.077984 355.21759 -72.540154 2.3509886e-038
27.660463 352.14737 -71.913177 2.3509886e-038
32.1707 349.19812 -71.310905 2.3509886e-038
36.737823 347.54474 -70.973251 2.3509886e-038
41.647747 349.14136 -71.299316 2.3509886e-038
47.153015 354.89258 -72.473785 2.3509886e-038
48.965931 357.45935 -72.997948 2.3509886e-038
-27.177525 349.85739 -76.196381 2.3509886e-038
-24.609596 347.46811 -75.676018 2.3509886e-038
-19.617006 342.67892 -74.632965 2.3509886e-038
-14.841398 339.87958 -74.023285 2.3509886e-038
-10.212345 339.42435 -73.924141 2.3509886e-038
-5.6248617 340.73828 -74.210312 2.3509886e-038
-1.005463 343.33939 -74.77681 2.3509886e-038
3.6998875 347.37546 -75.65583 2.3509886e-038
8.525259 351.84201 -76.628616 2.3509886e-038
13.426799 355.11475 -77.3414 2.3509886e-038
18.289892 355.90927 -77.514435 2.3509886e-038
23.027302 354.4375 -77.193893 2.3509886e-038
27.637384 351.85355 -76.631126 2.3509886e-038
32.19722 349.48593 -76.115479 2.3509886e-038
36.820953 348.33115 -75.863983 2.3509886e-038
41.79467 350.37302 -76.308685 2.3509886e-038
47.433712 357.00525 -77.753136 2.3509886e-038
51.02837 362.99115 -79.056824 2.3509886e-038
-24.495174 354.63739 -82.053215 2.3509886e-038
-19.900362 347.62875 -80.43161 2.3509886e-038
-14.947333 342.30557 -79.199974 2.3509886e-038
-10.238572 340.29602 -78.735023 2.3509886e-038
-5.6249933 340.74625 -78.839188 2.3509886e-038
-1.0034183 342.6412 -79.277634 2.3509886e-038
3.6854446 346.01944 -80.059258 2.3509886e-038
8.485898 350.21759 -81.030594 2.3509886e-038
13.373335 353.70074 -81.83651 2.3509886e-038
18.23358 354.81345 -82.093956 2.3509886e-038
22.986012 353.80194 -81.859917 2.3509886e-038
27.635811 351.83353 -81.40448 2.3509886e-038
32.256851 350.13327 -81.011086 2.3509886e-038
36.948772 349.54037 -80.873909 2.3509886e-038
41.97049 351.84695 -81.407585 2.3509886e-038
47.662853 358.72983 -83.000092 2.3509886e-038
54.221321 370.25046 -85.665642 2.3509886e-038
55.426723 372.4942 -86.184776 2.3509886e-038
-21.042727 356.85794 -87.412903 2.3509886e-038
-20.357283 355.61044 -87.107323 2.3509886e-038
-15.185485 347.75943 -85.184204 2.3509886e-038
-10.341876 343.72952 -84.197075 2.3509886e-038
-5.6594429 342.8331 -83.977493 2.3509886e-038
-1.0069058 343.83209 -84.222198 2.3509886e-038
3.6898534 346.43338 -84.859383 2.3509886e-038
8.4823008 350.06909 -85.749962 2.3509886e-038
13.359682 353.33963 -86.551086 2.3509886e-038
18.219185 354.53333 -86.843475 2.3509886e-038
22.995182 353.94308 -86.698898 2.3509886e-038
27.695536 352.59387 -86.368408 2.3509886e-038
32.382851 351.50089 -86.100685 2.3509886e-038
37.148563 351.43042 -86.08342 2.3509886e-038
42.20607 353.8219 -86.669212 2.3509886e-038
47.854637 360.17328 -88.224998 2.3509886e-038
54.293297 370.74197 -90.813805 2.3509886e-038
61.274929 382.90982 -93.79435 2.3509886e-038
61.327072 383.00143 -93.816795 2.3509886e-038
-16.691696 359.03802 -92.822433 2.3509886e-038
-15.596277 357.1669 -92.338684 2.3509886e-038
-10.549907 350.64377 -90.652252 2.3509886e-038
-5.738791 347.6398 -89.875641 2.3509886e-038
-1.0167232 347.18445 -89.757912 2.3509886e-038
3.714179 348.71725 -90.154182 2.3509886e-038
8.5180178 351.54315 -90.884773 2.3509886e-038
13.397085 354.32889 -91.60498 2.3509886e-038
18.268311 355.48929 -91.904968 2.3509886e-038
23.078533 355.22604 -91.836914 2.3509886e-038
27.836086 354.38324 -91.619019 2.3509886e-038
32.596748 353.82266 -91.474091 2.3509886e-038
37.442406 354.21017 -91.57428 2.3509886e-038
42.532005 356.55426 -92.180305 2.3509886e-038
48.082546 361.88861 -93.559395 2.3509886e-038
54.272957 370.60306 -95.81234 2.3509886e-038
61.038452 381.4321 -98.611992 2.3509886e-038
66.860069 390.66339 -100.99857 2.3509886e-038
-11.011625 360.54538 -98.108116 2.3509886e-038
-10.840958 360.31732 -98.046059 2.3509886e-038
-5.8652806 355.30215 -96.681381 2.3509886e-038
-1.0335555 352.93228 -96.036507 2.3509886e-038
3.7569468 352.73267 -95.982193 2.3509886e-038
8.583149 354.23114 -96.389946 2.3509886e-038
13.472888 356.33374 -96.96209 2.3509886e-038
18.373669 357.53949 -97.290184 2.3509886e-038
23.233698 357.61435 -97.310547 2.3509886e-038
28.054249 357.16068 -97.187111 2.3509886e-038
32.892426 357.0321 -97.152115 2.3509886e-038
37.822609 357.80695 -97.362961 2.3509886e-038
42.933327 359.91861 -97.937569 2.3509886e-038
48.347942 363.88608 -99.017159 2.3509886e-038
54.229794 370.30832 -100.76471 2.3509886e-038
60.711018 379.38593 -103.23482 2.3509886e-038
67.56694 389.2019 -105.90585 2.3509886e-038
71.469139 394.20575 -107.26745 2.3509886e-038
-4.8365955 364.12863 -104.02779 2.3509886e-038
-1.0566926 360.83295 -103.08626 2.3509886e-038
3.8168414 358.35602 -102.37862 2.3509886e-038
8.6771126 358.1091 -102.30807 2.3509886e-038
13.588534 359.3924 -102.6747 2.3509886e-038
18.531145 360.60388 -103.02081 2.3509886e-038
23.447626 360.9071 -103.10744 2.3509886e-038
28.326065 360.62119 -103.02575 2.3509886e-038
33.224903 360.64099 -103.03141 2.3509886e-038
38.216114 361.52957 -103.28527 2.3509886e-038
43.331581 363.25729 -103.77886 2.3509886e-038
48.623657 365.96124 -104.55135 2.3509886e-038
54.242764 370.39688 -105.81857 2.3509886e-038
60.441433 377.70129 -107.90536 2.3509886e-038
67.118645 386.61963 -110.45324 2.3509886e-038
73.875648 394.67032 -112.75323 2.3509886e-038
75.265266 396.06674 -113.15218 2.3509886e-038
1.7950312 367.23672 -109.90262 2.3509886e-038
3.893086 365.5145 -109.38721 2.3509886e-038
8.814146 363.76453 -108.86349 2.3509886e-038
13.775144 364.32788 -109.03209 2.3509886e-038
18.762032 365.09677 -109.2622 2.3509886e-038
23.720785 365.11163 -109.26664 2.3509886e-038
28.639006 364.60526 -109.1151 2.3509886e-038
33.569168 364.37784 -109.04704 2.3509886e-038
38.579079 364.96329 -109.22225 2.3509886e-038
43.689007 366.25363 -109.60841 2.3509886e-038
48.920712 368.19699 -110.18999 2.3509886e-038
54.382332 371.34995 -111.13358 2.3509886e-038
60.327904 376.99182 -112.82201 2.3509886e-038
66.785889 384.70285 -115.12969 2.3509886e-038
73.44809 392.38614 -117.42906 2.3509886e-038
77.860977 396.38806 -118.62672 2.3509886e-038
9.6610222 372.46896 -116.52637 2.3509886e-038
14.086131 372.55292 -116.55264 2.3509886e-038
19.111944 371.90582 -116.3502 2.3509886e-038
24.081148 370.65833 -115.95992 2.3509886e-038
29.024397 369.51169 -115.6012 2.3509886e-038
33.984234 368.88315 -115.40456 2.3509886e-038
39.004868 368.99127 -115.43839 2.3509886e-038
44.114964 369.82452 -115.69906 2.3509886e-038
49.325993 371.24728 -116.14417 2.3509886e-038
54.684155 373.41095 -116.82107 2.3509886e-038
60.396793 377.42233 -118.07603 2.3509886e-038
66.552979 383.36127 -119.93401 2.3509886e-038
72.96312 389.79523 -121.94686 2.3509886e-038
78.544487 394.43777 -123.39928 2.3509886e-038
18.258144 381.49124 -124.52939 2.3509886e-038
19.552231 380.47351 -124.19717 2.3509886e-038
24.514883 377.33441 -123.17249 2.3509886e-038
29.496456 375.52151 -122.5807 2.3509886e-038
34.496304 374.44144 -122.22814 2.3509886e-038
39.523994 373.90228 -122.05214 2.3509886e-038
44.628178 374.12692 -122.12547 2.3509886e-038
49.82597 375.01035 -122.41384 2.3509886e-038
55.107491 376.30167 -122.83537 2.3509886e-038
60.629322 378.8754 -123.67551 2.3509886e-038
66.473991 382.90625 -124.99129 2.3509886e-038
72.52153 387.43613 -126.46996 2.3509886e-038
76.956604 390.49872 -127.46969 2.3509886e-038
26.958511 383.90076 -130.52908 2.3509886e-038
30.058943 382.68259 -130.1149 2.3509886e-038
35.095612 380.94669 -129.52467 2.3509886e-038
40.110352 379.44931 -129.01556 2.3509886e-038
45.182995 378.77805 -128.78732 2.3509886e-038
50.350937 378.96146 -128.84969 2.3509886e-038
55.576099 379.50159 -129.03333 2.3509886e-038
60.962509 380.95752 -129.52837 2.3509886e-038
66.558975 383.39578 -130.35741 2.3509886e-038
72.276863 386.129 -131.2867 2.3509886e-038
73.044464 386.45453 -131.39738 2.3509886e-038
35.976711 387.91376 -137.16116 2.3509886e-038
40.703182 385.05756 -136.15126 2.3509886e-038
45.712669 383.21841 -135.50095 2.3509886e-038
50.825127 382.5304 -135.25768 2.3509886e-038
56.011013 382.47137 -135.23682 2.3509886e-038
61.318546 383.1824 -135.48822 2.3509886e-038
66.364525 384.82263 -136.06819 2.3509886e-038
-70.915459 367.3613 42.587982 2.3418052e-038
-71.383904 369.78796 28.512716 2.3418052e-038
-65.807121 366.69373 41.73003 2.3418052e-038
-66.616333 371.20288 19.541323 2.3418052e-038
-61.260372 369.30252 38.127411 2.3418052e-038
-61.603653 371.37195 10.924238 2.3509886e-038
-56.965042 374.02722 32.295757 2.3418052e-038
-57.002075 374.27039 3.7611516 2.3418052e-038
-52.034828 375.10019 24.5686 2.3418052e-038
-52.344688 377.33386 -3.1625395 2.3418052e-038
-47.229942 377.4075 18.399 2.3418052e-038
-47.572227 380.14267 -10.775786 2.3509886e-038
-42.484104 380.80579 12.560787 2.3418052e-038
-42.46933 380.67334 -17.89233 2.3509886e-038
-37.211712 379.7724 5.9464197 2.3418052e-038
-35.369072 360.96692 -23.751284 2.3509886e-038
-31.662069 375.1214 67.231712 2.3509528e-038
-31.671986 375.23886 56.230942 2.3509528e-038
-31.527472 373.52673 0.44910243 2.3418052e-038
-28.165768 333.69839 -31.001411 2.3509886e-038
-28.513388 337.81686 -43.877293 2.3509886e-038
-28.877789 342.13419 -68.740952 2.3509886e-038
-26.479509 373.86981 70.724106 2.3509528e-038
-26.851723 379.12518 32.342461 2.3509528e-038
-25.180155 355.52399 -1.7626269 2.3509886e-038
-25.074387 354.03061 -81.000717 2.3509886e-038
-21.361662 373.1554 66.367516 2.3509528e-038
-21.460817 374.88748 11.360858 2.3509528e-038
-19.895262 347.53964 1.0857474 2.3509886e-038
-20.446968 357.17709 -88.22583 2.3509886e-038
-16.278004 372.77896 54.473278 2.3509528e-038
-15.691185 359.34033 -93.844452 2.3509886e-038
-11.411721 379.28757 39.607693 2.3509528e-038
-10.849568 360.60352 -98.252594 2.3509886e-038
-6.1325393 371.49197 19.732796 2.3509528e-038
-5.9977117 363.32449 -102.86489 2.3509886e-038
-1.0288959 351.34113 13.6054 2.3509886e-038
-1.0727654 366.32138 -107.59449 2.3509886e-038
3.6384151 341.60394 10.767042 2.3509886e-038
3.9178603 367.84048 -111.51357 2.3509886e-038
8.3305016 343.80426 7.5049062 2.3509886e-038
9.0059862 371.68185 -115.889 2.3509886e-038
13.265884 350.85886 3.0034289 2.3509886e-038
14.30745 378.40643 -121.15206 2.3509886e-038
18.172701 353.62878 1.2444296 2.3509886e-038
19.63076 382.00165 -125.53761 2.3509886e-038
22.839781 351.55115 5.0006189 2.3509886e-038
24.892141 383.1412 -129.08145 2.3509886e-038
26.887163 342.30243 34.060944 2.3418409e-038
30.289452 385.61722 -133.01398 2.3509886e-038
31.633444 343.36646 42.584278 2.3418409e-038
35.733284 387.86829 -137.00177 2.3509886e-038
36.335964 343.7431 40.57988 2.3418409e-038
40.955441 387.44397 -139.41122 2.3509886e-038
41.788036 350.31744 -21.956182 2.3509886e-038
46.065506 386.17633 -140.32349 2.3509886e-038
46.195576 347.68649 -43.498421 2.3509886e-038
51.167625 385.10818 -140.31717 2.3509886e-038
54.188 370.02292 -84.499161 2.3509886e-038
56.282684 384.32648 -139.53938 2.3509886e-038
61.276058 382.9169 -93.751556 2.3509886e-038
61.474056 384.15417 -138.0732 2.3509886e-038
68.013885 391.7764 -102.51353 2.3509886e-038
66.816193 384.87747 -135.79842 2.3509886e-038
74.040321 395.55005 -111.12135 2.3509886e-038
72.265778 386.06973 -132.01241 2.3509886e-038
