# .PCD v0.7 - Point Cloud Data file format
VERSION 0.7
FIELDS x y z rgb
SIZE 4 4 4 4
TYPE F F F F
COUNT 1 1 1 1
WIDTH 863
HEIGHT 1
VIEWPOINT 0 0 0 1 0 0 0
POINTS 863
DATA ascii
-37.124451 342.71841 54.87962 2.3418052e-038
6.5271153 346.4707 55.480476 9.1476764e-041
-79.392639 312.17041 -49.987957 3.5733111e-043
-71.157578 328.44946 23.203556 2.3509528e-038
51.290161 340.32144 27.247896 2.3418409e-038
-40.684544 344.08047 60.21291 2.3418052e-038
-40.580303 344.12122 60.220036 2.3418052e-038
-35.986069 346.08987 60.564545 2.3418052e-038
-35.353645 346.35895 60.611637 2.3418052e-038
-42.586876 341.92258 55.067024 2.3418052e-038
-40.380009 342.42273 55.147572 2.3418052e-038
-35.74519 343.77322 55.365074 2.3418052e-038
-31.214087 344.8649 55.54089 2.3418052e-038
1.1635975 347.13742 55.906879 9.1476764e-041
2.6297252 346.71637 55.839073 9.1476764e-041
7.4499979 346.02673 55.728008 9.1476764e-041
10.999407 346.34335 55.778996 9.1476764e-041
-41.955418 342.96164 50.451611 2.3418052e-038
-40.466255 343.15414 50.479927 2.3418052e-038
-35.757465 343.89133 50.588371 2.3418052e-038
-31.006201 344.3851 50.661007 2.3418052e-038
-28.817377 345.04279 50.757759 2.3418052e-038
0.5866335 347.39307 51.1035 9.1476764e-041
2.6302161 346.78107 51.01347 9.1476764e-041
7.4534807 346.18851 50.9263 9.1476764e-041
12.307195 346.92081 51.034027 9.1476764e-041
12.388363 346.94714 51.037899 9.1476764e-041
-41.215572 345.05875 45.948105 2.3418052e-038
-40.690903 345.05911 45.948154 2.3418052e-038
-35.918377 345.43884 45.998714 2.3418052e-038
-31.147831 345.95816 46.067871 2.3418052e-038
-27.197226 347.62637 46.290005 2.3418052e-038
0.45240211 347.34073 46.251972 9.1476764e-041
2.6291287 346.63773 46.158363 9.1476764e-041
7.4546432 346.24249 46.105732 9.1476764e-041
12.318103 347.2283 46.237 9.1476764e-041
13.18456 347.55588 46.280624 9.1476764e-041
-40.298382 347.54828 41.432899 2.3418052e-038
-36.152336 347.6889 41.449665 2.3418052e-038
-31.429865 349.09073 41.616783 2.3418052e-038
-26.868025 353.11755 42.09684 2.3418052e-038
-25.982481 354.2944 42.237137 2.3418052e-038
0.42196223 347.35159 41.409451 9.1476764e-041
2.6286139 346.56985 41.316261 9.1476764e-041
7.453855 346.2059 41.272869 9.1476764e-041
12.319169 347.25836 41.398335 9.1476764e-041
13.589194 347.76254 41.458443 9.1476764e-041
-39.220085 350.55948 36.903164 2.3418052e-038
-36.417278 350.23694 36.869213 2.3418052e-038
-31.683727 351.91037 37.045376 2.3418052e-038
-27.167532 357.05386 37.586826 2.3418052e-038
-24.602011 361.38 38.042236 2.3418052e-038
0.30216715 347.57996 36.589516 9.1476764e-041
2.6292305 346.65112 36.491737 9.1476764e-041
7.4536676 346.19717 36.443947 9.1476764e-041
12.32059 347.2984 36.559875 9.1476764e-041
13.824718 347.97202 36.630783 9.1476764e-041
-37.954041 353.02597 32.239712 2.3418052e-038
-36.653812 352.51175 32.192753 2.3418052e-038
-31.800222 353.20428 32.255997 2.3418052e-038
-27.210831 357.62292 32.659523 2.3418052e-038
-22.657988 364.10297 33.251308 2.3418052e-038
-0.10260439 347.89145 31.770807 2.3509886e-038
2.6292336 346.65155 31.657578 9.1476764e-041
7.4549356 346.25607 31.62146 9.1476764e-041
12.34584 348.01019 31.781651 9.1476764e-041
14.266909 349.40439 31.908978 9.1476764e-041
49.970165 340.10837 31.060026 2.3418409e-038
50.012115 340.1279 31.06181 2.3418409e-038
55.350674 343.82587 31.399527 2.3418409e-038
56.174358 344.61481 31.471573 2.3418409e-038
-77.198494 329.95926 25.531736 2.3509528e-038
-75.656052 329.67322 25.509604 2.3509528e-038
-71.018181 329.48563 25.495089 2.3509528e-038
-66.758011 331.14569 25.623541 2.3509528e-038
-66.610199 331.27277 25.633375 2.3509528e-038
-36.582638 353.82617 27.378519 2.3418052e-038
-31.800892 353.2117 27.330975 2.3418052e-038
-27.09235 356.06577 27.551819 2.3418052e-038
-22.419744 360.77908 27.916527 2.3418052e-038
-20.418242 363.19202 28.103235 2.3418052e-038
-0.92539817 348.28049 26.949406 2.3509886e-038
2.6271479 346.37653 26.80208 9.1476764e-041
7.4554925 346.28195 26.794762 9.1476764e-041
12.39621 349.43002 27.038355 9.1476764e-041
15.014556 352.69159 27.29073 9.1476764e-041
45.805939 337.91269 26.147161 2.3418409e-038
49.93322 339.59134 26.277054 2.3418409e-038
55.222889 343.0321 26.543291 2.3418409e-038
57.77813 345.24475 26.714506 2.3418409e-038
-76.213692 327.64676 20.783613 2.3509528e-038
-75.153374 327.48279 20.773212 2.3509528e-038
-70.686684 327.94766 20.802698 2.3509528e-038
-66.693291 330.82465 20.985193 2.3509528e-038
-63.196613 336.77615 21.362717 2.3509528e-038
-63.058899 337.08963 21.382601 2.3509528e-038
-35.361301 353.74274 22.438959 2.3418052e-038
-31.79624 353.16003 22.401995 2.3418052e-038
-26.986385 354.67313 22.497974 2.3418052e-038
-22.235844 357.81976 22.697575 2.3418052e-038
-18.36359 361.15036 22.908844 2.3418052e-038
-2.1563377 349.59717 22.175989 2.3509886e-038
2.6254022 346.14639 21.9571 9.1476764e-041
7.4525976 346.14752 21.95717 9.1476764e-041
12.421907 350.15439 22.21134 9.1476764e-041
15.73862 355.26624 22.535599 9.1476764e-041
43.321617 336.98163 21.37575 2.3418409e-038
44.868061 337.11636 21.384296 2.3418409e-038
49.87746 339.21213 21.517237 2.3418409e-038
55.228294 343.06567 21.761681 2.3418409e-038
57.418488 345.24753 21.900082 2.3418409e-038
-73.792892 326.2699 16.14629 2.3509528e-038
-70.490051 327.03543 16.184174 2.3509528e-038
-66.653694 330.6282 16.361973 2.3509528e-038
-63.215279 336.87564 16.671141 2.3509528e-038
-60.117218 343.98627 17.023029 2.3509528e-038
-34.438828 354.46829 17.541758 2.3418052e-038
-31.848606 353.74164 17.505798 2.3418052e-038
-26.944529 354.12302 17.524672 2.3418052e-038
-22.132233 356.15244 17.625103 2.3418052e-038
-17.310833 359.16733 17.774303 2.3418052e-038
-16.804838 359.44809 17.788197 2.3418052e-038
-3.3577611 352.24704 17.431833 2.3509886e-038
-2.2319736 350.89487 17.364918 2.3509886e-038
2.6293228 346.6633 17.155508 9.1476764e-041
7.4573598 346.36868 17.140928 9.1476764e-041
12.423496 350.19919 17.33049 9.1476764e-041
15.790124 355.14066 17.575031 9.1476764e-041
41.339977 336.65399 16.660173 2.3418409e-038
44.754364 336.26212 16.640779 2.3418409e-038
49.707809 338.05835 16.729671 2.3418409e-038
55.118824 342.38568 16.943819 2.3418409e-038
55.791103 343.23737 16.985968 2.3418409e-038
-71.134003 327.14569 11.627444 2.3509528e-038
-70.543968 327.28552 11.632414 2.3509528e-038
-66.628365 330.50259 11.746756 2.3509528e-038
-63.055523 336.02429 11.943007 2.3509528e-038
-59.503139 342.55042 12.17496 2.3509528e-038
-56.378704 348.01996 12.369359 2.3509528e-038
-33.285931 355.57742 12.637966 2.3418052e-038
-31.957771 354.95419 12.615816 2.3418052e-038
-26.964447 354.38477 12.595578 2.3418052e-038
-22.105333 355.71957 12.64302 2.3418052e-038
-17.272568 358.37341 12.737342 2.3418052e-038
-15.44037 359.35629 12.772276 2.3418052e-038
-4.1420474 355.33994 12.629527 2.3509886e-038
-2.2449119 352.92889 12.543834 2.3509886e-038
2.6404397 348.129 12.373235 9.1476764e-041
7.4760356 347.23608 12.341499 9.1476764e-041
12.41652 350.00253 12.439824 9.1476764e-041
15.155221 352.9949 12.546179 9.1476764e-041
39.283134 336.14111 11.94716 2.3418409e-038
40.022045 335.90115 11.938631 2.3418409e-038
44.634583 335.36212 11.919474 2.3418409e-038
49.486023 336.54999 11.961693 2.3418409e-038
53.190578 338.94492 12.046813 2.3418409e-038
-68.549652 329.71524 7.120739 2.3509528e-038
-66.741814 331.06537 7.1498971 2.3509528e-038
-62.941902 335.41879 7.2439165 2.3509528e-038
-59.208092 340.85187 7.3612528 2.3509528e-038
-55.469219 347.20175 7.4983892 2.3509528e-038
-52.712002 352.92728 7.6220407 2.3509528e-038
-31.680475 356.45767 7.6982861 2.3418052e-038
-27.04974 355.50577 7.6777272 2.3418052e-038
-22.133871 356.17883 7.6922631 2.3418052e-038
-17.268852 358.2963 7.7379937 2.3418052e-038
-13.586055 360.19559 7.7790117 2.3418052e-038
-4.4355969 357.99323 7.7314477 2.3509886e-038
-2.2598047 355.27023 7.6726408 2.3509886e-038
2.6555882 350.12628 7.5615487 9.1476764e-041
7.5046964 348.56732 7.5278802 9.1476764e-041
12.414412 349.94315 7.5575933 9.1476764e-041
14.460395 351.17685 7.5842376 9.1476764e-041
36.667892 336.05655 7.25769 2.3418409e-038
39.979702 335.54575 7.2466583 2.3418409e-038
44.624935 335.28964 7.2411275 2.3418409e-038
49.428375 336.15793 7.2598791 2.3418409e-038
50.710617 336.78006 7.2733154 2.3418409e-038
-66.192184 333.41501 2.5510266 2.3509528e-038
-63.018242 335.82562 2.5694709 2.3509528e-038
-59.078011 340.10303 2.6021981 2.3509528e-038
-55.273102 345.97421 2.6471195 2.3509528e-038
-51.542313 353.47672 2.7045228 2.3509528e-038
-49.354458 357.97833 2.7389657 2.3509528e-038
-30.182461 358.64316 2.7440524 2.3418052e-038
-27.224323 357.80023 2.7376032 2.3418052e-038
-22.208431 357.37863 2.7343774 2.3418052e-038
-17.291327 358.7626 2.7449663 2.3418052e-038
-12.382255 361.50742 2.7659676 2.3509886e-038
-9.6628952 362.66776 2.7748456 2.3509886e-038
-5.8954411 361.70987 2.7675164 2.3509886e-038
-2.27476 357.62143 2.7362351 2.3509886e-038
2.6713884 352.20944 2.6948268 9.1476764e-041
7.5390687 350.16379 2.6791749 9.1476764e-041
12.438715 350.6282 2.6827283 9.1476764e-041
14.147189 351.18219 2.6869669 9.1476764e-041
33.724136 337.58157 2.5829058 2.3418409e-038
35.458187 337.04593 2.5788076 2.3418409e-038
40.08699 336.44623 2.5742192 2.3418409e-038
44.751301 336.23911 2.5726342 2.3418409e-038
48.667896 337.117 2.5793514 2.3418409e-038
-64.014107 337.82748 -2.1263733 2.3509528e-038
-63.443638 338.09256 -2.128042 2.3509528e-038
-59.183834 340.71222 -2.1445305 2.3509528e-038
-55.140137 345.14194 -2.1724126 2.3509528e-038
-51.220825 351.27194 -2.2109966 2.3509528e-038
-47.220005 358.08026 -2.2538497 2.3509528e-038
-45.997177 360.01715 -2.266041 2.3509528e-038
-29.130838 362.66815 -2.282727 2.3509886e-038
-27.508043 361.52908 -2.2755575 2.3509886e-038
-22.319626 359.16797 -2.2606959 2.3509886e-038
-17.316055 359.2757 -2.2613742 2.3509886e-038
-12.371243 361.18591 -2.2733974 2.3509886e-038
-7.3541775 362.1629 -2.279547 2.3509886e-038
-2.2791905 358.31796 -2.2553458 2.3509886e-038
2.6833847 353.79108 -2.2268527 2.3509886e-038
7.5725389 351.71832 -2.2138062 2.3509886e-038
12.474518 351.63742 -2.2132967 9.1476764e-041
14.474462 351.97546 -2.2154245 9.1476764e-041
30.47307 340.66617 -2.1442411 2.3418409e-038
31.058983 340.34494 -2.1422188 2.3418409e-038
35.661278 338.97638 -2.1336048 2.3418409e-038
40.353687 338.68457 -2.131768 2.3418409e-038
45.075432 338.67447 -2.1317046 2.3418409e-038
47.061916 339.07416 -2.1342204 2.3418409e-038
-61.814457 342.3006 -6.9280691 2.3509528e-038
-59.490921 342.4801 -6.9317017 2.3509528e-038
-55.10585 344.92731 -6.9812326 2.3509528e-038
-50.943607 349.37079 -7.071167 2.3509528e-038
-46.853027 355.29739 -7.1911201 2.3509528e-038
-42.743443 362.46466 -7.336184 2.3509528e-038
-42.650333 362.62979 -7.3395267 2.3509528e-038
-28.604284 366.12784 -7.410326 2.3509886e-038
-27.792383 365.26608 -7.3928843 2.3509886e-038
-22.445368 361.19144 -7.3104138 2.3509886e-038
-17.339638 359.76495 -7.2815428 2.3509886e-038
-12.322713 359.76904 -7.2816257 2.3509886e-038
-7.3004708 359.51807 -7.276546 2.3509886e-038
-2.2729638 357.33902 -7.2324424 2.3509886e-038
2.6897976 354.6366 -7.1777463 2.3509886e-038
7.5970058 352.85477 -7.1416821 2.3509886e-038
12.493895 352.18362 -7.1280985 2.3509886e-038
15.963301 351.99783 -7.1243382 2.3509886e-038
26.148035 344.84213 -6.9795089 2.3418409e-038
26.627956 344.42245 -6.9710145 2.3418409e-038
31.192652 341.80969 -6.9181333 2.3418409e-038
35.906506 341.3074 -6.9079671 2.3418409e-038
40.74057 341.93161 -6.9206009 2.3418409e-038
45.64846 342.97992 -6.9418182 2.3418409e-038
45.853642 343.0386 -6.943006 2.3418409e-038
-59.126896 345.10196 -11.797374 2.3509528e-038
-55.281525 346.02692 -11.828996 2.3509528e-038
-50.933147 349.29907 -11.940854 2.3509528e-038
-46.729115 354.3577 -12.113784 2.3509528e-038
-42.639366 361.58209 -12.360752 2.3509528e-038
-38.318134 368.5181 -12.597858 2.3509886e-038
-38.254513 368.59201 -12.600387 2.3509886e-038
-29.559938 367.8385 -12.574628 2.3509886e-038
-27.877697 366.38733 -12.52502 2.3509886e-038
-22.539616 362.70807 -12.399242 2.3509886e-038
-17.379238 360.58661 -12.32672 2.3509886e-038
-12.306809 359.30475 -12.2829 2.3509886e-038
-7.2726927 358.15012 -12.243428 2.3509886e-038
-2.269321 356.76633 -12.196123 2.3509886e-038
2.692987 355.05713 -12.137693 2.3509886e-038
7.607614 353.34747 -12.079249 2.3509886e-038
12.484393 351.91577 -12.030306 2.3509886e-038
17.307932 350.21426 -11.97214 2.3509886e-038
22.022036 347.53467 -11.880537 2.3418409e-038
26.636551 344.53363 -11.777946 2.3418409e-038
31.293533 342.91519 -11.722619 2.3418409e-038
36.114288 343.28247 -11.735175 2.3418409e-038
41.124336 345.15256 -11.799105 2.3418409e-038
44.69371 347.46988 -11.878322 2.3418409e-038
-56.304211 349.61417 -16.827131 2.3509528e-038
-55.867214 349.69296 -16.830923 2.3509528e-038
-51.288242 351.73431 -16.929176 2.3509528e-038
-46.831402 355.13339 -17.092773 2.3509528e-038
-42.505264 360.44495 -17.348421 2.3509528e-038
-37.955791 365.03333 -17.569263 2.3509886e-038
-32.9842 366.35471 -17.632862 2.3509886e-038
-27.739691 364.57358 -17.547136 2.3509886e-038
-22.541588 362.73981 -17.458876 2.3509886e-038
-17.41223 361.27115 -17.388187 2.3509886e-038
-12.325764 359.85812 -17.320179 2.3509886e-038
-7.2788439 358.45303 -17.252552 2.3509886e-038
-2.2719615 357.18146 -17.191349 2.3509886e-038
2.6967072 355.54761 -17.112711 2.3509886e-038
7.611021 353.50571 -17.014433 2.3509886e-038
12.46606 351.39899 -16.913034 2.3509886e-038
17.253868 349.12036 -16.803364 2.3509886e-038
21.972036 346.74561 -16.689066 2.3418409e-038
26.644983 344.6427 -16.587852 2.3418409e-038
31.344782 343.47675 -16.531734 2.3418409e-038
36.198174 344.07983 -16.560759 2.3418409e-038
41.309689 346.70819 -16.687265 2.3418409e-038
43.071243 348.5101 -16.773991 2.3418409e-038
-53.422581 356.87744 -22.153538 2.3509886e-038
-52.025043 356.78726 -22.14794 2.3509528e-038
-47.146797 357.52509 -22.193741 2.3509528e-038
-42.456078 360.02783 -22.3491 2.3509886e-038
-37.667576 362.26147 -22.487759 2.3509886e-038
-32.685558 363.03769 -22.53594 2.3509886e-038
-27.601345 362.75534 -22.518415 2.3509886e-038
-22.52755 362.51385 -22.503424 2.3509886e-038
-17.445213 361.95551 -22.468765 2.3509886e-038
-12.360631 360.8761 -22.401758 2.3509886e-038
-7.3013425 359.56104 -22.320126 2.3509886e-038
-2.2784252 358.19763 -22.235491 2.3509886e-038
2.7026422 356.33014 -22.119562 2.3509886e-038
7.6200233 353.92383 -21.97019 2.3509886e-038
12.466595 351.41406 -21.814392 2.3509886e-038
17.247074 348.98288 -21.663473 2.3509886e-038
21.96777 346.67825 -21.520414 2.3509886e-038
26.64872 344.69104 -21.397055 2.3418409e-038
31.344219 343.47061 -21.321295 2.3418409e-038
36.151127 343.63263 -21.331352 2.3418409e-038
41.221817 345.9707 -21.47649 2.3418409e-038
41.337009 346.08707 -21.483713 2.3418409e-038
-50.352802 362.92902 -27.590408 2.3509886e-038
-47.740627 362.02823 -27.521931 2.3509886e-038
-42.667004 361.8165 -27.505833 2.3509886e-038
-37.677551 362.35742 -27.546953 2.3509886e-038
-32.659584 362.74915 -27.576735 2.3509886e-038
-27.611376 362.88718 -27.587227 2.3509886e-038
-22.562647 363.07867 -27.601786 2.3509886e-038
-17.483353 362.7468 -27.576557 2.3509886e-038
-12.391443 361.7757 -27.502731 2.3509886e-038
-7.3213086 360.54425 -27.409117 2.3509886e-038
-2.2846072 359.16953 -27.304605 2.3509886e-038
2.7094455 357.22708 -27.15694 2.3509886e-038
7.636724 354.69952 -26.964788 2.3509886e-038
12.487567 352.00525 -26.759968 2.3509886e-038
17.264942 349.34439 -26.557686 2.3509886e-038
21.973944 346.7757 -26.36241 2.3509886e-038
26.640881 344.58966 -26.196222 2.3509886e-038
31.321943 343.22647 -26.09259 2.3418409e-038
36.065178 342.81564 -26.061359 2.3418409e-038
40.194748 343.63275 -26.123478 2.3418409e-038
-48.11797 368.98947 -33.196861 2.3509886e-038
-43.163944 366.03052 -32.930656 2.3509886e-038
-37.893955 364.43863 -32.787437 2.3509886e-038
-32.765343 363.92386 -32.741127 2.3509886e-038
-27.677586 363.75735 -32.726147 2.3509886e-038
-22.603134 363.73019 -32.723701 2.3509886e-038
-17.505951 363.2157 -32.677414 2.3509886e-038
-12.404293 362.15082 -32.581612 2.3509886e-038
-7.3290796 360.92694 -32.471504 2.3509886e-038
-2.2875741 359.63599 -32.355358 2.3509886e-038
2.7135806 357.77228 -32.187691 2.3509886e-038
7.6481729 355.23129 -31.959084 2.3509886e-038
12.502312 352.42087 -31.706236 2.3509886e-038
17.280243 349.65405 -31.457315 2.3509886e-038
21.985426 346.95694 -31.214664 2.3509886e-038
26.646729 344.66525 -31.008488 2.3509886e-038
31.327951 343.2923 -30.884966 2.3509886e-038
36.057663 342.74423 -30.835659 2.3509886e-038
39.768913 343.09549 -30.86726 2.3509886e-038
-46.993271 375.01669 -38.968895 2.3509886e-038
-43.77636 371.22382 -38.574768 2.3509886e-038
-38.136593 366.77219 -38.112186 2.3509886e-038
-32.855324 364.92328 -37.920063 2.3509886e-038
-27.71187 364.20792 -37.84573 2.3509886e-038
-22.608234 363.81223 -37.804615 2.3509886e-038
-17.497202 363.03415 -37.723763 2.3509886e-038
-12.393967 361.84933 -37.600643 2.3509886e-038
-7.3231339 360.63416 -37.474373 2.3509886e-038
-2.2862024 359.42032 -37.34824 2.3509886e-038
2.712579 357.64023 -37.163265 2.3509886e-038
7.6474533 355.19788 -36.909473 2.3509886e-038
12.50726 352.56036 -36.635403 2.3509886e-038
17.299379 350.04123 -36.373634 2.3509886e-038
22.018074 347.47217 -36.106674 2.3509886e-038
26.680122 345.09723 -35.85989 2.3509886e-038
31.352453 343.56082 -35.700241 2.3509886e-038
36.082268 342.97809 -35.639683 2.3509886e-038
39.724766 343.36456 -35.679848 2.3509886e-038
-46.303661 376.57281 -44.38208 2.3509886e-038
-44.025501 373.33652 -44.000656 2.3509886e-038
-38.199238 367.37463 -43.298004 2.3509886e-038
-32.841118 364.76544 -42.990486 2.3509886e-038
-27.676197 363.73907 -42.869522 2.3509886e-038
-22.564892 363.11481 -42.795944 2.3509886e-038
-17.458059 362.22198 -42.69072 2.3509886e-038
-12.368693 361.11145 -42.559837 2.3509886e-038
-7.3117576 360.07391 -42.437553 2.3509886e-038
-2.2829473 358.90857 -42.300209 2.3509886e-038
2.7083235 357.07919 -42.084602 2.3509886e-038
7.6367207 354.69937 -41.804119 2.3509886e-038
12.501254 352.39102 -41.532066 2.3509886e-038
17.312586 350.30847 -41.286621 2.3509886e-038
22.047018 347.92896 -41.006172 2.3509886e-038
26.699434 345.34702 -40.701874 2.3509886e-038
31.344593 343.4747 -40.481201 2.3509886e-038
36.089729 343.04901 -40.431034 2.3509886e-038
39.806953 344.15854 -40.561798 2.3509886e-038
-46.026329 372.66165 -49.118053 2.3509886e-038
-43.621109 369.90729 -48.75502 2.3509886e-038
-37.975143 365.21945 -48.137146 2.3509886e-038
-32.690262 363.08987 -47.856464 2.3509886e-038
-27.561325 362.22937 -47.743046 2.3509886e-038
-22.473475 361.64371 -47.665848 2.3509886e-038
-17.394936 360.91232 -47.569454 2.3509886e-038
-12.337049 360.18762 -47.473934 2.3509886e-038
-7.3017859 359.58286 -47.394222 2.3509886e-038
-2.2805123 358.52576 -47.254894 2.3509886e-038
2.704329 356.55252 -46.994816 2.3509886e-038
7.6233592 354.07877 -46.66877 2.3509886e-038
12.484941 351.93121 -46.385712 2.3509886e-038
17.301874 350.09174 -46.143265 2.3509886e-038
22.032705 347.70306 -45.828426 2.3509886e-038
26.658045 344.81165 -45.44733 2.3509886e-038
31.278797 342.75369 -45.176083 2.3509886e-038
36.088562 343.03793 -45.213547 2.3509886e-038
39.986172 345.71616 -45.566547 2.3509886e-038
-79.535889 311.23892 -45.362682 3.5733111e-043
-75.320053 309.40714 -45.095703 3.5733111e-043
-71.175522 310.14923 -45.203861 3.5733111e-043
-68.871964 311.67725 -45.426571 3.5733111e-043
-46.617428 364.96402 -53.193047 2.3509886e-038
-42.812855 363.05328 -52.914562 2.3509886e-038
-37.530735 360.94543 -52.607346 2.3509886e-038
-32.414562 360.02774 -52.473591 2.3509886e-038
-27.369053 359.70239 -52.42617 2.3509886e-038
-22.337223 359.45114 -52.389553 2.3509886e-038
-17.31151 359.18137 -52.350239 2.3509886e-038
-12.298863 359.07275 -52.3344 2.3509886e-038
-7.2904711 359.02563 -52.327538 2.3509886e-038
-2.2786534 358.23352 -52.212086 2.3509886e-038
2.7020063 356.24631 -51.922451 2.3509886e-038
7.6138701 353.63806 -51.542305 2.3509886e-038
12.464747 351.362 -51.210571 2.3509886e-038
17.264704 349.3396 -50.91581 2.3509886e-038
21.96706 346.66711 -50.526299 2.3509886e-038
26.562309 343.57333 -50.075382 2.3509886e-038
31.193823 341.82254 -49.820206 2.3509886e-038
36.124702 343.38147 -50.047421 2.3509886e-038
40.218437 347.7243 -50.680386 2.3509886e-038
-88.860977 319.13568 -50.964123 3.5733111e-043
-86.00338 316.97623 -50.619267 3.5733111e-043
-80.410942 312.42239 -49.892048 3.5733111e-043
-75.267387 309.1908 -49.37598 3.5733111e-043
-70.920784 309.03918 -49.351768 3.5733111e-043
-67.124405 311.42065 -49.732075 3.5733111e-043
-63.75037 316.22662 -50.499561 3.5733111e-043
-60.610561 322.99503 -51.580437 3.5733111e-043
-59.785069 324.92477 -51.888603 3.5733111e-043
-48.747978 352.38385 -56.273663 2.3509886e-038
-46.703232 354.16141 -56.557526 2.3509886e-038
-41.919193 355.47504 -56.767303 2.3509886e-038
-36.98806 355.72632 -56.807438 2.3509886e-038
-32.065773 356.15369 -56.875683 2.3509886e-038
-27.134569 356.62064 -56.950253 2.3509886e-038
-22.179667 356.91574 -56.997379 2.3509886e-038
-17.220928 357.30197 -57.059055 2.3509886e-038
-12.257391 357.86194 -57.148479 2.3509886e-038
-7.2743464 358.23157 -57.207508 2.3509886e-038
-2.2753527 357.71463 -57.124954 2.3509886e-038
2.6993403 355.89478 -56.834335 2.3509886e-038
7.6068974 353.31418 -56.42223 2.3509886e-038
12.447667 350.88052 -56.033588 2.3509886e-038
17.223972 348.51541 -55.655891 2.3509886e-038
21.893381 345.5043 -55.175041 2.3509886e-038
26.470037 342.37985 -54.676079 2.3509886e-038
31.134306 341.17035 -54.482929 2.3509886e-038
36.171726 343.82846 -54.907413 2.3509886e-038
40.372406 349.05527 -55.742104 2.3509886e-038
-88.529266 320.24377 -55.607025 3.5733111e-043
-86.633659 319.29919 -55.443008 3.5733111e-043
-81.094208 315.07709 -54.709881 3.5733111e-043
-75.680763 310.88892 -53.982651 3.5733111e-043
-71.139366 309.99167 -53.826851 3.5733111e-043
-67.235222 311.93478 -54.164249 3.5733111e-043
-63.710213 316.0274 -54.874893 3.5733111e-043
-60.326496 321.48126 -55.821899 3.5733111e-043
-56.860664 327.3381 -56.838882 3.5733111e-043
-53.278053 333.48651 -57.906487 3.5733111e-043
-49.545284 339.7811 -58.999477 3.5733111e-043
-45.517319 345.1684 -59.934925 2.3509886e-038
-41.056896 348.16278 -60.454868 2.3509886e-038
-36.394527 350.01816 -60.777035 2.3509886e-038
-31.658829 351.63382 -61.057579 2.3509886e-038
-26.859352 353.00357 -61.295425 2.3509886e-038
-21.996807 353.97314 -61.463779 2.3509886e-038
-17.113354 355.07004 -61.654243 2.3509886e-038
-12.202821 356.26874 -61.862389 2.3509886e-038
-7.249258 356.99606 -61.988678 2.3509886e-038
-2.2694526 356.78702 -61.952381 2.3509886e-038
2.6949329 355.31369 -61.696552 2.3509886e-038
7.6000433 352.99585 -61.294083 2.3509886e-038
12.43628 350.55954 -60.871044 2.3509886e-038
17.195692 347.94321 -60.416748 2.3509886e-038
21.844866 344.73871 -59.860317 2.3509886e-038
26.418783 341.71689 -59.335609 2.3509886e-038
31.111973 340.9256 -59.198208 2.3509886e-038
36.209103 344.18372 -59.763947 2.3509886e-038
40.444641 349.68024 -60.718361 2.3509886e-038
-78.25872 315.73187 -59.226604 3.5733111e-043
-76.538536 314.41254 -58.979115 3.5733111e-043
-71.894669 313.2829 -58.767216 3.5733111e-043
-67.960213 315.29831 -59.145275 3.5733111e-043
-64.251625 318.71301 -59.78582 3.5733111e-043
-60.527592 322.55289 -60.506123 3.5733111e-043
-56.735825 326.61942 -61.268944 3.5733111e-043
-52.800194 330.49539 -61.996021 3.5733111e-043
-48.757156 334.37613 -62.723988 3.5733111e-043
-44.601578 338.22412 -63.445812 3.5733111e-043
-40.250034 341.32056 -64.026665 3.5733111e-043
-35.75914 343.90738 -64.511909 2.3509886e-038
-31.175596 346.26657 -64.95446 2.3509886e-038
-26.505625 348.35464 -65.346153 2.3509886e-038
-21.750267 350.00583 -65.655884 2.3509886e-038
-16.955996 351.80511 -65.993408 2.3509886e-038
-12.115609 353.72253 -66.353088 2.3509886e-038
-7.2108836 355.10629 -66.612663 2.3509886e-038
-2.2607982 355.42642 -66.672714 2.3509886e-038
2.6884217 354.4552 -66.490524 2.3509886e-038
7.5903034 352.54346 -66.131905 2.3509886e-038
12.425027 350.24231 -65.700249 2.3509886e-038
17.177048 347.56592 -65.198196 2.3509886e-038
21.822678 344.38855 -64.602165 2.3509886e-038
26.405165 341.54074 -64.06797 2.3509886e-038
31.111338 340.91867 -63.951267 2.3509886e-038
36.232227 344.4035 -64.604973 2.3509886e-038
40.49189 350.08661 -65.671043 2.3509886e-038
-70.189369 322.59021 -65.011803 3.5733111e-043
-69.613991 322.97095 -65.088531 3.5733111e-043
-65.629578 325.54819 -65.607925 3.5733111e-043
-61.445831 327.44623 -65.990433 3.5733111e-043
-57.24559 329.55405 -66.41523 3.5733111e-043
-52.927322 331.29114 -66.765305 3.5733111e-043
-48.500854 332.61841 -67.032791 3.5733111e-043
-44.050926 334.04837 -67.320969 3.5733111e-043
-39.616634 335.94931 -67.704063 3.5733111e-043
-35.149509 338.0444 -68.126289 3.5733111e-043
-30.631397 340.22214 -68.565178 2.3509886e-038
-26.055939 342.44458 -69.013062 2.3509886e-038
-21.411959 344.5618 -69.439743 2.3509886e-038
-16.72599 347.03296 -69.937767 2.3509886e-038
-11.984039 349.88126 -70.51178 2.3509886e-038
-7.1562018 352.41342 -71.022087 2.3509886e-038
-2.2493641 353.62885 -71.267036 2.3509886e-038
2.679672 353.30161 -71.201088 2.3509886e-038
7.5741634 351.79379 -70.897217 2.3509886e-038
12.403502 349.63553 -70.462265 2.3509886e-038
17.152723 347.07373 -69.945976 2.3509886e-038
21.804152 344.09619 -69.345917 2.3509886e-038
26.399803 341.47137 -68.816933 2.3509886e-038
31.11721 340.983 -68.718506 2.3509886e-038
36.25024 344.57474 -69.44236 2.3509886e-038
40.532188 350.39514 -70.615341 2.3509886e-038
-64.489662 336.39322 -72.484657 3.5733111e-043
-63.098915 336.25552 -72.454987 3.5733111e-043
-58.48172 336.67029 -72.544357 3.5733111e-043
-53.744987 336.40918 -72.488098 3.5733111e-043
-48.837379 334.9263 -72.168579 3.5733111e-043
-43.969784 333.43307 -71.846817 3.5733111e-043
-39.304344 333.30109 -71.818382 3.5733111e-043
-34.738197 334.08868 -71.988091 3.5733111e-043
-30.202057 335.45349 -72.282173 2.3509886e-038
-25.664827 337.30432 -72.680977 2.3509886e-038
-21.09325 339.43311 -73.139679 2.3509886e-038
-16.48905 342.11685 -73.717964 2.3509886e-038
-11.83329 345.48004 -74.442657 2.3509886e-038
-7.0864291 348.97742 -75.196251 2.3509886e-038
-2.2347884 351.33737 -75.704765 2.3509886e-038
2.6693742 351.94388 -75.835457 2.3509886e-038
7.5557485 350.93851 -75.61882 2.3509886e-038
12.37882 348.93985 -75.188156 2.3509886e-038
17.126549 346.54416 -74.671944 2.3509886e-038
21.785891 343.80801 -74.082375 2.3509886e-038
26.400061 341.47473 -73.579613 2.3509886e-038
31.151386 341.35751 -73.554344 2.3509886e-038
36.346767 345.49231 -74.445297 2.3509886e-038
40.815002 352.13126 -75.875824 2.3509886e-038
-59.251049 348.24442 -79.894745 2.3509886e-038
-55.332832 346.34808 -79.459679 3.5733111e-043
-49.835598 341.77209 -78.409843 3.5733111e-043
-44.450371 337.07745 -77.332802 3.5733111e-043
-39.415157 334.24078 -76.682007 3.5733111e-043
-34.626781 333.01715 -76.401276 3.5733111e-043
-29.988571 333.08231 -76.416229 2.3509886e-038
-25.429417 334.21039 -76.675034 2.3509886e-038
-20.874769 335.9173 -77.066628 2.3509886e-038
-16.305208 338.30252 -77.613853 2.3509886e-038
-11.699678 341.57919 -78.365593 2.3509886e-038
-7.0150795 345.46371 -79.25679 2.3509886e-038
-2.2186716 348.80362 -80.023026 2.3509886e-038
2.6579237 350.43417 -80.397125 2.3509886e-038
7.5366921 350.05341 -80.309753 2.3509886e-038
12.355596 348.28516 -79.904083 2.3509886e-038
17.102221 346.05188 -79.391724 2.3509886e-038
21.773046 343.60532 -78.830429 2.3509886e-038
26.421213 341.74832 -78.404396 2.3509886e-038
31.240446 342.33344 -78.538635 2.3509886e-038
36.566017 347.57635 -79.74147 2.3509886e-038
41.694683 356.51532 -81.792267 2.3509886e-038
-53.269924 355.65686 -86.555115 2.3509886e-038
-51.505463 353.22397 -85.963028 2.3509886e-038
-45.520786 345.19467 -84.008965 2.3509886e-038
-39.967476 338.92447 -82.483002 3.5733111e-043
-34.818863 334.86444 -81.494926 2.3509886e-038
-29.99025 333.10095 -81.06575 2.3509886e-038
-25.353525 333.21298 -81.09301 2.3509886e-038
-20.772429 334.27045 -81.350365 2.3509886e-038
-16.200701 336.13416 -81.803932 2.3509886e-038
-11.611579 339.00708 -82.503105 2.3509886e-038
-6.9608984 342.79553 -83.425087 2.3509886e-038
-2.2045922 346.59015 -84.348572 2.3509886e-038
2.6466925 348.95343 -84.923714 2.3509886e-038
7.5179696 349.18381 -84.979782 2.3509886e-038
12.335415 347.71631 -84.622643 2.3509886e-038
17.083206 345.66708 -84.123932 2.3509886e-038
21.773851 343.61801 -83.625252 2.3509886e-038
26.47599 342.45685 -83.342667 2.3509886e-038
31.385227 343.91995 -83.698746 2.3509886e-038
36.857368 350.34576 -85.262566 2.3509886e-038
43.264988 363.11884 -88.371109 2.3509886e-038
43.818752 364.39371 -88.681374 2.3509886e-038
-44.509491 352.48816 -90.69957 2.3509886e-038
-40.865112 346.53644 -89.168114 2.3509886e-038
-35.281792 339.31662 -87.310364 2.3509886e-038
-30.211592 335.55939 -86.34359 2.3509886e-038
-25.439432 334.34204 -86.03035 2.3509886e-038
-20.792528 334.5939 -86.095154 2.3509886e-038
-16.185581 335.8205 -86.410774 2.3509886e-038
-11.580503 338.09979 -86.997261 2.3509886e-038
-6.9344902 341.49503 -87.870903 2.3509886e-038
-2.1963313 345.29141 -88.847755 2.3509886e-038
2.6394083 347.99304 -89.542915 2.3509886e-038
7.5064163 348.64719 -89.711235 2.3509886e-038
12.326641 347.46896 -89.408073 2.3509886e-038
17.082645 345.65573 -88.941505 2.3509886e-038
21.799501 344.0228 -88.521332 2.3509886e-038
26.558205 343.52026 -88.392021 2.3509886e-038
31.546793 345.6904 -88.950424 2.3509886e-038
37.093067 352.58618 -90.724785 2.3509886e-038
43.522545 365.28049 -93.991188 2.3509886e-038
47.625629 374.39926 -96.33757 2.3509886e-038
-36.621651 346.86618 -94.090179 2.3509886e-038
-35.988815 346.11627 -93.886757 2.3509886e-038
-30.734814 341.37079 -92.599503 2.3509886e-038
-25.755817 338.50018 -91.820831 2.3509886e-038
-20.966269 337.38971 -91.519608 2.3509886e-038
-16.271639 337.60602 -91.578285 2.3509886e-038
-11.612865 339.04462 -91.968513 2.3509886e-038
-6.9394479 341.7392 -92.69944 2.3509886e-038
-2.1951017 345.09811 -93.610573 2.3509886e-038
2.6375849 347.75262 -94.330627 2.3509886e-038
7.5069737 348.67307 -94.580307 2.3509886e-038
12.33991 347.84299 -94.355141 2.3509886e-038
17.115414 346.31882 -93.941696 2.3509886e-038
21.861858 345.0069 -93.585823 2.3509886e-038
26.66432 344.89282 -93.554886 2.3509886e-038
31.694248 347.30618 -94.209526 2.3509886e-038
37.224033 353.83109 -95.979462 2.3509886e-038
43.505085 365.13394 -99.045448 2.3509886e-038
50.374401 378.48828 -102.66792 2.3509886e-038
52.415131 382.00699 -103.6224 2.3509886e-038
-31.500063 350.97028 -100.09788 2.3509886e-038
-26.349876 346.30771 -98.768097 2.3509886e-038
-21.340271 343.40817 -97.941147 2.3509886e-038
-16.484795 342.02859 -97.547691 2.3509886e-038
-11.715037 342.02762 -97.547401 2.3509886e-038
-6.9761972 343.54895 -97.981293 2.3509886e-038
-2.2011623 346.0509 -98.69487 2.3509886e-038
2.6424048 348.38809 -99.361443 2.3509886e-038
7.5261312 349.5629 -99.696487 2.3509886e-038
12.390358 349.26508 -99.611549 2.3509886e-038
17.203724 348.10571 -99.280891 2.3509886e-038
21.988321 347.00259 -98.966286 2.3509886e-038
26.826948 346.99634 -98.964508 2.3509886e-038
31.869455 349.22614 -99.600449 2.3509886e-038
37.332447 354.86157 -101.2077 2.3509886e-038
43.403625 364.28241 -103.89455 2.3509886e-038
49.962936 375.39676 -107.0644 2.3509886e-038
56.545193 384.55878 -109.67744 2.3509886e-038
57.411751 385.57437 -109.96708 2.3509886e-038
-25.209078 355.89441 -106.46538 2.3509886e-038
-21.940723 353.07065 -105.62065 2.3509886e-038
-16.851641 349.63998 -104.59438 2.3509886e-038
-11.903279 347.52344 -103.96121 2.3509886e-038
-7.0509257 347.22903 -103.87314 2.3509886e-038
-2.2160323 348.38867 -104.22004 2.3509886e-038
2.6560409 350.18597 -104.7577 2.3509886e-038
7.571281 351.65991 -105.19864 2.3509886e-038
12.489911 352.07132 -105.3217 2.3509886e-038
17.3652 351.37308 -105.11282 2.3509886e-038
22.207977 350.46906 -104.84238 2.3509886e-038
27.095041 350.46405 -104.84089 2.3509886e-038
32.150478 352.30557 -105.39178 2.3509886e-038
37.54071 356.84128 -106.74863 2.3509886e-038
43.403606 364.28226 -108.97459 2.3509886e-038
49.69664 373.39594 -111.70093 2.3509886e-038
56.140232 381.80469 -114.21639 2.3509886e-038
62.331924 388.00192 -116.07029 2.3509886e-038
-17.695894 360.82642 -112.97264 2.3509886e-038
-17.376225 360.52408 -112.87799 2.3509886e-038
-12.206113 356.36484 -111.57575 2.3509886e-038
-7.1808743 353.62845 -110.71901 2.3509886e-038
-2.2435791 352.71939 -110.43438 2.3509886e-038
2.6816697 353.565 -110.69914 2.3509886e-038
7.6467366 355.16458 -111.19996 2.3509886e-038
12.633986 356.1326 -111.50304 2.3509886e-038
17.588863 355.89874 -111.42982 2.3509886e-038
22.513796 355.29523 -111.24087 2.3509886e-038
27.470173 355.31622 -111.24744 2.3509886e-038
32.541752 356.59317 -111.64724 2.3509886e-038
37.846195 359.74503 -112.63407 2.3509886e-038
43.508293 365.16086 -114.32973 2.3509886e-038
49.573246 372.46881 -116.61781 2.3509886e-038
55.922955 380.327 -119.07816 2.3509886e-038
62.289864 386.93054 -121.14571 2.3509886e-038
66.002914 390.05978 -122.12544 2.3509886e-038
-9.3114462 364.23303 -119.11864 2.3509886e-038
-7.3570037 362.30209 -118.48714 2.3509886e-038
-2.2839432 359.06512 -117.42852 2.3509886e-038
2.7217565 358.85025 -117.35825 2.3509886e-038
7.7568054 360.27692 -117.82482 2.3509886e-038
12.812841 361.17422 -118.11829 2.3509886e-038
17.842243 361.02573 -118.06972 2.3509886e-038
22.847357 360.55923 -117.91716 2.3509886e-038
27.868422 360.46741 -117.88712 2.3509886e-038
32.95079 361.07541 -118.08597 2.3509886e-038
38.181454 362.93182 -118.69308 2.3509886e-038
43.673779 366.5498 -119.87631 2.3509886e-038
49.509914 371.99295 -121.65643 2.3509886e-038
55.667458 378.58936 -123.81373 2.3509886e-038
61.973095 384.96286 -125.89811 2.3509886e-038
67.170235 389.42014 -127.35581 2.3509886e-038
0.69209743 366.51617 -124.97655 2.3509886e-038
2.7804568 366.58957 -125.00158 2.3509886e-038
7.9145346 367.60287 -125.34711 2.3509886e-038
13.042152 367.63815 -125.35912 2.3509886e-038
18.134296 366.93521 -125.11943 2.3509886e-038
23.201862 366.15378 -124.85297 2.3509886e-038
28.266109 365.61136 -124.66801 2.3509886e-038
33.35239 365.47617 -124.62192 2.3509886e-038
38.542057 366.3595 -124.92313 2.3509886e-038
43.915359 368.57733 -125.67937 2.3509886e-038
49.526997 372.12131 -126.88781 2.3509886e-038
55.395908 376.74261 -128.46361 2.3509886e-038
61.492935 381.98022 -130.24956 2.3509886e-038
65.986992 385.79056 -131.54883 2.3509886e-038
10.798616 377.24487 -133.89572 2.3509886e-038
13.348363 376.26974 -133.54964 2.3509886e-038
18.501034 374.35593 -132.87035 2.3509886e-038
23.617891 372.71924 -132.28944 2.3509886e-038
28.709501 371.34644 -131.8022 2.3509886e-038
33.798367 370.36319 -131.4532 2.3509886e-038
38.971783 370.44424 -131.48198 2.3509886e-038
44.272724 371.57666 -131.88391 2.3509886e-038
49.711407 373.50687 -132.569 2.3509886e-038
55.312042 376.17221 -133.51501 2.3509886e-038
61.120354 379.66583 -134.755 2.3509886e-038
63.284279 381.17798 -135.29172 2.3509886e-038
21.995995 381.06555 -140.56592 2.3509886e-038
24.070518 379.86221 -140.12204 2.3509886e-038
29.172976 377.34134 -139.19215 2.3509886e-038
34.257618 375.39566 -138.47444 2.3509886e-038
39.414005 374.64774 -138.19853 2.3509886e-038
44.664898 374.86813 -138.27985 2.3509886e-038
49.989395 375.59555 -138.54817 2.3509886e-038
55.404999 376.80441 -138.99408 2.3509886e-038
58.606426 377.91791 -139.40483 2.3509886e-038
38.367065 378.55035 -144.91718 2.3509886e-038
39.793442 378.25452 -144.80392 2.3509886e-038
45.013363 377.79279 -144.62717 2.3509886e-038
46.251186 377.77594 -144.62071 2.3509886e-038
-85.894684 316.57559 -48.124962 3.5733111e-043
-86.960304 320.50305 -56.894871 3.5733111e-043
-80.220398 311.68207 -45.538147 3.5733111e-043
-81.924866 318.30444 -58.53056 3.5733111e-043
-75.401718 309.74261 -44.647076 3.5733111e-043
-76.677261 314.98242 -59.643028 3.5733111e-043
-75.891296 330.6983 28.140528 2.3509528e-038
-74.946869 326.58295 18.20332 2.3509528e-038
-71.246536 310.45865 -44.877106 3.5733111e-043
-72.688507 316.74207 -61.973156 3.5733111e-043
-71.235023 330.49167 28.399427 2.3509528e-038
-70.589264 327.4957 10.714485 2.3509528e-038
-67.409203 312.74194 -45.975353 3.5733111e-043
-69.794823 323.80994 -65.590332 3.5733111e-043
-66.762474 331.16785 25.765301 2.3509528e-038
-66.958572 332.1405 4.0746522 2.3509528e-038
-63.952423 317.22888 -48.127518 3.5733111e-043
-66.884926 331.77524 -69.623634 3.5733111e-043
-63.192703 336.75534 21.574701 2.3509528e-038
-63.58976 338.87128 -3.1098576 2.3509528e-038
-60.677624 323.35242 -51.078136 3.5733111e-043
-63.480652 338.28983 -73.720451 3.5733111e-043
-59.828175 344.4216 16.630301 2.3509528e-038
-59.822186 344.38715 -10.573058 2.3509528e-038
-57.210438 329.35168 -54.044273 3.5733111e-043
-60.100533 345.98953 -78.521568 2.3509886e-038
-55.709095 348.70325 11.555018 2.3509528e-038
-55.977875 350.38565 -17.44001 2.3509528e-038
-53.708763 336.18243 -56.144947 3.5733111e-043
-56.488014 353.57877 -83.681084 2.3509886e-038
-51.719341 354.6908 6.2110505 2.3509528e-038
-52.370598 359.15707 -24.000284 2.3509886e-038
-50.378963 345.49847 -56.793114 2.3509886e-038
-51.869133 355.71805 -87.457062 2.3509886e-038
-47.396423 359.41806 -0.16006494 2.3509528e-038
-48.48661 367.68521 -32.033997 2.3509886e-038
-47.41563 359.56372 -54.89946 2.3509886e-038
-46.682938 354.00754 -89.955162 2.3509886e-038
-40.588676 344.19223 60.334164 2.3418052e-038
-40.819374 346.14856 43.885918 2.3418052e-038
-42.747204 362.49655 -7.198318 2.3509528e-038
-41.220917 349.55365 -91.683784 2.3509886e-038
-36.03355 346.54651 61.195477 2.3418052e-038
-36.788074 353.80304 28.118404 2.3418052e-038
-38.321133 368.54694 -12.538604 2.3509886e-038
-36.07391 346.93463 -94.576347 2.3509886e-038
-31.045128 344.81747 55.242058 2.3418052e-038
-32.069733 356.19772 8.8505573 2.3418052e-038
-33.212708 368.8927 -14.844664 2.3509886e-038
-31.590071 350.87012 -99.982506 2.3509886e-038
-26.638784 350.10468 44.474495 2.3418052e-038
-26.983669 354.63742 -104.82198 2.3509886e-038
-22.626638 364.1084 33.178799 2.3418052e-038
-22.244558 357.95999 -109.1211 2.3509886e-038
-17.346354 359.90436 19.74124 2.3418052e-038
-17.399147 360.99969 -113.21548 2.3509886e-038
-12.365946 361.03125 5.6738858 2.3509886e-038
-12.451921 363.54135 -117.08487 2.3509886e-038
-7.365705 362.73059 2.0680764 2.3509886e-038
-7.3985391 364.34753 -120.19722 2.3509886e-038
-2.2244046 349.70493 21.926741 2.3509886e-038
-2.3206074 364.82922 -122.90973 2.3509886e-038
2.6306224 346.83466 59.21262 9.1476764e-041
2.7960989 368.65192 -126.78391 2.3509886e-038
7.4569716 346.35068 60.577637 9.1476764e-041
8.0735664 374.98935 -131.71211 2.3509886e-038
12.306308 346.89581 51.371357 9.1476764e-041
13.434771 378.70544 -135.73013 2.3509886e-038
17.357426 351.21579 -9.0330448 2.3509886e-038
18.807343 380.55383 -138.95554 2.3509886e-038
22.063635 348.19116 -9.7279272 2.3418409e-038
24.151657 381.1427 -141.51421 2.3509886e-038
26.625603 344.39203 -6.5524282 2.3418409e-038
29.420414 380.54184 -143.3261 2.3509886e-038
31.037237 340.10666 -1.3616915 2.3418409e-038
34.609264 379.24902 -144.41408 2.3509886e-038
35.399704 336.49002 5.2334547 2.3418409e-038
39.804367 378.35831 -145.00826 2.3509886e-038
40.07122 336.31384 13.629846 2.3418409e-038
41.20266 345.80991 -21.910456 2.3418409e-038
43.149288 362.14777 -86.881241 2.3509886e-038
45.022591 377.87024 -144.80255 2.3509886e-038
44.920532 337.51065 24.575806 2.3418409e-038
45.730129 343.59354 -7.5010958 2.3418409e-038
50.527336 379.63736 -100.94682 2.3509886e-038
50.230495 377.40704 -143.48898 2.3509886e-038
50.013081 340.13446 31.094408 2.3418409e-038
49.516632 336.75818 4.6455722 2.3418409e-038
56.638031 385.19016 -109.0293 2.3509886e-038
55.482712 377.33292 -141.24173 2.3509886e-038
55.384167 344.03394 32.043602 2.3418409e-038
55.054256 341.98459 15.470954 2.3418409e-038
62.476891 388.09235 -116.25872 2.3509886e-038
61.02404 379.06754 -137.53581 2.3509886e-038
