# .PCD v0.7 - Point Cloud Data file format
VERSION 0.7
FIELDS x y z rgb
SIZE 4 4 4 4
TYPE F F F F
COUNT 1 1 1 1
WIDTH 777
HEIGHT 1
VIEWPOINT 0 0 0 1 0 0 0
POINTS 777
DATA ascii
-47.98859 351.35428 51.298145 2.3418052e-038
0 356.48499 55.405125 9.1476764e-041
0 0 0 3.5733111e-043
-52.98275 351.55215 -28.147085 2.3509528e-038
44.783508 339.59814 27.189985 2.3418409e-038
-51.093597 353.29962 58.406368 2.3418052e-038
-48.790085 351.43076 58.097416 2.3418052e-038
-45.832962 349.6304 57.799789 2.3418052e-038
-5.1895504 360.79584 59.645618 9.1476764e-041
-4.3671446 359.90204 59.49786 9.1476764e-041
0.69035161 355.23575 58.726444 9.1476764e-041
3.7919717 353.95523 58.514755 9.1476764e-041
-53.462475 355.31317 53.737293 2.3418052e-038
-48.78923 351.42456 53.149181 2.3418052e-038
-43.566437 349.2157 52.815113 2.3418052e-038
-41.323818 349.25266 52.820702 2.3418052e-038
-6.6379828 362.86761 54.879822 9.1476764e-041
-4.3662729 359.83017 54.420437 9.1476764e-041
0.6886335 354.35168 53.591873 9.1476764e-041
5.6461511 352.42224 53.300068 9.1476764e-041
5.7723799 352.44083 53.302879 9.1476764e-041
-53.283657 355.43207 48.751633 2.3418052e-038
-48.932961 352.45987 48.343964 2.3418052e-038
-43.81591 351.21542 48.173275 2.3418052e-038
-39.018845 352.54526 48.355675 2.3418052e-038
-38.8573 352.65237 48.370369 2.3418052e-038
-6.7461195 363.69675 49.885231 9.1476764e-041
-4.3691163 360.06451 49.387028 9.1476764e-041
0.68801302 354.03244 48.559658 9.1476764e-041
5.6345325 351.69702 48.23933 9.1476764e-041
6.446332 351.74011 48.245243 9.1476764e-041
-52.102127 355.72495 43.784061 2.3418052e-038
-49.216015 354.49866 43.633121 2.3418052e-038
-44.187759 354.19604 43.595875 2.3418052e-038
-39.391407 355.91144 43.807014 2.3418052e-038
-37.113884 358.00385 44.06456 2.3418052e-038
-6.338439 362.78137 44.652592 9.1476764e-041
-4.366015 359.80893 44.286732 9.1476764e-041
0.68787056 353.95908 43.566711 9.1476764e-041
5.641715 352.14539 43.343472 9.1476764e-041
6.7335949 352.41388 43.376526 9.1476764e-041
-50.56292 358.22229 39.048523 2.3418052e-038
-49.696243 357.95773 39.019684 2.3418052e-038
-44.610237 357.58249 38.978783 2.3418052e-038
-39.662544 358.36124 39.063671 2.3418052e-038
-35.263237 361.44608 39.399937 2.3418052e-038
-5.9846478 361.96893 39.456932 2.3509886e-038
-4.3634663 359.59885 39.198578 9.1476764e-041
0.68825322 354.15598 38.605274 9.1476764e-041
5.6609244 353.34439 38.5168 9.1476764e-041
7.0318708 354.1799 38.607876 9.1476764e-041
-48.965511 362.56262 34.417629 2.3418052e-038
-45.041538 361.03967 34.27306 2.3418052e-038
-39.783287 359.45218 34.12236 2.3418052e-038
-34.822025 360.47675 34.21962 2.3418052e-038
-32.893215 361.80582 34.345787 2.3418052e-038
-6.0492678 362.42114 34.404198 2.3509886e-038
-4.3658552 359.79575 34.154972 9.1476764e-041
0.68873936 354.40616 33.643345 9.1476764e-041
5.6773081 354.367 33.639633 9.1476764e-041
7.3275685 355.81186 33.776791 9.1476764e-041
-47.346947 366.41556 29.625124 2.3418052e-038
-45.500854 364.72144 29.488152 2.3418052e-038
-39.889843 360.41495 29.139967 2.3418052e-038
-34.707764 359.29388 29.049328 2.3418052e-038
-30.102699 361.5322 29.230297 2.3418052e-038
-6.6046453 362.99887 29.348881 9.1476764e-041
-4.360723 359.37277 29.055706 9.1476764e-041
0.68803233 354.04233 28.624733 9.1476764e-041
5.6771822 354.35916 28.650349 9.1476764e-041
7.7193775 356.28961 28.806429 9.1476764e-041
40.055504 344.40039 27.845171 2.3418409e-038
43.905922 341.30365 27.594795 2.3418409e-038
48.742142 341.5242 27.612629 2.3418409e-038
49.085407 341.83154 27.637476 2.3418409e-038
-45.71344 368.36682 24.597168 2.3418052e-038
-40.077152 362.10733 24.179199 2.3418052e-038
-34.689919 359.10919 23.979002 2.3418052e-038
-29.679399 359.65305 24.015318 2.3418052e-038
-27.165464 360.97754 24.10376 2.3418052e-038
-7.2334151 363.29108 24.258244 2.3509886e-038
-4.3509898 358.57065 23.943043 9.1476764e-041
0.68647152 353.2392 23.587042 9.1476764e-041
5.6657996 353.64865 23.614384 9.1476764e-041
8.3458281 356.17093 23.782804 9.1476764e-041
38.062111 345.38464 23.062567 2.3418409e-038
39.396385 343.88043 22.962126 2.3418409e-038
43.778538 340.31345 22.723944 2.3418409e-038
48.055485 339.92957 22.698309 2.3418409e-038
-44.164631 369.37772 19.464724 2.3509886e-038
-40.353302 364.60242 19.213085 2.3418052e-038
-34.777752 360.01843 18.971527 2.3418052e-038
-29.614262 358.86374 18.910681 2.3418052e-038
-24.679436 360.57492 19.000853 2.3418052e-038
-24.58988 360.63342 19.003935 2.3418052e-038
-7.7152495 364.46591 19.205893 2.3509886e-038
-4.3497677 358.46994 18.889929 9.1476764e-041
0.68529618 352.6344 18.582418 9.1476764e-041
5.6530671 352.85391 18.593987 9.1476764e-041
8.9084024 355.78543 18.748466 9.1476764e-041
36.130398 345.28693 18.195236 2.3418409e-038
39.202099 342.18454 18.031754 2.3418409e-038
43.668201 339.45575 17.887957 2.3418409e-038
46.572014 339.06619 17.86743 2.3418409e-038
-42.582035 370.21918 14.29726 2.3509886e-038
-40.703709 367.76846 14.202618 2.3418052e-038
-34.963459 361.94086 13.977565 2.3418052e-038
-29.653992 359.34518 13.877325 2.3418052e-038
-24.680023 360.58356 13.925147 2.3418052e-038
-22.462467 362.82434 14.011683 2.3418052e-038
-8.1818943 367.50732 14.192533 2.3509886e-038
-4.3641372 359.65414 13.889256 9.1476764e-041
0.6856423 352.8125 13.625043 9.1476764e-041
5.6494904 352.63068 13.618021 9.1476764e-041
9.2304707 355.65768 13.73492 9.1476764e-041
33.718647 344.35245 13.29833 2.3418409e-038
34.524628 343.57452 13.268288 2.3418409e-038
38.961811 340.08719 13.133612 2.3418409e-038
43.537975 338.44339 13.070131 2.3418409e-038
45.042843 338.4581 13.070699 2.3418409e-038
-40.783535 371.53052 9.1176357 2.3509528e-038
-35.279221 365.20963 8.9625168 2.3509528e-038
-29.82436 361.4097 8.8692636 2.3418052e-038
-24.773546 361.94992 8.8825207 2.3418052e-038
-20.392366 367.83725 9.0270004 2.3418052e-038
-8.8907995 370.90366 9.1022511 2.3509886e-038
-4.3839741 361.28894 8.8662996 9.1476764e-041
0.68768317 353.86267 8.6840534 9.1476764e-041
5.6633654 353.49677 8.6750746 9.1476764e-041
9.3874874 356.66498 8.7528248 9.1476764e-041
30.872358 343.88062 8.439086 2.3418409e-038
34.276356 341.10382 8.3709412 2.3418409e-038
38.76873 338.40182 8.3046331 2.3418409e-038
43.453171 337.78421 8.2894764 2.3418409e-038
43.626484 337.83185 8.2906456 2.3418409e-038
-38.728607 373.74127 3.9105005 2.3509528e-038
-35.757793 370.16379 3.873069 2.3509528e-038
-30.117039 364.95636 3.818583 2.3509528e-038
-24.897528 363.76132 3.8060794 2.3418052e-038
-20.037842 368.56589 3.8563499 2.3509886e-038
-17.33621 373.30661 3.9059527 2.3509886e-038
-10.524646 373.84296 3.9115646 2.3509886e-038
-9.7700205 372.73251 3.899946 2.3509886e-038
-4.4016976 362.74957 3.7954931 2.3509886e-038
0.69037145 355.24597 3.7169821 9.1476764e-041
5.6811252 354.60526 3.710278 9.1476764e-041
9.4943142 357.90344 3.7447875 9.1476764e-041
28.040161 346.14169 3.6217227 2.3418409e-038
29.725927 344.01416 3.5994623 2.3418409e-038
34.191341 340.25778 3.560159 2.3418409e-038
38.701435 337.81439 3.5345933 2.3418409e-038
42.358128 337.84991 3.534965 2.3418409e-038
-36.645 376.22845 -1.3598642 2.3509528e-038
-36.301151 375.78864 -1.3582746 2.3509528e-038
-30.442755 368.90335 -1.333388 2.3509528e-038
-25.004038 365.3175 -1.3204271 2.3509528e-038
-19.947065 366.89618 -1.3261331 2.3509886e-038
-14.966486 371.47354 -1.3426778 2.3509886e-038
-9.6945581 369.85358 -1.3368226 2.3509886e-038
-4.4024453 362.81119 -1.3113681 2.3509886e-038
0.6925984 356.39191 -1.2881658 2.3509886e-038
5.6929884 355.34576 -1.2843845 9.1476764e-041
9.8208561 358.23251 -1.2948188 9.1476764e-041
25.088459 350.19733 -1.2657757 2.3418409e-038
25.304432 349.84018 -1.264485 2.3418409e-038
29.741098 344.18973 -1.2440615 2.3418409e-038
34.256104 340.90231 -1.2321793 2.3418409e-038
38.82457 338.88922 -1.2249029 2.3418409e-038
41.086452 338.9808 -1.225234 2.3418409e-038
-34.793983 376.70032 -6.6646008 2.3509528e-038
-30.659382 371.52841 -6.5730991 2.3509528e-038
-25.070335 366.28613 -6.4803524 2.3509528e-038
-19.83897 364.90796 -6.4559693 2.3509886e-038
-14.745398 365.98605 -6.4750433 2.3509886e-038
-9.5677633 365.0163 -6.4578862 2.3509886e-038
-4.3835292 361.25226 -6.391293 2.3509886e-038
0.69411534 357.17249 -6.3191137 2.3509886e-038
5.7000976 355.78949 -6.2946453 2.3509886e-038
10.74919 357.13333 -6.3184204 2.3509886e-038
11.314302 357.29675 -6.3213124 2.3509886e-038
21.090906 352.84839 -6.2426109 2.3418409e-038
25.192068 348.28677 -6.1619072 2.3418409e-038
29.760508 344.41437 -6.0933957 2.3418409e-038
34.403473 342.36884 -6.0572066 2.3418409e-038
39.159504 341.81277 -6.0473685 2.3418409e-038
39.709904 341.88309 -6.0486126 2.3418409e-038
-70.780067 314.4599 -9.9902878 2.3509886e-038
-70.185753 314.31378 -9.9856462 2.3509886e-038
-66.137314 316.11261 -10.042795 2.3509886e-038
-62.944927 322.55774 -10.247555 2.3509886e-038
-59.853115 330.56049 -10.501799 2.3509886e-038
-57.219315 336.38577 -10.686867 2.3509886e-038
-33.785519 374.43781 -11.895767 2.3509528e-038
-30.655302 371.479 -11.801767 2.3509528e-038
-25.092518 366.61023 -11.647087 2.3509528e-038
-19.806147 364.30423 -11.573826 2.3509886e-038
-14.644783 363.48877 -11.547919 2.3509886e-038
-9.5000467 362.4328 -11.514372 2.3509886e-038
-4.3735523 360.43005 -11.450747 2.3509886e-038
0.6957323 358.00455 -11.373688 2.3509886e-038
5.7076659 356.26187 -11.318324 2.3509886e-038
10.699211 355.47281 -11.293255 2.3509886e-038
15.633274 353.88489 -11.242807 2.3509886e-038
20.428865 350.68738 -11.141224 2.3418409e-038
25.11001 347.15228 -11.028915 2.3418409e-038
29.786364 344.71356 -10.951438 2.3418409e-038
34.570423 344.03024 -10.929728 2.3418409e-038
38.453033 345.29013 -10.969755 2.3418409e-038
-72.013138 317.69608 -14.565506 2.3509886e-038
-70.873611 317.3942 -14.551665 2.3509886e-038
-66.888214 319.7016 -14.657454 2.3509886e-038
-63.762775 326.74875 -14.980547 2.3509886e-038
-60.570675 334.52347 -15.336997 2.3509886e-038
-56.874668 340.59143 -15.615196 2.3509886e-038
-52.82737 345.4794 -15.839297 2.3509528e-038
-48.705544 350.82181 -16.084232 2.3509528e-038
-44.730774 358.54871 -16.438488 2.3509528e-038
-44.444572 359.19376 -16.468063 2.3509528e-038
-35.97123 370.66058 -16.993786 2.3509528e-038
-35.809464 370.6987 -16.995533 2.3509528e-038
-30.46534 369.17703 -16.92577 2.3509528e-038
-25.071583 366.30438 -16.794065 2.3509528e-038
-19.829102 364.72641 -16.72172 2.3509886e-038
-14.649054 363.59476 -16.669838 2.3509886e-038
-9.4987841 362.38467 -16.614357 2.3509886e-038
-4.378665 360.85138 -16.544062 2.3509886e-038
0.69754982 358.93979 -16.456419 2.3509886e-038
5.7163553 356.80429 -16.358511 2.3509886e-038
10.677727 354.75903 -16.264742 2.3509886e-038
15.565663 352.3544 -16.154497 2.3509886e-038
20.353014 349.38528 -16.018372 2.3418409e-038
25.064501 346.5231 -15.887147 2.3418409e-038
29.804951 344.92868 -15.814047 2.3418409e-038
34.691608 345.23624 -15.828148 2.3418409e-038
37.37355 347.05106 -15.911352 2.3418409e-038
-67.935188 327.43927 -19.621773 2.3509886e-038
-65.205605 334.14246 -20.02346 2.3509886e-038
-61.840076 341.53421 -20.46641 2.3509528e-038
-57.84322 346.39157 -20.757486 2.3509528e-038
-53.424965 349.38751 -20.937019 2.3509528e-038
-48.978279 352.78632 -21.140692 2.3509528e-038
-44.664997 358.02142 -21.454405 2.3509528e-038
-40.24559 363.62918 -21.790451 2.3509528e-038
-35.417923 366.64545 -21.971199 2.3509528e-038
-30.26412 366.73868 -21.976786 2.3509528e-038
-25.053001 366.03287 -21.93449 2.3509528e-038
-19.875084 365.57217 -21.906885 2.3509886e-038
-14.6933 364.69299 -21.854198 2.3509886e-038
-9.526165 363.42929 -21.778469 2.3509886e-038
-4.3905201 361.82843 -21.682539 2.3509886e-038
0.69925517 359.81729 -21.562023 2.3509886e-038
5.7256765 357.38608 -21.416332 2.3509886e-038
10.679897 354.83112 -21.263227 2.3509886e-038
15.552001 352.0451 -21.096275 2.3509886e-038
20.328436 348.96338 -20.911602 2.3418409e-038
25.037525 346.15015 -20.743019 2.3418409e-038
29.810852 344.99695 -20.673916 2.3418409e-038
34.775307 346.06915 -20.738165 2.3418409e-038
36.58242 347.68503 -20.834997 2.3418409e-038
-62.400101 348.77304 -25.810064 2.3509528e-038
-59.029663 353.49655 -26.159616 2.3509528e-038
-54.381218 355.6412 -26.318327 2.3509528e-038
-49.571594 357.05991 -26.423313 2.3509528e-038
-44.89658 359.87775 -26.63184 2.3509528e-038
-40.21516 363.35428 -26.889112 2.3509528e-038
-35.297604 365.3999 -27.040495 2.3509528e-038
-30.215271 366.14673 -27.095758 2.3509528e-038
-25.084846 366.49811 -27.121763 2.3509528e-038
-19.927856 366.54288 -27.125078 2.3509886e-038
-14.734287 365.7103 -27.063463 2.3509886e-038
-9.5492468 364.30984 -26.959827 2.3509886e-038
-4.3993621 362.5571 -26.830118 2.3509886e-038
0.70045722 360.43585 -26.673141 2.3509886e-038
5.7341647 357.91589 -26.48666 2.3509886e-038
10.691905 355.2301 -26.287905 2.3509886e-038
15.56102 352.2493 -26.067316 2.3509886e-038
20.3253 348.90952 -25.820166 2.3418409e-038
25.019878 345.90619 -25.597912 2.3418409e-038
29.816364 345.06076 -25.535349 2.3418409e-038
34.869148 347.00305 -25.679081 2.3418409e-038
36.189976 348.41763 -25.783764 2.3418409e-038
-56.705315 359.19443 -31.637877 2.3509528e-038
-55.125259 360.50708 -31.753496 2.3509528e-038
-50.334145 362.55246 -31.933655 2.3509528e-038
-45.40823 363.97897 -32.059303 2.3509528e-038
-40.451138 365.48642 -32.192078 2.3509886e-038
-35.409538 366.55869 -32.286522 2.3509528e-038
-30.292841 367.0867 -32.333031 2.3509886e-038
-25.144608 367.37125 -32.358093 2.3509886e-038
-19.966084 367.246 -32.347061 2.3509886e-038
-14.755855 366.24561 -32.258945 2.3509886e-038
-9.5595217 364.70184 -32.122974 2.3509886e-038
-4.4026985 362.83203 -31.958279 2.3509886e-038
0.70087689 360.65179 -31.766243 2.3509886e-038
5.7379794 358.15399 -31.546238 2.3509886e-038
10.699627 355.48663 -31.311296 2.3509886e-038
15.570533 352.46463 -31.045116 2.3509886e-038
20.331005 349.00748 -30.740612 2.3509886e-038
25.019573 345.90198 -30.467077 2.3418409e-038
29.835888 345.28668 -30.412884 2.3418409e-038
34.968269 347.98944 -30.650942 2.3509886e-038
36.136017 349.42313 -30.777224 2.3509886e-038
-51.611843 362.26337 -37.007999 2.3509528e-038
-50.566978 364.22955 -37.208858 2.3509528e-038
-45.938889 368.23254 -37.617794 2.3509886e-038
-40.749443 368.18164 -37.612595 2.3509886e-038
-35.560661 368.12308 -37.606613 2.3509886e-038
-30.370592 368.02887 -37.596989 2.3509886e-038
-25.177761 367.85568 -37.579296 2.3509886e-038
-19.973089 367.37488 -37.530178 2.3509886e-038
-14.75329 366.18198 -37.40831 2.3509886e-038
-9.5558863 364.56317 -37.242939 2.3509886e-038
-4.4004707 362.64847 -37.047337 2.3509886e-038
0.7004506 360.43243 -36.820957 2.3509886e-038
5.7349563 357.96533 -36.568916 2.3509886e-038
10.697901 355.42926 -36.309841 2.3509886e-038
15.575047 352.5668 -36.017418 2.3509886e-038
20.342373 349.20261 -35.673737 2.3509886e-038
25.033897 346.10001 -35.356785 2.3509886e-038
29.854664 345.50403 -35.295898 2.3509886e-038
35.010921 348.41394 -35.59317 2.3509886e-038
36.162067 349.87781 -35.742714 2.3509886e-038
-72.822266 310.37759 -36.076843 2.3509886e-038
-69.332825 310.49411 -36.090385 2.3509886e-038
-65.304138 312.13031 -36.280567 2.3509886e-038
-61.68203 316.08609 -36.740372 2.3509886e-038
-58.377403 322.41034 -37.475475 2.3509886e-038
-56.391273 327.8273 -38.105114 2.3509886e-038
-48.925568 363.94882 -42.303711 2.3509886e-038
-46.001774 368.73663 -42.860226 2.3509886e-038
-40.842041 369.01831 -42.892967 2.3509886e-038
-35.593437 368.46237 -42.828346 2.3509886e-038
-30.363487 367.94281 -42.767952 2.3509886e-038
-25.149063 367.43634 -42.709087 2.3509886e-038
-19.936756 366.70654 -42.624256 2.3509886e-038
-14.724035 365.45584 -42.478882 2.3509886e-038
-9.5402031 363.96481 -42.305569 2.3509886e-038
-4.3945799 362.16296 -42.096134 2.3509886e-038
0.69947404 359.92993 -41.836575 2.3509886e-038
5.7264647 357.43524 -41.546604 2.3509886e-038
10.687737 355.09164 -41.274193 2.3509886e-038
15.572989 352.52023 -40.975307 2.3509886e-038
20.349285 349.32129 -40.603474 2.3509886e-038
25.036543 346.1366 -40.233303 2.3509886e-038
29.826654 345.17987 -40.122097 2.3509886e-038
34.91729 347.48215 -40.389702 2.3509886e-038
36.051529 348.77927 -40.54047 2.3509886e-038
-71.617599 308.80142 -40.240826 2.3509886e-038
-68.959305 308.82135 -40.24342 2.3509886e-038
-64.931793 310.35065 -40.442707 2.3509886e-038
-61.264988 313.94897 -40.911617 2.3509886e-038
-57.748028 318.93439 -41.561279 2.3509886e-038
-54.342453 325.42737 -42.407402 2.3509886e-038
-51.32074 335.62637 -43.736462 2.3509886e-038
-48.844574 351.82321 -45.847122 2.3509886e-038
-45.352486 363.53214 -47.372944 2.3509886e-038
-40.578655 366.63855 -47.777748 2.3509886e-038
-35.447716 366.95389 -47.818844 2.3509886e-038
-30.250933 366.57889 -47.769974 2.3509886e-038
-25.052704 366.0285 -47.698257 2.3509886e-038
-19.857128 365.24194 -47.595753 2.3509886e-038
-14.671773 364.15866 -47.45459 2.3509886e-038
-9.5166245 363.06531 -47.312111 2.3509886e-038
-4.3874488 361.57532 -47.117947 2.3509886e-038
0.69838506 359.36957 -46.830509 2.3509886e-038
5.7159166 356.77689 -46.492649 2.3509886e-038
10.67189 354.56512 -46.204426 2.3509886e-038
15.559345 352.2114 -45.897705 2.3509886e-038
20.333687 349.05353 -45.486198 2.3509886e-038
24.999342 345.62228 -45.039059 2.3509886e-038
29.729889 344.06 -44.835476 2.3509886e-038
34.697239 345.29227 -44.996052 2.3509886e-038
35.845848 346.34033 -45.132629 2.3509886e-038
-67.729027 310.70435 -44.862759 2.3509886e-038
-65.20192 311.64175 -44.998108 2.3509886e-038
-61.412029 314.70248 -45.440052 2.3509886e-038
-57.701347 318.67661 -46.013878 2.3509886e-038
-54.043976 323.63995 -46.730537 2.3509886e-038
-50.694229 331.52914 -47.869659 2.3509886e-038
-47.845245 344.62515 -49.760597 2.3509886e-038
-44.435154 356.17908 -51.428879 2.3509886e-038
-40.048794 361.8511 -52.247864 2.3509886e-038
-35.123772 363.60043 -52.500454 2.3509886e-038
-30.030582 363.90869 -52.54496 2.3509886e-038
-24.897514 363.76117 -52.523659 2.3509886e-038
-19.752764 363.3223 -52.460289 2.3509886e-038
-14.612187 362.67975 -52.367512 2.3509886e-038
-9.4903975 362.06473 -52.278709 2.3509886e-038
-4.3796458 360.93222 -52.115189 2.3509886e-038
0.69734824 358.83606 -51.812523 2.3509886e-038
5.7058682 356.14969 -51.424637 2.3509886e-038
10.652236 353.91208 -51.101547 2.3509886e-038
15.527843 351.49829 -50.753017 2.3509886e-038
20.283419 348.19058 -50.275414 2.3509886e-038
24.928068 344.6369 -49.762295 2.3509886e-038
29.627003 342.86932 -49.507072 2.3509886e-038
34.536591 343.69354 -49.626087 2.3509886e-038
35.918495 344.84012 -49.791637 2.3509886e-038
-63.985424 317.53094 -50.318531 2.3509886e-038
-62.101841 318.2374 -50.430485 2.3509886e-038
-58.060623 320.6608 -50.814518 2.3509886e-038
-54.105381 324.00769 -51.344891 2.3509886e-038
-50.424656 329.76617 -52.257431 2.3509886e-038
-47.059139 338.96289 -53.714813 2.3509886e-038
-43.473808 348.47324 -55.221901 2.3509886e-038
-39.309544 355.17181 -56.283409 2.3509886e-038
-34.63195 358.50906 -56.81226 2.3509886e-038
-29.717302 360.11237 -57.066334 2.3509886e-038
-24.698393 360.85193 -57.183525 2.3509886e-038
-19.631958 361.10025 -57.222881 2.3509886e-038
-14.549188 361.11606 -57.225384 2.3509886e-038
-9.4604588 360.92252 -57.194714 2.3509886e-038
-4.3692598 360.07629 -57.060619 2.3509886e-038
0.69616377 358.22656 -56.767494 2.3509886e-038
5.6980944 355.66443 -56.361477 2.3509886e-038
10.635417 353.35333 -55.995239 2.3509886e-038
15.490415 350.65103 -55.567013 2.3509886e-038
20.218327 347.07321 -55.000042 2.3509886e-038
24.853165 343.60132 -54.449856 2.3509886e-038
29.57222 342.23532 -54.233391 2.3509886e-038
34.565571 343.98199 -54.510181 2.3509886e-038
36.563915 346.06683 -54.840561 2.3509886e-038
-60.445576 324.88425 -56.057392 2.3509886e-038
-58.823532 324.87424 -56.055668 2.3509886e-038
-54.445023 326.0416 -56.257092 2.3509886e-038
-50.350891 329.28375 -56.816509 2.3509886e-038
-46.496773 334.9122 -57.787674 2.3509886e-038
-42.621376 341.64035 -58.948593 2.3509886e-038
-38.478802 347.66583 -59.988262 2.3509886e-038
-33.996311 351.92899 -60.72385 2.3509886e-038
-29.282084 354.83844 -61.225861 2.3509886e-038
-24.415724 356.72202 -61.550865 2.3509886e-038
-19.461983 357.97382 -61.766861 2.3509886e-038
-14.461342 358.9357 -61.932831 2.3509886e-038
-9.4186134 359.32608 -62.000191 2.3509886e-038
-4.3545494 358.86401 -61.920456 2.3509886e-038
0.69461173 357.42792 -61.672668 2.3509886e-038
5.6910849 355.22693 -61.292896 2.3509886e-038
10.620449 352.85602 -60.883804 2.3509886e-038
15.45353 349.81607 -60.359276 2.3509886e-038
20.158648 346.04874 -59.70924 2.3509886e-038
24.798273 342.84244 -59.156006 2.3509886e-038
29.565514 342.15768 -59.037853 2.3509886e-038
34.702278 345.34244 -59.587368 2.3509886e-038
37.626465 349.18173 -60.249825 2.3509886e-038
-57.158089 329.80692 -61.549683 2.3509886e-038
-55.001907 329.3765 -61.469353 2.3509886e-038
-50.495468 330.22925 -61.628498 2.3509886e-038
-46.229694 332.98846 -62.143433 2.3509886e-038
-42.024136 336.85306 -62.864655 2.3509886e-038
-37.739075 340.98224 -63.635254 2.3509886e-038
-33.3036 344.75803 -64.339905 2.3509886e-038
-28.723324 348.06741 -64.957512 2.3509886e-038
-24.01285 350.83591 -65.474182 2.3509886e-038
-19.204735 353.24216 -65.923241 2.3509886e-038
-14.320747 355.44608 -66.334549 2.3509886e-038
-9.3549843 356.89862 -66.605629 2.3509886e-038
-4.3345337 357.21448 -66.664574 2.3509886e-038
0.6925506 356.36731 -66.506477 2.3509886e-038
5.6811414 354.60626 -66.177826 2.3509886e-038
10.600176 352.18243 -65.725479 2.3509886e-038
15.415152 348.94733 -65.121727 2.3509886e-038
20.112877 345.26303 -64.434158 2.3509886e-038
24.769474 342.44427 -63.908108 2.3509886e-038
29.575466 342.27289 -63.876122 2.3509886e-038
34.782963 346.14536 -64.598816 2.3509886e-038
38.514172 351.29883 -65.560577 2.3509886e-038
-54.163361 333.30731 -66.895111 2.3509886e-038
-50.890873 332.81516 -66.796333 2.3509886e-038
-46.279163 333.34479 -66.902634 2.3509886e-038
-41.737762 334.55756 -67.146042 2.3509886e-038
-37.237087 336.44662 -67.525169 2.3509886e-038
-32.734879 338.87064 -68.011681 2.3509886e-038
-28.187258 341.57138 -68.553719 2.3509886e-038
-23.572363 344.40024 -69.121475 2.3509886e-038
-18.890209 347.45694 -69.734955 2.3509886e-038
-14.131599 350.75137 -70.396149 2.3509886e-038
-9.2672749 353.55246 -70.958328 2.3509886e-038
-4.3080916 355.03537 -71.255951 2.3509886e-038
0.6898309 354.96783 -71.242401 2.3509886e-038
5.6660671 353.66537 -70.980995 2.3509886e-038
10.572993 351.27933 -70.502113 2.3509886e-038
15.37796 348.10544 -69.865105 2.3509886e-038
20.083328 344.7558 -69.192833 2.3509886e-038
24.760872 342.32535 -68.705048 2.3509886e-038
29.592482 342.46982 -68.734032 2.3509886e-038
34.815983 346.47397 -69.537666 2.3509886e-038
38.800507 351.86823 -70.6203 2.3509886e-038
-51.32814 338.62952 -72.730354 2.3509886e-038
-46.722252 336.53632 -72.280777 2.3509886e-038
-41.774452 334.85168 -71.918961 2.3509886e-038
-37.011417 334.40765 -71.823593 2.3509886e-038
-32.38464 335.24503 -72.003433 2.3509886e-038
-27.806383 336.95596 -72.370911 2.3509886e-038
-23.224337 339.31546 -72.877686 2.3509886e-038
-18.612406 342.34714 -73.528816 2.3509886e-038
-13.940738 346.0141 -74.316406 2.3509886e-038
-9.166029 349.68985 -75.105873 2.3509886e-038
-4.2746978 352.28336 -75.662903 2.3509886e-038
0.68635136 353.17737 -75.854919 2.3509886e-038
5.6466708 352.45468 -75.699699 2.3509886e-038
10.544158 350.32129 -75.241501 2.3509886e-038
15.347366 347.41287 -74.616837 2.3509886e-038
20.065903 344.45667 -73.981903 2.3509886e-038
24.762115 342.34256 -73.527832 2.3509886e-038
29.607758 342.64661 -73.59314 2.3509886e-038
34.824852 346.56223 -74.434128 2.3509886e-038
38.517563 351.51874 -75.498688 2.3509886e-038
-47.780548 342.07431 -78.285812 2.3509886e-038
-47.444794 341.74072 -78.209473 2.3509886e-038
-42.09885 337.45197 -77.227959 2.3509886e-038
-37.071609 334.95148 -76.655716 2.3509886e-038
-32.273891 334.09851 -76.460503 2.3509886e-038
-27.618448 334.67859 -76.593254 2.3509886e-038
-23.020247 336.33362 -76.972023 2.3509886e-038
-18.423044 338.86414 -77.551147 2.3509886e-038
-13.787505 342.21082 -78.317055 2.3509886e-038
-9.070097 346.02997 -79.191086 2.3509886e-038
-4.2387233 349.31866 -79.943726 2.3509886e-038
0.68236226 351.12466 -80.357048 2.3509886e-038
5.6242738 351.05673 -80.341499 2.3509886e-038
10.515618 349.37311 -79.956192 2.3509886e-038
15.323745 346.87817 -79.385208 2.3509886e-038
20.059496 344.34671 -78.805862 2.3509886e-038
24.779453 342.58224 -78.402054 2.3509886e-038
29.649027 343.12418 -78.526077 2.3509886e-038
34.895489 347.26517 -79.47377 2.3509886e-038
38.249378 351.95404 -80.546852 2.3509886e-038
-43.633739 344.01736 -83.573441 2.3509886e-038
-42.820801 343.23889 -83.384331 2.3509886e-038
-37.505444 338.87131 -82.323288 2.3509886e-038
-32.420074 335.61179 -81.531441 2.3509886e-038
-27.599293 334.44647 -81.248352 2.3509886e-038
-22.937021 335.11771 -81.411415 2.3509886e-038
-18.321037 336.98785 -81.865738 2.3509886e-038
-13.689387 339.77551 -82.542953 2.3509886e-038
-8.9989691 343.31638 -83.403145 2.3509886e-038
-4.2085719 346.8338 -84.257645 2.3509886e-038
0.67866963 349.22455 -84.83844 2.3509886e-038
5.6024599 349.69513 -84.952766 2.3509886e-038
10.488958 348.4873 -84.659348 2.3509886e-038
15.305792 346.4718 -84.169708 2.3509886e-038
20.065342 344.44702 -83.677818 2.3509886e-038
24.824234 343.20132 -83.375198 2.3509886e-038
29.753977 344.33878 -83.651527 2.3509886e-038
35.115852 349.45816 -84.895195 2.3509886e-038
39.379776 356.22897 -86.540062 2.3509886e-038
-39.844769 349.73914 -89.886948 2.3509886e-038
-38.506973 347.92035 -89.41951 2.3509886e-038
-32.884422 340.41873 -87.491501 2.3509886e-038
-27.75631 336.34918 -86.44558 2.3509886e-038
-22.976007 335.68729 -86.275467 2.3509886e-038
-18.316174 336.89841 -86.586739 2.3509886e-038
-13.658568 339.01056 -87.129585 2.3509886e-038
-8.9650106 342.02087 -87.903267 2.3509886e-038
-4.191812 345.45261 -88.785263 2.3509886e-038
0.67655373 348.1358 -89.474869 2.3509886e-038
5.5902939 348.93576 -89.680473 2.3509886e-038
10.47619 348.06311 -89.456192 2.3509886e-038
15.302376 346.39444 -89.027328 2.3509886e-038
20.084105 344.76917 -88.609604 2.3509886e-038
24.887575 344.07706 -88.431732 2.3509886e-038
29.904079 346.07587 -88.94545 2.3509886e-038
35.427727 352.5618 -90.612404 2.3509886e-038
41.621281 363.30093 -93.37249 2.3509886e-038
43.260635 366.37308 -94.162071 2.3509886e-038
-35.218319 350.89063 -95.122604 2.3509886e-038
-33.592968 347.75357 -94.272186 2.3509886e-038
-28.111656 340.65524 -92.347908 2.3509886e-038
-23.181711 338.69266 -91.815872 2.3509886e-038
-18.427843 338.95239 -91.886284 2.3509886e-038
-13.703173 340.11768 -92.202171 2.3509886e-038
-8.9766006 342.46304 -92.837982 2.3509886e-038
-4.1936221 345.60181 -93.688858 2.3509886e-038
0.67676729 348.24564 -94.405586 2.3509886e-038
5.5933948 349.12933 -94.645134 2.3509886e-038
10.489713 348.51239 -94.47789 2.3509886e-038
15.335624 347.14706 -94.107773 2.3509886e-038
20.144049 345.79813 -93.742088 2.3509886e-038
24.986605 345.44617 -93.646675 2.3509886e-038
30.064438 347.93167 -94.320465 2.3509886e-038
35.663414 354.90726 -96.211464 2.3509886e-038
41.85313 365.32471 -99.035522 2.3509886e-038
48.358932 375.91922 -101.90758 2.3509886e-038
49.387871 377.49191 -102.33392 2.3509886e-038
-29.045298 348.10483 -99.267868 2.3509886e-038
-28.700277 347.78812 -99.177551 2.3509886e-038
-23.612814 344.99124 -98.379974 2.3509886e-038
-18.69158 343.80347 -98.04126 2.3509886e-038
-13.842324 343.57144 -97.975098 2.3509886e-038
-9.0401659 344.88809 -98.350563 2.3509886e-038
-4.2141614 347.29446 -99.036774 2.3509886e-038
0.67920738 349.50128 -99.666092 2.3509886e-038
5.6137071 350.39713 -99.921555 2.3509886e-038
10.539886 350.17938 -99.859459 2.3509886e-038
15.428722 349.25452 -99.595718 2.3509886e-038
20.2831 348.18512 -99.290764 2.3509886e-038
25.170671 347.99094 -99.235382 2.3509886e-038
30.277138 350.39325 -99.920441 2.3509886e-038
35.830849 356.57346 -101.68284 2.3509886e-038
41.900074 365.73444 -104.29524 2.3509886e-038
48.308163 375.52457 -107.08707 2.3509886e-038
54.910168 384.74207 -109.71558 2.3509886e-038
55.37841 385.36102 -109.89208 2.3509886e-038
-22.376339 354.51349 -106.08611 2.3509886e-038
-19.169037 352.58551 -105.50917 2.3509886e-038
-14.108647 350.1817 -104.78984 2.3509886e-038
-9.1609297 349.4953 -104.58444 2.3509886e-038
-4.2508135 350.31497 -104.82972 2.3509886e-038
0.6834982 351.70923 -105.24694 2.3509886e-038
5.6519914 352.78677 -105.56939 2.3509886e-038
10.631803 353.23322 -105.70299 2.3509886e-038
15.590377 352.91382 -105.60741 2.3509886e-038
20.517389 352.20697 -105.39589 2.3509886e-038
25.472706 352.16666 -105.38383 2.3509886e-038
30.603321 354.16812 -105.98275 2.3509886e-038
36.060951 358.86334 -107.38777 2.3509886e-038
41.935528 366.04391 -109.53652 2.3509886e-038
48.21978 374.83755 -112.16796 2.3509886e-038
54.807274 384.02112 -114.91608 2.3509886e-038
60.828716 391.23627 -117.07518 2.3509886e-038
-16.980253 363.07843 -113.76041 2.3509886e-038
-14.519999 360.3916 -112.91855 2.3509886e-038
-9.3386126 356.27402 -111.62842 2.3509886e-038
-4.3042178 354.71613 -111.1403 2.3509886e-038
0.69018018 355.14758 -111.27549 2.3509886e-038
5.7110615 356.47385 -111.69103 2.3509886e-038
10.760518 357.50967 -112.01558 2.3509886e-038
15.800103 357.66135 -112.0631 2.3509886e-038
20.810402 357.23691 -111.93012 2.3509886e-038
25.83773 357.2132 -111.9227 2.3509886e-038
30.973263 358.4494 -112.31002 2.3509886e-038
36.312935 361.37097 -113.22542 2.3509886e-038
41.977962 366.41434 -114.80561 2.3509886e-038
48.088085 373.81381 -117.12403 2.3509886e-038
54.579529 382.42535 -119.82222 2.3509886e-038
61.150711 389.99927 -122.19528 2.3509886e-038
64.900658 393.36139 -123.24871 2.3509886e-038
-9.9615688 364.73444 -119.41386 2.3509886e-038
-9.5488691 364.29544 -119.27014 2.3509886e-038
-4.3793383 360.90686 -118.16072 2.3509886e-038
0.70091486 360.67136 -118.0836 2.3509886e-038
5.7956495 361.75366 -118.43796 2.3509886e-038
10.912249 362.55081 -118.69894 2.3509886e-038
16.01692 362.56937 -118.70501 2.3509886e-038
21.098236 362.17798 -118.57687 2.3509886e-038
26.185993 362.02805 -118.52779 2.3509886e-038
31.317476 362.43292 -118.66035 2.3509886e-038
36.562202 363.85159 -119.12482 2.3509886e-038
42.056992 367.10419 -120.18971 2.3509886e-038
47.958355 372.80533 -122.05626 2.3509886e-038
54.236179 380.01959 -124.41821 2.3509886e-038
60.666672 386.91223 -126.67486 2.3509886e-038
66.260918 391.69775 -128.24164 2.3509886e-038
0.079937302 369.05527 -126.02389 2.3509886e-038
0.71714395 369.02237 -126.01265 2.3509886e-038
5.9100428 368.89386 -125.96877 2.3509886e-038
11.091714 368.5134 -125.83886 2.3509886e-038
16.247843 367.79666 -125.59411 2.3509886e-038
21.381647 367.04309 -125.33677 2.3509886e-038
26.511471 366.52786 -125.16083 2.3509886e-038
31.647705 366.25464 -125.06754 2.3509886e-038
36.850304 366.71866 -125.22599 2.3509886e-038
42.240009 368.70166 -125.90314 2.3509886e-038
47.938286 372.64935 -127.25117 2.3509886e-038
53.935394 377.91205 -129.04828 2.3509886e-038
60.133099 383.50928 -130.95959 2.3509886e-038
65.236732 387.78531 -132.41977 2.3509886e-038
10.303138 376.33362 -133.80716 2.3509886e-038
11.314963 375.93069 -133.66389 2.3509886e-038
16.526947 374.11462 -133.01817 2.3509886e-038
21.700901 372.5235 -132.45244 2.3509886e-038
26.860323 371.3508 -132.03549 2.3509886e-038
32.018768 370.54889 -131.75038 2.3509886e-038
37.225567 370.45313 -131.71631 2.3509886e-038
42.565086 371.53915 -132.10246 2.3509886e-038
48.108589 373.97321 -132.9679 2.3509886e-038
53.842609 377.26193 -134.13722 2.3509886e-038
59.736973 380.98291 -135.46022 2.3509886e-038
62.464024 382.81357 -136.11113 2.3509886e-038
21.059643 378.7576 -140.00101 2.3509886e-038
22.034092 378.24313 -139.81087 2.3509886e-038
27.220341 376.32816 -139.10301 2.3509886e-038
32.411625 375.09537 -138.64735 2.3509886e-038
37.632278 374.50058 -138.42747 2.3509886e-038
42.942223 374.83109 -138.54965 2.3509886e-038
48.378544 376.07166 -139.00821 2.3509886e-038
53.914726 377.76724 -139.63495 2.3509886e-038
57.986835 379.27643 -140.19279 2.3509886e-038
35.795242 378.58798 -145.26794 2.3509886e-038
37.996014 378.12027 -145.08849 2.3509886e-038
43.281414 377.79178 -144.96245 2.3509886e-038
47.657936 378.1897 -145.11513 2.3509886e-038
-70.145615 314.134 -9.5797577 2.3509886e-038
-71.170296 318.72284 -15.88016 2.3509886e-038
-69.719727 312.22675 -33.881107 2.3509886e-038
-69.06459 309.29285 -43.177132 2.3509886e-038
-66.011383 315.51068 -8.6202278 2.3509886e-038
-68.233658 326.13239 -19.258436 2.3509886e-038
-65.811356 314.55463 -33.695328 2.3509886e-038
-65.702599 314.03482 -47.699879 2.3509886e-038
-62.821621 321.92584 -8.9329443 2.3509886e-038
-65.867256 337.53302 -22.200331 2.3509886e-038
-62.118069 318.32056 -34.732033 2.3509886e-038
-62.560169 320.58609 -52.589153 2.3509886e-038
-59.800354 330.2691 -9.8194151 2.3509886e-038
-62.911934 347.45392 -25.275854 2.3509528e-038
-58.675274 324.05542 -36.610043 2.3509886e-038
-59.206795 326.99097 -58.101952 2.3509886e-038
-56.437988 337.97641 -10.941084 2.3509886e-038
-59.35701 355.45682 -28.956381 2.3509528e-038
-55.115837 330.05875 -39.043247 2.3509886e-038
-55.398228 331.74985 -64.605103 2.3509886e-038
-52.661659 344.39569 -12.292334 2.3509886e-038
-55.115673 360.4444 -33.170784 2.3509528e-038
-51.751461 338.44318 -42.188316 2.3509886e-038
-51.670856 337.91605 -72.01783 2.3509886e-038
-48.809505 351.57065 58.898098 2.3418052e-038
-49.948456 359.77438 37.2677 2.3418052e-038
-48.682098 350.65289 -14.130052 2.3509528e-038
-50.447411 363.36835 -38.847595 2.3509886e-038
-49.116764 353.78378 -44.923527 2.3509886e-038
-47.49823 342.12561 -78.62085 2.3509886e-038
-43.508656 348.75256 55.643322 2.3418052e-038
-45.933395 368.18854 25.281351 2.3418052e-038
-44.737385 358.60165 -16.311625 2.3509528e-038
-43.005859 344.72226 -84.521011 2.3509886e-038
-38.995121 352.3309 48.658459 2.3418052e-038
-41.093933 371.29422 9.9202213 2.3509528e-038
-40.473587 365.68924 -17.970043 2.3509528e-038
-38.838623 350.91693 -91.422356 2.3509886e-038
-34.935215 361.64847 38.641689 2.3418052e-038
-36.371094 376.51263 -2.1278348 2.3509528e-038
-35.820732 370.81534 -16.882187 2.3509528e-038
-33.794483 349.83966 -96.045044 2.3509886e-038
-29.832211 361.50482 28.763597 2.3418052e-038
-28.735943 348.22031 -99.537315 2.3509886e-038
-24.681929 360.61139 19.199238 2.3418052e-038
-24.115965 352.34247 -104.09919 2.3509886e-038
-20.045422 368.70532 8.2734823 2.3418052e-038
-19.523914 359.11298 -110.04852 2.3509886e-038
-15.092049 374.59006 1.924924 2.3509886e-038
-14.696599 364.77484 -116.25692 2.3509886e-038
-9.776391 372.97556 5.5445123 2.3509886e-038
-9.5594025 364.69727 -119.63138 2.3509886e-038
-4.37011 360.14639 60.738213 9.1476764e-041
-4.4363041 365.6015 -122.601 2.3509886e-038
0.69259298 356.38913 61.824669 9.1476764e-041
0.71835375 369.64487 -126.54475 2.3509886e-038
5.648037 352.53995 53.758766 9.1476764e-041
5.9925241 374.04221 -130.75664 2.3509886e-038
10.763856 357.62061 -5.1686287 2.3509886e-038
11.339726 376.75345 -134.49261 2.3509886e-038
15.688239 355.12909 -8.9977026 2.3509886e-038
16.71369 378.34189 -137.7771 2.3509886e-038
20.567299 353.06375 -6.7042484 2.3418409e-038
22.065123 378.77582 -140.46692 2.3509886e-038
25.311283 349.93494 -0.93298799 2.3418409e-038
27.406258 378.8985 -142.76794 2.3509886e-038
29.757248 344.37662 6.5654249 2.3418409e-038
32.733601 378.82156 -144.56694 2.3509886e-038
34.637779 344.70053 14.99801 2.3418409e-038
38.022625 378.38513 -145.57129 2.3509886e-038
39.495426 344.74496 26.661709 2.3418409e-038
39.301052 343.04831 -7.5907626 2.3418409e-038
41.480194 362.06946 -91.212776 2.3509886e-038
43.321861 378.14487 -145.69118 2.3509886e-038
44.176804 343.40936 32.227989 2.3418409e-038
43.453785 337.78897 7.6667433 2.3418409e-038
48.366501 375.97809 -101.07377 2.3509886e-038
48.649338 378.1767 -144.82983 2.3509886e-038
48.915203 342.73682 29.911884 2.3418409e-038
48.614647 340.63089 24.815147 2.3418409e-038
54.916565 384.78687 -109.29391 2.3509886e-038
54.000435 378.36777 -142.73433 2.3509886e-038
61.423733 391.74051 -117.86477 2.3509886e-038
59.596283 380.08563 -138.81648 2.3509886e-038
