# .PCD v0.7 - Point Cloud Data file format
VERSION 0.7
FIELDS x y z rgb
SIZE 4 4 4 4
TYPE F F F F
COUNT 1 1 1 1
WIDTH 886
HEIGHT 1
VIEWPOINT 0 0 0 1 0 0 0
POINTS 886
DATA ascii
-63.98402 367.1767 38.044556 2.3418052e-038
-79.849068 332.43362 -48.535709 9.1476764e-041
-21.154324 374.30286 65.22583 3.5733111e-043
15.194906 358.47656 62.467945 2.3509528e-038
62.689899 341.30151 30.541231 2.3418409e-038
-23.490587 375.92438 71.652023 3.5733111e-043
-21.509039 376.23047 71.710373 3.5733111e-043
-19.138361 376.89838 71.837669 3.5733111e-043
-26.729906 374.33359 66.280312 3.5733111e-043
-26.465721 374.28622 66.271927 3.5733111e-043
-21.394949 374.23486 66.262825 3.5733111e-043
-16.404562 375.99469 66.574432 3.5733111e-043
-16.041012 376.23013 66.616119 3.5733111e-043
11.971995 357.9017 63.370846 2.3509528e-038
13.470277 358.151 63.414982 2.3509528e-038
18.389551 359.51773 63.656986 2.3509528e-038
21.53804 360.73523 63.872562 2.3509528e-038
-26.919155 374.33203 61.211552 3.5733111e-043
-26.456537 374.15631 61.182819 3.5733111e-043
-21.342346 373.31473 61.045204 3.5733111e-043
-16.358459 374.93802 61.310642 3.5733111e-043
-14.378943 376.50235 61.566448 3.5733111e-043
11.175466 358.03458 58.546558 2.3509528e-038
13.476289 358.31085 58.591736 2.3509528e-038
18.389206 359.51096 58.787979 2.3509528e-038
22.589458 360.98984 59.029812 2.3509528e-038
-26.694994 374.86215 56.222591 3.5733111e-043
-26.49811 374.74426 56.204906 3.5733111e-043
-21.335686 373.19821 55.973026 3.5733111e-043
-16.366516 375.12268 56.261662 3.5733111e-043
-12.979861 378.71252 56.800076 3.5733111e-043
10.720119 357.86786 53.673752 2.3509528e-038
13.474056 358.2515 53.731285 2.3509528e-038
18.394701 359.61841 53.936298 2.3509528e-038
23.111042 361.54282 54.224926 2.3509528e-038
-26.092028 375.54245 51.239761 3.5733111e-043
-21.352917 373.49963 50.961033 3.5733111e-043
-16.368113 375.1593 51.187481 3.5733111e-043
-11.439528 380.18091 51.872639 3.5733111e-043
-11.386338 380.24222 51.881008 3.5733111e-043
10.231469 356.69034 48.667542 2.3509528e-038
13.442205 357.40463 48.764996 2.3509528e-038
18.383263 359.39478 49.036541 2.3509528e-038
23.429068 362.17062 49.415283 2.3509528e-038
23.476606 362.21783 49.421722 2.3509528e-038
-66.788826 369.72058 45.439369 2.3418052e-038
-66.198448 369.76111 45.444351 2.3418052e-038
-62.502094 370.53592 45.539577 2.3418052e-038
-25.391846 376.83615 46.313889 3.5733111e-043
-21.375147 373.88849 45.951614 3.5733111e-043
-16.31587 373.96185 45.960632 3.5733111e-043
-11.355833 377.39941 46.383114 3.5733111e-043
-9.6426907 378.85486 46.561993 2.3509886e-038
9.628479 354.64572 43.586643 2.3509886e-038
13.37101 355.51163 43.693066 2.3509528e-038
18.316957 358.09851 44.010998 2.3509528e-038
23.394726 361.6398 44.446228 2.3509528e-038
23.809589 362.13071 44.506561 2.3509528e-038
-69.199974 367.92081 40.2365 2.3418052e-038
-65.878792 367.97562 40.242493 2.3418052e-038
-61.145233 369.47934 40.406944 2.3418052e-038
-57.201237 373.00653 40.792686 2.3418052e-038
-24.728397 377.57199 41.291969 3.5733111e-043
-21.380653 373.98477 40.89967 3.5733111e-043
-16.225454 371.8895 40.670525 3.5733111e-043
-11.242808 373.64316 40.862309 3.5733111e-043
-7.9594636 375.74103 41.091736 2.3509886e-038
9.005702 352.8765 38.591225 2.3509886e-038
13.292838 353.4332 38.652107 2.3509528e-038
18.217226 356.14874 38.949089 2.3509528e-038
23.287199 359.97763 39.367821 2.3509528e-038
24.115885 361.04819 39.484898 2.3509528e-038
-69.364151 369.241 35.38134 2.3418052e-038
-65.974449 368.50995 35.311291 2.3418052e-038
-61.135448 369.4202 35.39851 2.3418052e-038
-56.735268 373.38062 35.778004 2.3418052e-038
-54.59314 376.81577 36.107166 2.3418052e-038
-24.006214 377.15195 36.139381 3.5733111e-043
-21.372231 373.83746 35.821781 3.5733111e-043
-16.14896 370.13629 35.467129 3.5733111e-043
-11.154296 370.70151 35.521286 3.5733111e-043
-6.3799829 373.3111 35.771343 2.3509886e-038
8.5467796 352.18808 33.747295 2.3509886e-038
13.244206 352.14017 33.742706 2.3509528e-038
18.13312 354.50443 33.969254 2.3509528e-038
23.153225 357.90662 34.295258 2.3509528e-038
24.353138 359.41949 34.440224 2.3509528e-038
58.258656 341.33652 32.707481 2.3418409e-038
59.078701 341.47339 32.7206 2.3418409e-038
64.091385 343.55917 32.92046 2.3418409e-038
68.654114 346.63647 33.215332 2.3418409e-038
-68.334801 370.62262 30.495483 2.3418052e-038
-66.162308 369.55927 30.40799 2.3418052e-038
-61.140629 369.45154 30.399124 2.3418052e-038
-56.640511 372.75699 30.671104 2.3418052e-038
-52.427685 378.78494 31.167095 2.3418052e-038
-52.034298 379.4747 31.223848 2.3418052e-038
-23.065807 376.44177 30.974295 3.5733111e-043
-21.391512 374.17474 30.78776 3.5733111e-043
-16.124153 369.56772 30.408686 3.5733111e-043
-11.113262 369.3378 30.389767 3.5733111e-043
-6.146699 371.41031 30.560297 2.3509886e-038
-4.7831607 371.78867 30.591431 2.3509886e-038
8.09727 352.27365 28.985699 2.3509886e-038
8.4715214 351.94571 28.958714 2.3509886e-038
13.222878 351.57309 28.928055 2.3509528e-038
18.086864 353.60016 29.094845 2.3509528e-038
23.065554 356.55139 29.337679 2.3509528e-038
24.474159 358.2374 29.476406 2.3509528e-038
55.096645 340.10068 27.984085 2.3418409e-038
58.86335 340.22867 27.994617 2.3418409e-038
63.896187 342.51282 28.18256 2.3418409e-038
68.096886 345.58176 28.43508 2.3418409e-038
-65.989716 369.99786 25.43428 2.3418052e-038
-61.014603 368.68997 25.344374 2.3418052e-038
-56.318359 370.63687 25.478207 2.3418052e-038
-51.869926 374.75522 25.761309 2.3418052e-038
-48.661419 378.42474 26.013557 2.3418052e-038
-21.696735 375.13522 25.78743 3.5733111e-043
-21.425684 374.77246 25.762495 3.5733111e-043
-16.136593 369.85278 25.424307 3.5733111e-043
-11.106731 369.12079 25.373987 3.5733111e-043
-6.1341238 370.65048 25.479141 3.5733111e-043
-2.9023983 370.94543 25.499416 2.3509886e-038
7.2123213 354.0419 24.33744 2.3509886e-038
8.4881811 352.63782 24.240923 2.3509886e-038
13.232847 351.83817 24.185951 2.3509528e-038
18.08901 353.64209 24.309956 2.3509528e-038
23.05949 356.45764 24.503504 2.3509528e-038
24.523367 358.16647 24.62097 2.3509528e-038
52.544037 338.80194 23.28982 2.3418409e-038
53.993919 338.5813 23.274651 2.3418409e-038
58.679066 339.16351 23.314674 2.3418409e-038
63.705826 341.49237 23.474766 2.3418409e-038
65.960121 342.96863 23.576244 2.3418409e-038
-62.899567 368.14685 20.322302 2.3418052e-038
-60.823231 367.5336 20.28845 2.3418052e-038
-55.928986 368.0744 20.318304 2.3418052e-038
-51.343464 370.95157 20.477127 2.3418052e-038
-46.932644 375.85181 20.747627 2.3418052e-038
-45.053596 378.83765 20.912451 2.3418052e-038
-20.248995 374.34442 20.664417 3.5733111e-043
-16.176304 370.763 20.466719 3.5733111e-043
-11.120357 369.57361 20.40106 3.5733111e-043
-6.1388793 370.93781 20.476368 2.3509886e-038
-1.116953 371.13687 20.487356 2.3509886e-038
0.284657 369.77411 20.41213 2.3509886e-038
5.0010815 360.3739 19.893223 2.3509886e-038
8.5341587 354.54794 19.571621 2.3509886e-038
13.274095 352.93488 19.482576 2.3509528e-038
18.134495 354.53134 19.570705 2.3509528e-038
23.125835 357.48322 19.733652 2.3509528e-038
24.599476 359.13559 19.824865 2.3509528e-038
49.755836 337.84256 18.649458 2.3418409e-038
53.899281 337.98785 18.657476 2.3418409e-038
58.624523 338.84827 18.704973 2.3418409e-038
63.385605 341.15158 18.832121 2.3418409e-038
-60.05563 367.40326 15.306601 2.3418052e-038
-55.787598 367.14389 15.295794 2.3418052e-038
-51.081413 369.05829 15.375551 2.3418052e-038
-46.61171 373.28168 15.551505 2.3418052e-038
-42.309132 380.03351 15.832797 2.3418052e-038
-41.616173 381.34161 15.887294 2.3418052e-038
-18.992983 374.78064 15.613953 3.5733111e-043
-16.246862 372.38022 15.513948 3.5733111e-043
-11.147299 370.46896 15.434323 3.5733111e-043
-6.1482267 371.50259 15.477386 2.3509886e-038
-1.121078 372.50754 15.519252 2.3509886e-038
3.849309 365.54047 15.228993 2.3509886e-038
8.596653 357.14426 14.879194 2.3509886e-038
13.333584 354.51657 14.76972 2.3509528e-038
18.196083 355.73538 14.820498 2.3509528e-038
23.20142 358.65161 14.941992 2.3509528e-038
24.660795 359.97 14.996919 2.3509528e-038
46.520882 338.423 14.099237 2.3418409e-038
49.354103 338.20151 14.090008 2.3418409e-038
54.025173 338.77728 14.113997 2.3418409e-038
58.79237 339.81842 14.157372 2.3418409e-038
60.975269 340.84543 14.200159 2.3418409e-038
-57.733269 369.07867 10.37906 2.3418052e-038
-56.049267 368.86597 10.373079 2.3418052e-038
-51.124203 369.36746 10.387181 2.3418052e-038
-46.416332 371.71701 10.453255 2.3418052e-038
-41.894424 376.30847 10.582374 2.3418052e-038
-38.165981 381.30533 10.722894 2.3418052e-038
-17.918686 375.39502 10.556686 3.5733111e-043
-16.321508 374.09109 10.520018 3.5733111e-043
-11.1725 371.30652 10.441711 2.3509886e-038
-6.1399612 371.00317 10.433181 2.3509886e-038
-1.1175399 371.33194 10.442426 2.3509886e-038
3.8535118 365.93958 10.290785 2.3509886e-038
8.6409187 358.98325 10.095162 2.3509886e-038
13.38615 355.91422 10.008856 2.3509528e-038
18.224117 356.28342 10.019239 2.3509528e-038
23.168314 358.13986 10.071445 2.3509528e-038
24.638832 358.77625 10.08934 2.3509528e-038
43.494591 340.78784 9.5834789 2.3418409e-038
45.019592 340.05029 9.5627375 2.3418409e-038
49.573883 339.70755 9.5530996 2.3418409e-038
54.291134 340.44504 9.5738382 2.3418409e-038
58.941933 341.60007 9.6063194 2.3418409e-038
-55.740353 373.31998 5.4435525 2.3418052e-038
-51.443077 371.6713 5.4195118 2.3418052e-038
-46.35704 371.24216 5.4132547 2.3418052e-038
-41.538433 373.11087 5.4405031 2.3418052e-038
-36.860157 376.93176 5.4962173 2.3418052e-038
-34.613819 378.85315 5.5242338 2.3418052e-038
-17.260654 375.62473 5.477159 2.3509886e-038
-16.36343 375.05197 5.4688072 2.3509886e-038
-11.193882 372.01712 5.4245543 2.3509886e-038
-6.1263146 370.17862 5.3977466 2.3509886e-038
-1.1107882 369.08847 5.3818507 2.3509886e-038
3.845607 365.18893 5.3249893 2.3509886e-038
8.6709566 360.23117 5.2526979 2.3509886e-038
13.431575 357.12198 5.2073617 2.3509886e-038
18.219891 356.20081 5.1939297 2.3509886e-038
23.044729 356.22949 5.1943479 2.3509528e-038
24.755194 356.04031 5.1915898 2.3509528e-038
40.615688 343.20798 5.0044756 2.3418409e-038
40.779793 343.11719 5.0031509 2.3418409e-038
45.225887 341.60849 4.9811521 2.3418409e-038
49.863964 341.69534 4.982419 2.3418409e-038
54.614384 342.47205 4.9937444 2.3418409e-038
57.222008 343.14917 5.0036182 2.3418409e-038
-53.341614 376.65335 0.39224279 2.3509886e-038
-51.956646 375.38177 0.39091861 2.3509886e-038
-46.457855 372.04956 0.38744849 2.3418052e-038
-41.355827 371.47064 0.38684559 2.3418052e-038
-36.477177 373.01541 0.38845429 2.3418052e-038
-31.584721 374.89319 0.3904098 2.3418052e-038
-30.057789 375.34137 0.39087653 2.3418052e-038
-17.858822 375.15021 0.39067745 2.3509886e-038
-16.347313 374.68256 0.39019042 2.3509886e-038
-11.206903 372.44989 0.38786536 2.3509886e-038
-6.1250467 370.10199 0.38542029 2.3509886e-038
-1.1081989 368.22815 0.3834689 2.3509886e-038
3.8462231 365.24744 0.38036481 2.3509886e-038
8.7027664 361.55264 0.37651709 2.3509886e-038
13.476364 358.31284 0.3731432 2.3509886e-038
18.211584 356.03845 0.37077469 2.3509886e-038
22.922215 354.3356 0.36900136 2.3509886e-038
25.954689 352.86148 0.36746621 2.3509886e-038
36.475574 345.2037 0.35949147 2.3418409e-038
40.888187 344.02921 0.35826838 2.3418409e-038
45.479172 343.52167 0.35773984 2.3418409e-038
50.187347 343.91132 0.35814559 2.3418409e-038
55.012905 344.97107 0.3592492 2.3418409e-038
55.657887 345.27844 0.35956934 2.3418409e-038
-50.136295 377.07535 -4.7129326 2.3509886e-038
-46.725792 374.19525 -4.6769352 2.3418052e-038
-41.410995 371.96616 -4.6490746 2.3418052e-038
-36.34296 371.64288 -4.6450343 2.3418052e-038
-31.34387 372.03442 -4.6499276 2.3418052e-038
-26.350721 372.65985 -4.6577449 2.3418052e-038
-21.337141 373.22366 -4.6647916 2.3509886e-038
-16.282114 373.18814 -4.6643481 2.3509886e-038
-11.196246 372.0957 -4.6506939 2.3509886e-038
-6.1287465 370.32553 -4.6285691 2.3509886e-038
-1.1088854 368.45624 -4.6052055 2.3509886e-038
3.8536117 365.94907 -4.5738692 2.3509886e-038
8.7319384 362.76459 -4.5340676 2.3509886e-038
13.514218 359.31931 -4.4910059 2.3509886e-038
18.216442 356.13342 -4.4511867 2.3509886e-038
22.860971 353.38895 -4.4168844 2.3509886e-038
27.430477 350.63544 -4.3824697 2.3509886e-038
31.915642 347.77542 -4.3467231 2.3418409e-038
36.450596 346.1236 -4.3260775 2.3418409e-038
41.059505 345.47067 -4.3179169 2.3418409e-038
45.734905 345.45328 -4.3176999 2.3418409e-038
50.534885 346.29285 -4.3281932 2.3418409e-038
54.078773 347.49936 -4.3432732 2.3418409e-038
-46.63575 378.04489 -9.8437939 2.3509886e-038
-41.739956 374.92099 -9.7624512 2.3509886e-038
-36.453674 372.77509 -9.7065744 2.3418052e-038
-31.318571 371.7341 -9.6794691 2.3509886e-038
-26.274462 371.58139 -9.6754923 2.3509886e-038
-21.259859 371.87189 -9.6830568 2.3509886e-038
-16.233107 372.06494 -9.6880836 2.3509886e-038
-11.181129 371.59329 -9.6758022 2.3509886e-038
-6.1310935 370.46738 -9.6464844 2.3509886e-038
-1.1104163 368.9649 -9.6073627 2.3509886e-038
3.8627508 366.81693 -9.5514317 2.3509886e-038
8.7578268 363.84012 -9.4739199 2.3509886e-038
13.548845 360.23999 -9.3801765 2.3509886e-038
18.240942 356.6124 -9.2857189 2.3509886e-038
22.864473 353.44305 -9.2031937 2.3509886e-038
27.44169 350.77875 -9.1338196 2.3509886e-038
31.992331 348.61108 -9.0773754 2.3418409e-038
36.583183 347.38263 -9.0453882 2.3418409e-038
41.23357 346.93521 -9.0337391 2.3418409e-038
45.965672 347.19638 -9.0405378 2.3418409e-038
50.883305 348.68042 -9.0791807 2.3418409e-038
52.686092 349.67331 -9.1050339 2.3418409e-038
-43.564445 381.12778 -15.084566 2.3509886e-038
-42.300804 379.95871 -15.038298 2.3509886e-038
-36.714512 375.44238 -14.859546 2.3509886e-038
-31.405262 372.76309 -14.753504 2.3509886e-038
-26.288458 371.7793 -14.714565 2.3509886e-038
-21.252899 371.75015 -14.713412 2.3509886e-038
-16.221596 371.80109 -14.715427 2.3509886e-038
-11.173599 371.34305 -14.697299 2.3509886e-038
-6.1298547 370.39249 -14.659678 2.3509886e-038
-1.1110617 369.17938 -14.611663 2.3509886e-038
3.8686354 367.37579 -14.54028 2.3509886e-038
8.7770891 364.64041 -14.432017 2.3509886e-038
13.580919 361.09277 -14.291606 2.3509886e-038
18.282188 357.41873 -14.146193 2.3509886e-038
22.916517 354.24756 -14.020681 2.3509886e-038
27.511835 351.67542 -13.91888 2.3509886e-038
32.083851 349.60837 -13.837068 2.3418409e-038
36.683697 348.3371 -13.786752 2.3418409e-038
41.34586 347.88004 -13.768662 2.3418409e-038
46.106968 348.26364 -13.783845 2.3418409e-038
51.159771 350.57492 -13.875322 2.3418409e-038
51.493504 350.86682 -13.886875 2.3418409e-038
-40.642742 382.44348 -20.314955 2.3509886e-038
-36.980179 378.15912 -20.087372 2.3509886e-038
-31.504843 373.94507 -19.863527 2.3509886e-038
-26.314306 372.14487 -19.767904 2.3509886e-038
-21.25259 371.74472 -19.746649 2.3509886e-038
-16.214842 371.64627 -19.741419 2.3509886e-038
-11.166553 371.10889 -19.712873 2.3509886e-038
-6.1252499 370.11426 -19.66004 2.3509886e-038
-1.1103879 368.95551 -19.598488 2.3509886e-038
3.8687127 367.38309 -19.514963 2.3509886e-038
8.7847843 364.96008 -19.386255 2.3509886e-038
13.603437 361.6915 -19.212633 2.3509886e-038
18.325132 358.25833 -19.030268 2.3509886e-038
22.988026 355.35294 -18.875937 2.3509886e-038
27.604059 352.85428 -18.74321 2.3509886e-038
32.160442 350.44293 -18.615124 2.3509886e-038
36.718891 348.67126 -18.521013 2.3418409e-038
41.355618 347.9621 -18.483345 2.3418409e-038
46.119091 348.35519 -18.504225 2.3418409e-038
50.358425 350.55103 -18.620865 2.3418409e-038
-37.692806 380.46509 -25.361361 2.3509886e-038
-37.141235 379.80603 -25.31743 2.3509886e-038
-31.574913 374.77676 -24.982183 2.3509886e-038
-26.321671 372.24899 -24.813688 2.3509886e-038
-21.229506 371.34097 -24.753157 2.3509886e-038
-16.187952 371.02997 -24.732428 2.3509886e-038
-11.148376 370.50476 -24.697418 2.3509886e-038
-6.1166191 369.59274 -24.636625 2.3509886e-038
-1.1090105 368.4978 -24.563635 2.3509886e-038
3.8657143 367.09839 -24.470354 2.3509886e-038
8.7828674 364.88043 -24.322506 2.3509886e-038
13.606973 361.78549 -24.116201 2.3509886e-038
18.341843 358.58502 -23.902861 2.3509886e-038
23.028065 355.97186 -23.728672 2.3509886e-038
27.659554 353.56366 -23.568144 2.3509886e-038
32.19524 350.82211 -23.385397 2.3509886e-038
36.709229 348.57953 -23.235907 2.3509886e-038
41.325069 347.70511 -23.177618 2.3418409e-038
46.115856 348.33078 -23.219324 2.3418409e-038
49.535069 350.17368 -23.342173 2.3418409e-038
-35.285439 379.48306 -30.434134 2.3509886e-038
-31.667456 375.87521 -30.144787 2.3509886e-038
-26.314116 372.14215 -29.8454 2.3509886e-038
-21.177946 370.43909 -29.708815 2.3509886e-038
-16.134928 369.81464 -29.658735 2.3509886e-038
-11.114517 369.37952 -29.62384 2.3509886e-038
-6.1026249 368.74713 -29.573124 2.3509886e-038
-1.1072139 367.90082 -29.505249 2.3509886e-038
3.8614819 366.69644 -29.408659 2.3509886e-038
8.7753811 364.56943 -29.238075 2.3509886e-038
13.596927 361.51837 -28.993385 2.3509886e-038
18.337057 358.49149 -28.750629 2.3509886e-038
23.036985 356.10977 -28.55962 2.3509886e-038
27.680338 353.82932 -28.37673 2.3509886e-038
32.210518 350.98862 -28.148911 2.3509886e-038
36.696354 348.45724 -27.945894 2.3509886e-038
41.289986 347.40991 -27.861898 2.3509886e-038
46.093899 348.16492 -27.922451 2.3509886e-038
49.235466 349.95609 -28.066101 2.3509886e-038
-33.948803 380.18719 -35.638367 2.3509886e-038
-31.798969 377.43619 -35.380489 2.3509886e-038
-26.294338 371.86246 -34.858013 2.3509886e-038
-21.104141 369.14813 -34.603577 2.3509886e-038
-16.0623 368.14999 -34.51001 2.3509886e-038
-11.06735 367.81198 -34.478325 2.3509886e-038
-6.0829248 367.55682 -34.454407 2.3509886e-038
-1.1048807 367.12558 -34.413982 2.3509886e-038
3.8557944 366.15637 -34.323132 2.3509886e-038
8.7645836 364.12085 -34.13232 2.3509886e-038
13.583695 361.1666 -33.855392 2.3509886e-038
18.328865 358.33133 -33.589615 2.3509886e-038
23.038313 356.13028 -33.383293 2.3509886e-038
27.691639 353.97379 -33.181145 2.3509886e-038
32.226223 351.15976 -32.917362 2.3509886e-038
36.689426 348.39148 -32.657864 2.3509886e-038
41.238045 346.97284 -32.524887 2.3509886e-038
45.998917 347.44748 -32.569378 2.3509886e-038
49.531525 349.50388 -32.762142 2.3509886e-038
-33.752464 380.86697 -40.859055 2.3509886e-038
-31.840488 377.92902 -40.543873 2.3509886e-038
-26.229403 370.94412 -39.794537 2.3509886e-038
-21.010862 367.51651 -39.42683 2.3509886e-038
-15.978489 366.22906 -39.288712 2.3509886e-038
-11.012379 365.98508 -39.262535 2.3509886e-038
-6.0587816 366.09793 -39.274643 2.3509886e-038
-1.1016877 366.06458 -39.271069 2.3509886e-038
3.8469431 365.31583 -39.190742 2.3509886e-038
8.749444 363.49188 -38.995071 2.3509886e-038
13.571989 360.85535 -38.712227 2.3509886e-038
18.326014 358.27557 -38.435471 2.3509886e-038
23.043743 356.21423 -38.214329 2.3509886e-038
27.699467 354.07385 -37.984715 2.3509886e-038
32.223351 351.12845 -37.668736 2.3509886e-038
36.650604 348.02286 -37.335567 2.3509886e-038
41.137951 346.13071 -37.13258 2.3509886e-038
45.834778 346.20767 -37.140839 2.3509886e-038
50.282269 348.75934 -37.414577 2.3509886e-038
-34.417725 378.49017 -45.728859 2.3509886e-038
-31.54707 374.44626 -45.24028 2.3509886e-038
-26.027664 368.09106 -44.47245 2.3509886e-038
-20.870228 365.05655 -44.10582 2.3509886e-038
-15.878472 363.93668 -43.970516 2.3509886e-038
-10.950505 363.92874 -43.969555 2.3509886e-038
-6.0304537 364.38626 -44.024837 2.3509886e-038
-1.0973477 364.62253 -44.053383 2.3509886e-038
3.8340361 364.09015 -43.989059 2.3509886e-038
8.7291479 362.64865 -43.814899 2.3509886e-038
13.560253 360.5433 -43.560535 2.3509886e-038
18.326233 358.27982 -43.28706 2.3509886e-038
23.047562 356.27322 -43.044628 2.3509886e-038
27.692373 353.98318 -42.767944 2.3509886e-038
32.190346 350.7688 -42.379589 2.3509886e-038
36.583626 347.38681 -41.970974 2.3509886e-038
41.035702 345.27036 -41.715271 2.3509886e-038
45.708706 345.2554 -41.713463 2.3509886e-038
50.761616 347.84653 -42.02652 2.3509886e-038
51.139462 348.18884 -42.067879 2.3509886e-038
-85.030319 332.74945 -44.707935 9.1476764e-041
-81.472046 330.20648 -44.366264 9.1476764e-041
-76.274719 327.09186 -43.947781 9.1476764e-041
-71.498741 325.51141 -43.735435 9.1476764e-041
-67.284119 326.4469 -43.86113 9.1476764e-041
-63.610413 330.32291 -44.381908 9.1476764e-041
-60.104771 335.724 -45.107594 9.1476764e-041
-59.561737 336.54706 -45.218178 9.1476764e-041
-36.37233 371.18112 -49.871582 2.3509886e-038
-36.293774 371.13992 -49.866043 2.3509886e-038
-30.93166 367.14169 -49.328846 2.3509886e-038
-25.695347 363.39133 -48.824951 2.3509886e-038
-20.681366 361.75305 -48.604832 2.3509886e-038
-15.763269 361.2962 -48.543453 2.3509886e-038
-10.883663 361.70734 -48.598686 2.3509886e-038
-5.9992685 362.50192 -48.705452 2.3509886e-038
-1.0923487 362.96149 -48.767197 2.3509886e-038
3.8195534 362.71481 -48.734058 2.3509886e-038
8.7072935 361.74075 -48.603176 2.3509886e-038
13.545979 360.16382 -48.391304 2.3509886e-038
18.320684 358.17139 -48.1236 2.3509886e-038
23.038637 356.13531 -47.85004 2.3509886e-038
27.66638 353.65094 -47.516239 2.3509886e-038
32.144806 350.27255 -47.062325 2.3509886e-038
36.531178 346.88879 -46.607681 2.3509886e-038
40.99427 344.92178 -46.343403 2.3509886e-038
45.693722 345.14221 -46.373013 2.3509886e-038
50.712543 347.51028 -46.691185 2.3509886e-038
51.858547 348.35233 -46.804321 2.3509886e-038
-89.247437 338.2832 -50.031826 9.1476764e-041
-87.811966 337.38708 -49.899288 9.1476764e-041
-82.452629 334.18082 -49.425079 9.1476764e-041
-77.197533 331.04913 -48.96191 9.1476764e-041
-72.205719 328.73007 -48.618923 9.1476764e-041
-67.667999 328.30939 -48.556705 9.1476764e-041
-63.594646 330.24106 -48.842396 9.1476764e-041
-59.66452 333.26492 -49.289623 9.1476764e-041
-55.592949 335.92883 -49.683613 9.1476764e-041
-51.374283 338.09943 -50.004642 9.1476764e-041
-47.294781 341.70023 -50.537197 9.1476764e-041
-43.504635 348.3992 -51.527969 9.1476764e-041
-39.588745 355.59818 -52.592693 2.3509886e-038
-35.08078 358.73584 -53.056751 2.3509886e-038
-30.224901 358.75287 -53.059273 2.3509886e-038
-25.312794 357.98117 -52.945137 2.3509886e-038
-20.460009 357.8811 -52.930336 2.3509886e-038
-15.632612 358.30151 -52.992519 2.3509886e-038
-10.809631 359.24695 -53.132343 2.3509886e-038
-5.9647799 360.41797 -53.305538 2.3509886e-038
-1.0872494 361.26709 -53.431122 2.3509886e-038
3.8065436 361.47937 -53.462521 2.3509886e-038
8.6885433 360.96176 -53.385967 2.3509886e-038
13.52937 359.7222 -53.202633 2.3509886e-038
18.304773 357.86029 -52.927258 2.3509886e-038
23.013203 355.74213 -52.613983 2.3509886e-038
27.627974 353.15997 -52.232086 2.3509886e-038
32.11034 349.89703 -51.749496 2.3509886e-038
36.524559 346.82596 -51.295292 2.3509886e-038
41.031616 345.23602 -51.060139 2.3509886e-038
45.776398 345.76669 -51.138626 2.3509886e-038
50.809658 348.17575 -51.494926 2.3509886e-038
52.276436 349.16827 -51.641716 2.3509886e-038
-84.853989 341.5018 -55.131813 9.1476764e-041
-84.18869 341.21704 -55.085842 9.1476764e-041
-78.943382 338.53595 -54.653004 9.1476764e-041
-73.779778 335.89624 -54.226856 9.1476764e-041
-68.896896 334.27173 -53.964592 9.1476764e-041
-64.302322 333.91595 -53.907158 9.1476764e-041
-59.846653 334.28226 -53.96629 9.1476764e-041
-55.45145 335.07376 -54.094078 9.1476764e-041
-51.109234 336.3551 -54.30093 9.1476764e-041
-46.843208 338.43768 -54.637142 9.1476764e-041
-42.686501 341.84729 -55.187592 9.1476764e-041
-38.517567 345.97653 -55.85421 9.1476764e-041
-34.162125 349.34171 -56.397484 2.3509886e-038
-29.597677 351.30807 -56.714931 2.3509886e-038
-24.913841 352.33905 -56.881371 2.3509886e-038
-20.194921 353.24426 -57.027508 2.3509886e-038
-15.465802 354.47821 -57.226715 2.3509886e-038
-10.712374 356.01471 -57.474762 2.3509886e-038
-5.9197226 357.6954 -57.746094 2.3509886e-038
-1.0811832 359.25143 -57.997303 2.3509886e-038
3.7928536 360.17932 -58.147099 2.3509886e-038
8.6707058 360.22073 -58.153782 2.3509886e-038
13.514104 359.31628 -58.007771 2.3509886e-038
18.289576 357.56317 -57.724747 2.3509886e-038
22.986067 355.32266 -57.363041 2.3509886e-038
27.586445 352.62912 -56.9282 2.3509886e-038
32.076855 349.53214 -56.428219 2.3509886e-038
36.522896 346.81015 -55.988789 2.3509886e-038
41.077007 345.61792 -55.796314 2.3509886e-038
45.867874 346.4577 -55.931889 2.3509886e-038
50.923889 348.95853 -56.335621 2.3509886e-038
52.466404 349.97983 -56.5005 2.3509886e-038
-69.919754 342.91022 -60.002193 2.3509886e-038
-65.596016 340.63397 -59.603893 2.3509886e-038
-60.636887 338.69617 -59.26482 9.1476764e-041
-55.932194 337.97876 -59.139286 9.1476764e-041
-51.411171 338.34219 -59.202881 9.1476764e-041
-46.930115 339.06555 -59.329453 9.1476764e-041
-42.477886 340.17667 -59.523876 9.1476764e-041
-38.051273 341.78815 -59.805851 9.1476764e-041
-33.611919 343.71527 -60.143059 9.1476764e-041
-29.105854 345.4704 -60.450165 2.3509886e-038
-24.522507 346.80472 -60.683647 2.3509886e-038
-19.89356 347.97296 -60.888062 2.3509886e-038
-15.252693 349.59372 -61.171665 2.3509886e-038
-10.578981 351.58154 -61.519493 2.3509886e-038
-5.8561754 353.85562 -61.917404 2.3509886e-038
-1.0722497 356.28305 -62.342155 2.3509886e-038
3.7718012 358.18015 -62.674114 2.3509886e-038
8.6428709 359.06433 -62.828823 2.3509886e-038
13.49301 358.7554 -62.774769 2.3509886e-038
18.278358 357.34387 -62.527782 2.3509886e-038
22.972797 355.11755 -62.138222 2.3509886e-038
27.561073 352.30481 -61.646053 2.3509886e-038
32.05035 349.24332 -61.110352 2.3509886e-038
36.513294 346.71899 -60.668648 2.3509886e-038
41.099045 345.80334 -60.508427 2.3509886e-038
45.924179 346.88297 -60.697338 2.3509886e-038
51.000153 349.48111 -61.151958 2.3509886e-038
52.559444 350.5097 -61.331944 2.3509886e-038
-55.691853 343.92825 -64.837135 9.1476764e-041
-52.235664 343.76825 -64.806976 9.1476764e-041
-47.553486 343.56937 -64.769485 9.1476764e-041
-42.815102 342.87717 -64.638992 9.1476764e-041
-38.065128 341.91257 -64.457138 9.1476764e-041
-33.383381 341.37823 -64.356407 2.3509886e-038
-28.781496 341.62045 -64.402077 2.3509886e-038
-24.201311 342.26224 -64.523064 2.3509886e-038
-19.613644 343.07672 -64.676613 2.3509886e-038
-15.030946 344.51123 -64.947044 2.3509886e-038
-10.429438 346.6116 -65.343002 2.3509886e-038
-5.7810779 349.31787 -65.853188 2.3509886e-038
-1.060626 352.42078 -66.438148 2.3509886e-038
3.7413113 355.28476 -66.978058 2.3509886e-038
8.598361 357.21524 -67.341988 2.3509886e-038
13.457121 357.80121 -67.452461 2.3509886e-038
18.262798 357.03967 -67.308899 2.3509886e-038
22.969307 355.0636 -66.936363 2.3509886e-038
27.554907 352.22598 -66.401421 2.3509886e-038
32.041134 349.14288 -65.820198 2.3509886e-038
36.511665 346.70352 -65.360329 2.3509886e-038
41.118633 345.96817 -65.221695 2.3509886e-038
45.977528 347.28592 -65.470123 2.3509886e-038
51.096478 350.1412 -66.0084 2.3509886e-038
52.693901 351.25473 -66.218323 2.3509886e-038
-50.273804 351.79242 -71.082977 2.3509886e-038
-48.638386 351.40765 -71.005234 2.3509886e-038
-43.58794 349.06635 -70.53215 2.3509886e-038
-38.439091 345.27161 -69.765388 2.3509886e-038
-33.443642 341.99448 -69.10321 2.3509886e-038
-28.684528 340.46951 -68.795074 2.3509886e-038
-24.049055 340.10898 -68.722237 2.3509886e-038
-19.447323 340.16748 -68.734055 2.3509886e-038
-14.877725 340.99939 -68.902153 2.3509886e-038
-10.314404 342.78854 -69.263664 2.3509886e-038
-5.7170525 345.44922 -69.801277 2.3509886e-038
-1.0494061 348.69266 -70.45665 2.3509886e-038
3.707726 352.0954 -71.144203 2.3509886e-038
8.542387 354.88977 -71.708839 2.3509886e-038
13.404732 356.40826 -72.015656 2.3509886e-038
18.229107 356.38101 -72.010147 2.3509886e-038
22.951355 354.78607 -71.687874 2.3509886e-038
27.546949 352.12427 -71.150032 2.3509886e-038
32.050072 349.2403 -70.567299 2.3509886e-038
36.542126 346.99277 -70.113167 2.3509886e-038
41.182922 346.50909 -70.015434 2.3509886e-038
46.107502 348.26767 -70.370773 2.3509886e-038
51.341732 351.82181 -71.088921 2.3509886e-038
53.17107 353.33548 -71.394768 2.3509886e-038
-45.111839 357.85043 -77.152382 2.3509886e-038
-44.617981 357.31525 -77.036995 2.3509886e-038
-39.052067 350.77753 -75.627472 2.3509886e-038
-33.77906 345.42444 -74.473343 2.3509886e-038
-28.853249 342.47211 -73.836823 2.3509886e-038
-24.103678 340.88147 -73.493881 2.3509886e-038
-19.420492 339.69815 -73.238762 2.3509886e-038
-14.815007 339.56192 -73.209381 2.3509886e-038
-10.250527 340.66571 -73.447365 2.3509886e-038
-5.6737504 342.83267 -73.914566 2.3509886e-038
-1.0406265 345.77545 -74.549019 2.3509886e-038
3.6780987 349.28192 -75.305016 2.3509886e-038
8.4871569 352.59528 -76.019371 2.3509886e-038
13.345218 354.8259 -76.50029 2.3509886e-038
18.178045 355.38278 -76.620354 2.3509886e-038
22.912531 354.18591 -76.362312 2.3509886e-038
27.528723 351.89127 -75.867592 2.3509886e-038
32.07056 349.46356 -75.344177 2.3509886e-038
36.606415 347.60324 -74.943085 2.3509886e-038
41.300339 347.49701 -74.920189 2.3509886e-038
46.324181 349.90433 -75.439209 2.3509886e-038
51.760349 354.6904 -76.471085 2.3509886e-038
54.398819 357.54425 -77.086365 2.3509886e-038
-37.615055 354.6442 -81.263031 2.3509886e-038
-34.347847 351.24088 -80.483192 2.3509886e-038
-29.270304 347.42233 -79.608208 2.3509886e-038
-24.350561 344.37299 -78.909485 2.3509886e-038
-19.527979 341.57831 -78.269119 2.3509886e-038
-14.841993 340.18042 -77.948807 2.3509886e-038
-10.239998 340.3158 -77.979828 2.3509886e-038
-5.6548014 341.68771 -78.294182 2.3509886e-038
-1.0354116 344.04263 -78.833786 2.3509886e-038
3.6576648 347.34146 -79.589684 2.3509886e-038
8.4450064 350.84418 -80.392296 2.3509886e-038
13.29491 353.48828 -80.998169 2.3509886e-038
18.129812 354.43979 -81.216194 2.3509886e-038
22.878023 353.6525 -81.035789 2.3509886e-038
27.525192 351.84616 -80.62188 2.3509886e-038
32.116947 349.96896 -80.19175 2.3509886e-038
36.713089 348.61618 -79.881775 2.3509886e-038
41.473022 348.94998 -79.958252 2.3509886e-038
46.604584 352.02231 -80.662247 2.3509886e-038
52.265182 358.14981 -82.066299 2.3509886e-038
57.078663 364.7583 -83.580574 2.3509886e-038
-30.758059 355.79318 -86.34375 2.3509886e-038
-29.910192 355.01746 -86.155495 2.3509886e-038
-24.771837 350.33081 -85.018143 2.3509886e-038
-19.77841 345.95877 -83.957146 2.3509886e-038
-14.972201 343.16479 -83.279106 2.3509886e-038
-10.291754 342.0358 -83.005112 2.3509886e-038
-5.6650405 342.3064 -83.070786 2.3509886e-038
-1.0348151 343.84445 -83.444038 2.3509886e-038
3.6506875 346.67886 -84.131889 2.3509886e-038
8.4260225 350.05548 -84.951324 2.3509886e-038
13.26983 352.82144 -85.622574 2.3509886e-038
18.109108 354.03503 -85.917076 2.3509886e-038
22.880226 353.68658 -85.83252 2.3509886e-038
27.56955 352.41315 -85.523483 2.3509886e-038
32.215435 351.04218 -85.190781 2.3509886e-038
36.879635 350.19763 -84.985832 2.3509886e-038
41.705612 350.90695 -85.157959 2.3509886e-038
46.914043 354.3598 -85.995895 2.3509886e-038
52.717545 361.24963 -87.667923 2.3509886e-038
59.127331 370.77151 -89.978691 2.3509886e-038
61.302341 374.40909 -90.86145 2.3509886e-038
-24.256508 358.026 -91.733307 2.3509886e-038
-20.229668 353.85202 -90.663857 2.3509886e-038
-15.258444 349.72552 -89.60656 2.3509886e-038
-10.435426 346.81061 -88.859711 2.3509886e-038
-5.7156711 345.36569 -88.489494 2.3509886e-038
-1.0406462 345.78198 -88.596153 2.3509886e-038
3.6620734 347.76007 -89.102974 2.3509886e-038
8.4375391 350.53394 -89.813698 2.3509886e-038
13.27885 353.06125 -90.46125 2.3509886e-038
18.126724 354.37943 -90.798981 2.3509886e-038
22.927502 354.41736 -90.808708 2.3509886e-038
27.668776 353.68155 -90.620178 2.3509886e-038
32.382603 352.8638 -90.410652 2.3509886e-038
37.123882 352.51691 -90.32177 2.3509886e-038
42.006874 353.44171 -90.558723 2.3509886e-038
47.229763 356.74454 -91.404968 2.3509886e-038
53.02829 363.37903 -93.104858 2.3509886e-038
59.467892 372.9071 -95.546143 2.3509886e-038
66.190399 383.77838 -98.331581 2.3509886e-038
-17.380291 362.45462 -97.775665 2.3509886e-038
-15.73469 360.64111 -97.286453 2.3509886e-038
-10.690124 355.27524 -95.838959 2.3509886e-038
-5.8177791 351.53552 -94.830132 2.3509886e-038
-1.0545753 350.41028 -94.526588 2.3509886e-038
3.6955779 350.94177 -94.66996 2.3509886e-038
8.4851217 352.51071 -95.093208 2.3509886e-038
13.330826 354.44324 -95.614517 2.3509886e-038
18.196825 355.74988 -95.966995 2.3509886e-038
23.039 356.1409 -96.072479 2.3509886e-038
27.843258 355.9119 -96.010696 2.3509886e-038
32.636272 355.62796 -95.934105 2.3509886e-038
37.467213 355.7771 -95.974335 2.3509886e-038
42.411602 356.84708 -96.262978 2.3509886e-038
47.610855 359.62308 -97.011826 2.3509886e-038
53.28368 365.12912 -98.497139 2.3509886e-038
59.618732 373.853 -100.85049 2.3509886e-038
66.51226 384.43915 -103.7062 2.3509886e-038
70.987175 391.05441 -105.49075 2.3509886e-038
-9.4589434 364.73062 -103.3281 2.3509886e-038
-5.9742665 360.99118 -102.26871 2.3509886e-038
-1.0773629 357.98206 -101.41624 2.3509886e-038
3.7533414 356.42715 -100.97574 2.3509886e-038
8.5746145 356.22864 -100.91949 2.3509886e-038
13.435917 357.23743 -101.20528 2.3509886e-038
18.330318 358.35971 -101.52323 2.3509886e-038
23.221886 358.96799 -101.69555 2.3509886e-038
28.090588 359.07343 -101.72542 2.3509886e-038
32.956665 359.11914 -101.73837 2.3509886e-038
37.870514 359.60675 -101.87651 2.3509886e-038
42.875072 360.74667 -102.19945 2.3509886e-038
48.045475 362.90591 -102.81116 2.3509886e-038
53.547997 366.94034 -103.95412 2.3509886e-038
59.649746 374.04745 -105.96756 2.3509886e-038
66.297409 383.19736 -108.55973 2.3509886e-038
73.092812 391.81091 -110.99995 2.3509886e-038
74.665916 393.49411 -111.47678 2.3509886e-038
-1.4379017 368.54843 -109.39986 2.3509886e-038
-1.1081829 368.22281 -109.3032 2.3509886e-038
3.8337951 364.06723 -108.06966 2.3509886e-038
8.7130861 361.98138 -107.45049 2.3509886e-038
13.612192 361.92426 -107.43353 2.3509886e-038
18.543423 362.52591 -107.61214 2.3509886e-038
23.477425 362.91815 -107.72856 2.3509886e-038
28.392508 362.93277 -107.73291 2.3509886e-038
33.303982 362.90378 -107.7243 2.3509886e-038
38.259022 363.29587 -107.84069 2.3509886e-038
43.292824 364.2616 -108.12735 2.3509886e-038
48.441689 365.89871 -108.61331 2.3509886e-038
53.804241 368.69626 -109.44374 2.3509886e-038
59.64661 374.0278 -111.02634 2.3509886e-038
66.038597 381.70139 -113.30418 2.3509886e-038
72.699646 389.70337 -115.67948 2.3509886e-038
77.214272 393.99374 -116.95304 2.3509886e-038
8.4052858 370.53726 -115.00732 2.3509886e-038
8.9145746 370.35217 -114.94988 2.3509886e-038
13.899342 369.55905 -114.7037 2.3509886e-038
18.88645 369.23215 -114.60225 2.3509886e-038
23.852455 368.71542 -114.44187 2.3509886e-038
28.790867 368.02487 -114.22753 2.3509886e-038
33.720016 367.43719 -114.04513 2.3509886e-038
38.678307 367.27728 -113.9955 2.3509886e-038
43.710342 367.77454 -114.14984 2.3509886e-038
48.84264 368.92722 -114.5076 2.3509886e-038
54.115219 370.8273 -115.09734 2.3509886e-038
59.739471 374.61011 -116.27145 2.3509886e-038
65.842514 380.56808 -118.12069 2.3509886e-038
72.277969 387.44302 -120.25454 2.3509886e-038
78.241623 392.70859 -121.88886 2.3509886e-038
18.396818 378.83792 -122.71317 2.3509886e-038
19.357525 378.44168 -122.58482 2.3509886e-038
24.356119 376.50116 -121.95625 2.3509886e-038
29.309958 374.66028 -121.35995 2.3509886e-038
34.236965 373.07022 -120.84489 2.3509886e-038
39.181252 372.0531 -120.51543 2.3509886e-038
44.194969 371.85217 -120.45035 2.3509886e-038
49.302631 372.4017 -120.62836 2.3509886e-038
54.516624 373.57791 -121.00935 2.3509886e-038
59.979782 376.11703 -121.83182 2.3509886e-038
65.777397 380.19168 -123.15168 2.3509886e-038
71.820908 384.99295 -124.70691 2.3509886e-038
77.312546 389.07324 -126.02859 2.3509886e-038
26.936649 384.46957 -129.74313 2.3509886e-038
29.921997 382.4838 -129.07301 2.3509886e-038
34.833706 379.57272 -128.09064 2.3509886e-038
39.767971 377.62436 -127.43315 2.3509886e-038
44.760349 376.60919 -127.09058 2.3509886e-038
49.8204 376.31262 -126.99048 2.3509886e-038
54.979004 376.74643 -127.13687 2.3509886e-038
60.32505 378.2821 -127.65511 2.3509886e-038
65.864166 380.69324 -128.46877 2.3509886e-038
71.497169 383.2576 -129.33414 2.3509886e-038
74.33683 384.46844 -129.74274 2.3509886e-038
35.81274 386.09491 -135.51935 2.3509886e-038
40.372761 383.36728 -134.56194 2.3509886e-038
45.33654 381.45721 -133.89151 2.3509886e-038
50.318729 380.07669 -133.40694 2.3509886e-038
55.413898 379.72653 -133.28403 2.3509886e-038
60.677452 380.49194 -133.5527 2.3509886e-038
66.074249 381.9075 -134.04955 2.3509886e-038
69.024353 382.76663 -134.35112 2.3509886e-038
47.647873 385.07114 -140.37389 2.3509886e-038
50.774887 383.52222 -139.80923 2.3509886e-038
55.808971 382.43381 -139.41246 2.3509886e-038
58.597092 382.49466 -139.43465 2.3509886e-038
-87.201134 335.04016 -46.452225 9.1476764e-041
-88.494873 340.01093 -52.779034 9.1476764e-041
-81.302094 329.51767 -42.784672 9.1476764e-041
-84.271942 341.5545 -55.311302 9.1476764e-041
-76.120354 326.42987 -41.099972 9.1476764e-041
-79.619514 341.43542 -56.495743 9.1476764e-041
-71.523506 325.62415 -40.465736 9.1476764e-041
-75.053627 341.69571 -57.884979 9.1476764e-041
-67.478683 327.39087 -40.865608 9.1476764e-041
-70.65213 342.78769 -59.71603 2.3509886e-038
-63.811569 331.36749 -42.443851 9.1476764e-041
-66.051147 342.99744 -61.317635 2.3509886e-038
-66.233597 369.95746 45.765442 2.3418052e-038
-66.26902 370.1553 25.919319 2.3418052e-038
-60.149509 335.97388 -44.841511 9.1476764e-041
-61.318283 342.50223 -62.586971 2.3509886e-038
-61.353615 370.73849 44.998459 2.3418052e-038
-60.801762 367.40387 16.711903 2.3418052e-038
-56.01453 338.47626 -47.118896 9.1476764e-041
-56.812061 343.29547 -64.203857 9.1476764e-041
-56.749184 373.4722 40.136574 2.3418052e-038
-56.466114 371.60928 7.2637329 2.3418052e-038
-51.578747 339.44501 -48.820923 9.1476764e-041
-52.760284 347.22083 -67.592354 2.3509886e-038
-52.50425 379.33813 32.053749 2.3418052e-038
-52.179096 376.98892 -1.5625124 2.3509886e-038
-47.384716 342.35001 -50.113537 9.1476764e-041
-49.013271 354.11618 -72.90979 2.3509886e-038
-47.212719 378.09473 23.964888 2.3418052e-038
-47.167248 377.73062 -9.032444 2.3509886e-038
-43.606514 349.21506 -51.248878 9.1476764e-041
-44.689323 357.8866 -77.468498 2.3509886e-038
-42.403786 380.88376 17.074423 2.3418052e-038
-42.532543 382.04025 -16.960781 2.3509886e-038
-40.018856 359.46155 -51.774525 2.3509886e-038
-39.590004 355.60947 -80.234795 2.3509886e-038
-37.240707 380.82324 9.3376122 2.3418052e-038
-37.168579 380.08563 -26.32041 2.3509886e-038
-36.317139 371.37888 -49.804016 2.3509886e-038
-34.655334 354.38525 -83.190437 2.3509886e-038
-31.713919 376.42667 1.9692991 2.3418052e-038
-30.000927 356.09442 -86.980225 2.3509886e-038
-26.485107 374.56039 67.80204 3.5733111e-043
-26.520123 375.05557 54.497009 3.5733111e-043
-26.450525 374.07132 -2.039923 2.3418052e-038
-25.291122 357.67468 -90.884453 2.3509886e-038
-21.547211 376.89816 72.92218 3.5733111e-043
-21.433266 374.90509 24.865889 3.5733111e-043
-21.393261 374.20532 -2.640455 2.3509886e-038
-20.581211 360.00119 -94.900284 2.3509886e-038
-16.420052 376.34973 67.5121 3.5733111e-043
-15.856749 363.43872 -99.052544 2.3509886e-038
-11.441094 380.233 52.044823 3.5733111e-043
-10.971328 364.62079 -102.40141 2.3509886e-038
-6.1742549 373.07535 35.086777 2.3509886e-038
-6.0547099 365.85193 -105.7002 2.3509886e-038
-1.1153411 370.60129 22.172764 2.3509886e-038
-1.1095266 368.66928 -109.63297 2.3509886e-038
3.8286011 363.57404 19.063173 2.3509886e-038
3.8875103 369.16818 -112.48534 2.3509886e-038
8.4762774 352.14328 32.890717 2.3509886e-038
8.9268227 370.86099 -115.3462 2.3509886e-038
13.47936 358.39249 66.931137 2.3509528e-038
14.109867 375.15656 -119.18089 2.3509886e-038
18.433994 360.38654 68.667763 2.3509528e-038
19.419989 379.66287 -123.57948 2.3509886e-038
23.427433 362.14536 50.129124 2.3509528e-038
24.806192 383.45847 -128.12138 2.3509886e-038
27.468164 351.11716 -1.4814857 2.3509886e-038
30.153818 385.44708 -131.98056 2.3509886e-038
31.900629 347.61185 -2.2225573 2.3418409e-038
35.431129 386.08264 -135.29968 2.3509886e-038
36.359112 345.25491 0.25692406 2.3418409e-038
40.671478 386.20383 -138.16121 2.3509886e-038
40.777897 343.10123 5.2278876 2.3418409e-038
45.826668 385.58112 -140.04031 2.3509886e-038
44.945904 339.49365 11.865268 2.3418409e-038
50.851276 384.09924 -140.61353 2.3509886e-038
49.295639 337.80087 17.928053 2.3418409e-038
51.205811 350.89041 -15.045829 2.3418409e-038
50.83094 348.32159 -40.359161 2.3509886e-038
55.87746 382.90314 -140.13 2.3509886e-038
54.165005 339.65411 26.279173 2.3418409e-038
55.175343 345.98969 -1.0788664 2.3418409e-038
58.837574 368.95453 -86.766472 2.3509886e-038
60.971577 382.3363 -138.60036 2.3509886e-038
59.121712 341.72202 33.629715 2.3418409e-038
59.083984 341.50391 9.9650459 2.3418409e-038
66.488701 384.30301 -98.775703 2.3509886e-038
66.19574 382.60971 -136.16187 2.3509886e-038
64.254654 344.43439 36.673492 2.3418409e-038
63.666195 341.27997 19.338163 2.3418409e-038
73.303566 392.94067 -109.13647 2.3509886e-038
71.451988 383.01538 -132.36058 2.3509886e-038
