# .PCD v0.7 - Point Cloud Data file format
VERSION 0.7
FIELDS x y z rgb
SIZE 4 4 4 4
TYPE F F F F
COUNT 1 1 1 1
WIDTH 730
HEIGHT 1
VIEWPOINT 0 0 0 1 0 0 0
POINTS 730
DATA ascii
-69.356201 368.15488 36.412006 2.3418052e-038
0 0 0 3.5733111e-043
0 0 0 3.5733111e-043
-28.184984 374.02707 61.654648 2.3509528e-038
43.27895 340.34412 36.867256 2.3418409e-038
-30.763315 375.28513 67.678337 2.3509528e-038
-27.877518 373.55353 67.366066 2.3509528e-038
-24.212353 372.3541 67.149765 2.3509528e-038
-33.095734 377.82239 63.010441 2.3509528e-038
-27.903027 373.89536 62.355518 2.3509528e-038
-22.716158 372.01682 62.042229 2.3509528e-038
-21.19943 371.97498 62.035252 2.3509528e-038
-33.201176 379.41895 58.129581 2.3509528e-038
-27.945116 374.45932 57.369736 2.3509528e-038
-22.701786 371.78149 56.959473 2.3509528e-038
-19.304873 371.43869 56.906952 2.3509528e-038
-32.396469 379.7951 53.034988 2.3509528e-038
-27.962156 374.68768 52.321777 2.3509528e-038
-22.645592 370.86118 51.787445 2.3509528e-038
-17.574383 370.01584 51.669395 2.3509528e-038
-17.427689 370.07022 51.676991 2.3509528e-038
-30.569664 374.8399 47.258034 2.3509528e-038
-27.635881 370.31564 46.687637 2.3509528e-038
-22.253136 364.43402 45.946114 2.3509528e-038
-17.236038 362.89224 45.751732 2.3509528e-038
-15.134287 363.8544 45.873035 2.3509528e-038
-72.389763 368.4285 41.451687 2.3418052e-038
-67.065285 366.16827 41.197388 2.3418052e-038
-65.408363 366.09009 41.188595 2.3418052e-038
-27.484585 358.86478 40.375675 2.3509528e-038
-26.669573 357.36731 40.207195 2.3509528e-038
-21.382421 350.17459 39.397949 2.3509528e-038
-16.60202 349.54346 39.326939 2.3509528e-038
-12.226085 354.45135 39.879124 2.3509528e-038
39.336433 342.76349 38.564129 2.3418409e-038
39.508766 342.68085 38.554832 2.3418409e-038
43.98518 341.34351 38.404369 2.3418409e-038
46.702534 341.3909 38.409702 2.3418409e-038
-74.207535 370.06369 36.615452 2.3418052e-038
-72.601074 369.05774 36.515919 2.3418052e-038
-67.250481 367.17938 36.330067 2.3418052e-038
-62.469719 368.36053 36.446934 2.3418052e-038
-60.761631 369.86044 36.595341 2.3418052e-038
-24.142141 336.32047 33.276772 2.3509886e-038
-20.338476 333.07816 32.955967 2.3509886e-038
-15.925575 335.30136 33.175938 2.3509528e-038
-11.619912 342.46146 33.884384 2.3509528e-038
-8.4857101 348.72147 34.503773 2.3509528e-038
37.553085 343.29852 33.967209 2.3418409e-038
39.494137 342.55396 33.893536 2.3418409e-038
44.021713 341.62701 33.801819 2.3418409e-038
47.400333 341.91321 33.830139 2.3418409e-038
-73.763176 372.01517 31.761866 2.3418052e-038
-73.089355 371.53986 31.721283 2.3418052e-038
-67.615669 369.17325 31.519226 2.3418052e-038
-62.672695 369.5574 31.552025 2.3418052e-038
-58.178665 372.88583 31.836197 2.3418052e-038
-57.5882 373.59573 31.896811 2.3418052e-038
-22.357473 325.54453 27.7943 2.3509886e-038
-19.870716 325.41772 27.783474 2.3509886e-038
-15.630651 329.09198 28.097172 2.3509886e-038
-11.391485 335.72928 28.663851 2.3509886e-038
-6.9794726 342.72296 29.260956 2.3509528e-038
-3.3694754 347.75018 29.69017 2.3509886e-038
36.459789 344.29306 29.395008 2.3418409e-038
39.579258 343.29224 29.309561 2.3418409e-038
44.167599 342.75912 29.264046 2.3418409e-038
47.50486 343.09082 29.292366 2.3418409e-038
-71.664276 373.47549 26.820049 2.3418052e-038
-68.04451 371.51474 26.679241 2.3418052e-038
-62.781082 370.19653 26.584579 2.3418052e-038
-57.929512 371.28894 26.663025 2.3418052e-038
-54.211617 374.37311 26.884508 2.3418052e-038
-22.500538 336.03699 24.131512 2.3509886e-038
-20.477394 335.35318 24.082405 2.3509886e-038
-15.9488 335.79037 24.113802 2.3509886e-038
-11.467232 337.96164 24.269726 2.3509886e-038
-6.9424391 340.90445 24.481054 2.3509886e-038
-2.3398216 344.14386 24.713684 2.3509886e-038
1.9550829 347.13669 24.928604 2.3509886e-038
35.318672 344.35654 24.728956 2.3418409e-038
39.643738 343.8515 24.692688 2.3418409e-038
44.347614 344.15613 24.714563 2.3418409e-038
47.300835 344.74756 24.757036 2.3418409e-038
-68.825676 374.60345 21.819254 2.3418052e-038
-68.57402 374.40573 21.807737 2.3418052e-038
-62.909401 370.95322 21.606642 2.3418052e-038
-57.748741 370.13034 21.558712 2.3418052e-038
-53.141701 373.03702 21.728014 2.3418052e-038
-50.724258 376.52283 21.931051 2.3418052e-038
-23.420734 359.7157 20.952099 2.3509886e-038
-21.820276 357.34521 20.814026 2.3509886e-038
-16.683165 351.25186 20.459112 2.3509886e-038
-11.788374 347.42636 20.23629 2.3509886e-038
-7.0306745 345.23718 20.108778 2.3509886e-038
-2.3419127 344.45145 20.063013 2.3509886e-038
2.3378041 345.47946 20.122889 2.3509886e-038
6.4856796 347.88892 20.263233 2.3509886e-038
33.838669 343.09341 19.983912 2.3418409e-038
34.896675 343.04089 19.980852 2.3418409e-038
39.674103 344.1149 20.043409 2.3418409e-038
44.5425 345.66852 20.133902 2.3418409e-038
46.878651 346.55942 20.185793 2.3418409e-038
-65.693245 374.5596 16.735512 2.3418052e-038
-63.179249 372.54434 16.64547 2.3418052e-038
-57.770172 370.2677 16.543747 2.3418052e-038
-52.973015 371.85287 16.614573 2.3418052e-038
-48.531876 376.53394 16.823727 2.3418052e-038
-46.576103 379.12311 16.939411 2.3418052e-038
-22.99416 371.6308 16.60465 2.3509886e-038
-22.653227 370.98627 16.575853 2.3509886e-038
-17.222197 362.6008 16.201187 2.3509886e-038
-12.127757 357.42865 15.970091 2.3509886e-038
-7.1829281 352.71353 15.759418 2.3509886e-038
-2.3656433 347.94174 15.546212 2.3509886e-038
2.3399899 345.80249 15.450628 2.3509886e-038
7.0628452 347.36487 15.520436 2.3509886e-038
9.928462 349.68738 15.624207 2.3509886e-038
32.25061 342.91043 15.32141 2.3418409e-038
34.908066 343.15286 15.332242 2.3418409e-038
39.794342 345.15778 15.421823 2.3418409e-038
44.797989 347.65125 15.533232 2.3418409e-038
46.389133 348.43265 15.568147 2.3418409e-038
-62.676056 374.85794 11.663591 2.3418052e-038
-58.08918 372.31232 11.584385 2.3418052e-038
-53.024185 372.21207 11.581266 2.3418052e-038
-48.241657 374.28226 11.64568 2.3418052e-038
-43.515488 377.32816 11.740453 2.3418052e-038
-42.115829 378.33994 11.771935 2.3418052e-038
-21.318064 373.35464 11.616817 2.3509886e-038
-17.514471 368.75446 11.473683 2.3509886e-038
-12.379189 364.83884 11.351851 2.3509886e-038
-7.3364167 360.25049 11.209086 2.3509886e-038
-2.4025819 353.37476 10.995149 2.3509886e-038
2.3581095 348.48019 10.842856 2.3509886e-038
7.0836434 348.38776 10.83998 2.3509886e-038
11.948893 352.49088 10.967648 2.3509886e-038
12.508312 353.18674 10.989299 2.3509886e-038
30.803059 344.40613 10.716093 2.3418409e-038
35.039276 344.44266 10.71723 2.3418409e-038
39.992237 346.87424 10.792888 2.3418409e-038
45.10144 350.00613 10.890336 2.3418409e-038
46.053211 350.56393 10.907692 2.3509886e-038
-60.006111 377.00308 6.6159878 2.3418052e-038
-58.694942 376.19482 6.6018043 2.3418052e-038
-53.322067 374.3031 6.5686064 2.3418052e-038
-48.197319 373.93826 6.5622034 2.3418052e-038
-43.240784 374.94617 6.5798917 2.3418052e-038
-38.422523 377.58167 6.6261411 2.3418052e-038
-38.278912 377.68646 6.6279807 2.3418052e-038
-19.7362 374.98254 6.5805297 2.3509886e-038
-17.728512 373.26089 6.5503168 2.3509886e-038
-12.551694 369.92288 6.4917383 2.3509886e-038
-7.4580603 366.22372 6.4268217 2.3509886e-038
-2.4433827 359.37579 6.3066487 2.3509886e-038
2.3898721 353.17404 6.1978145 2.3509886e-038
7.1435695 351.33505 6.1655421 2.3509886e-038
12.014911 354.43839 6.2200027 2.3509886e-038
14.839413 357.76959 6.2784615 2.3509886e-038
29.125763 346.8689 6.0871663 2.3418409e-038
30.505465 346.01767 6.072228 2.3418409e-038
35.209297 346.11401 6.0739188 2.3418409e-038
40.226894 348.90955 6.1229773 2.3418409e-038
45.460903 352.79572 6.1911755 2.3509886e-038
45.777336 353.03857 6.1954374 2.3509886e-038
-57.235722 379.96161 1.5134228 2.3418052e-038
-53.813721 377.75436 1.5046312 2.3418052e-038
-48.356369 375.17227 1.4943463 2.3418052e-038
-43.172386 374.35306 1.4910833 2.3418052e-038
-38.239872 375.78668 1.4967937 2.3418052e-038
-34.514408 378.05478 1.5058277 2.3418052e-038
-19.260401 378.76089 1.5086403 2.3509886e-038
-17.944685 377.81226 1.5048617 2.3509886e-038
-12.693652 374.10666 1.4901019 2.3509886e-038
-7.5471668 370.59924 1.4761316 2.3509886e-038
-2.4793127 364.6604 1.4524767 2.3509886e-038
2.4253628 358.41885 1.427616 2.3509886e-038
7.2213798 355.1619 1.4146433 2.3509886e-038
12.081022 356.38867 1.4195294 2.3509886e-038
17.082436 359.90112 1.43352 2.3509886e-038
17.423019 360.07333 1.4342059 2.3509886e-038
26.427099 351.41568 1.3997217 2.3418409e-038
30.647999 347.63437 1.3846604 2.3418409e-038
35.392658 347.91647 1.385784 2.3418409e-038
40.483208 351.13269 1.3985945 2.3418409e-038
45.332226 355.72681 1.4168934 2.3509886e-038
-53.772327 381.71008 -3.6578164 2.3418052e-038
-48.693325 377.78653 -3.620218 2.3418052e-038
-43.29546 375.42026 -3.5975428 2.3418052e-038
-38.211613 375.50903 -3.5983937 2.3418052e-038
-33.263222 377.16095 -3.6142232 2.3509886e-038
-28.614061 379.09641 -3.6327705 2.3509886e-038
-21.712391 380.50256 -3.646245 2.3509886e-038
-18.015558 379.30444 -3.634764 2.3509886e-038
-12.777223 376.56964 -3.608557 2.3509886e-038
-7.6106186 373.71503 -3.581202 2.3509886e-038
-2.511184 369.34808 -3.539355 2.3509886e-038
2.4625363 363.91235 -3.4872658 2.3509886e-038
7.3110223 359.57071 -3.4456613 2.3509886e-038
12.145834 358.3006 -3.4334903 2.3509886e-038
17.019648 358.57831 -3.4361513 2.3509886e-038
21.765751 356.63992 -3.4175763 2.3418409e-038
26.243923 351.81479 -3.3713386 2.3418409e-038
30.761101 348.91727 -3.3435726 2.3418409e-038
35.559395 349.55551 -3.3496885 2.3418409e-038
40.73098 353.28174 -3.385396 2.3418409e-038
45.000641 358.35239 -3.4339867 2.3509886e-038
-50.156982 381.59058 -8.8332539 2.3418052e-038
-49.099159 380.93518 -8.8180838 2.3418052e-038
-43.60424 378.09772 -8.7524004 2.3418052e-038
-38.339661 376.76733 -8.7216034 2.3418052e-038
-33.231125 376.797 -8.7222891 2.3509886e-038
-28.183168 377.6492 -8.7420168 2.3509886e-038
-23.116848 378.57883 -8.7635365 2.3509886e-038
-17.978901 378.53265 -8.7624674 2.3509886e-038
-12.806211 377.42401 -8.736804 2.3509886e-038
-7.6489649 375.59799 -8.6945343 2.3509886e-038
-2.5351145 372.86783 -8.6313353 2.3509886e-038
2.4940341 368.56708 -8.5317802 2.3509886e-038
7.3944983 363.67621 -8.4185638 2.3509886e-038
12.210259 360.20114 -8.3381205 2.3509886e-038
16.984062 357.82852 -8.2831974 2.3509886e-038
21.675667 355.16385 -8.2215147 2.3418409e-038
26.248653 351.87817 -8.1454563 2.3418409e-038
30.84107 349.82434 -8.0979128 2.3418409e-038
35.671986 350.66232 -8.1173105 2.3418409e-038
40.876022 354.53979 -8.2070684 2.3418409e-038
44.837677 359.66559 -8.3257236 2.3509886e-038
-46.939407 377.08069 -13.844259 2.3418052e-038
-43.439083 376.66562 -13.829021 2.3509886e-038
-38.275047 376.13239 -13.809443 2.3509886e-038
-33.160767 375.99927 -13.804556 2.3509886e-038
-28.096428 376.48691 -13.822458 2.3509886e-038
-23.04089 377.33493 -13.853594 2.3509886e-038
-17.94487 377.81616 -13.871262 2.3509886e-038
-12.807528 377.4628 -13.858289 2.3509886e-038
-7.6636868 376.32089 -13.816364 2.3509886e-038
-2.5474451 374.68143 -13.756172 2.3509886e-038
2.5135598 371.45255 -13.637626 2.3509886e-038
7.456697 366.73529 -13.464435 2.3509886e-038
12.275469 362.12479 -13.295164 2.3509886e-038
17.016228 358.50623 -13.162312 2.3509886e-038
21.697203 355.51672 -13.052554 2.3418409e-038
26.310226 352.70361 -12.949271 2.3418409e-038
30.915751 350.67145 -12.874662 2.3418409e-038
35.711658 351.05231 -12.888646 2.3418409e-038
40.839958 354.22699 -13.0052 2.3418409e-038
44.707813 358.81622 -13.173693 2.3509886e-038
-43.802906 357.7305 -17.986732 2.3509886e-038
-41.59404 360.66702 -18.13438 2.3509886e-038
-37.319263 366.73981 -18.43972 2.3509886e-038
-32.767178 371.53644 -18.680895 2.3509886e-038
-27.952168 374.55383 -18.832611 2.3509886e-038
-22.985418 376.42642 -18.926764 2.3509886e-038
-17.920216 377.29709 -18.970541 2.3509886e-038
-12.797841 377.17731 -18.964518 2.3509886e-038
-7.6638389 376.32837 -18.921835 2.3509886e-038
-2.5510409 375.2103 -18.865618 2.3509886e-038
2.5231366 372.8678 -18.747837 2.3509886e-038
7.5006018 368.89459 -18.548063 2.3509886e-038
12.345995 364.20532 -18.312286 2.3509886e-038
17.101027 360.29282 -18.115564 2.3509886e-038
21.799484 357.19263 -17.959688 2.3509886e-038
26.429571 354.30347 -17.814421 2.3509886e-038
31.007301 351.70987 -17.684013 2.3418409e-038
35.699188 350.92975 -17.644787 2.3418409e-038
40.649612 352.57599 -17.727562 2.3509886e-038
44.742355 356.50266 -17.924994 2.3509886e-038
-43.579494 335.19244 -21.400669 2.3509886e-038
-43.210606 335.24893 -21.404276 2.3509886e-038
-39.249916 340.34085 -21.729374 2.3509886e-038
-35.625931 350.0993 -22.352411 2.3509886e-038
-31.836189 360.98029 -23.047117 2.3509886e-038
-27.60924 369.95868 -23.62035 2.3509886e-038
-22.886955 374.81396 -23.930344 2.3509886e-038
-17.884172 376.53821 -24.040426 2.3509886e-038
-12.776013 376.53403 -24.040159 2.3509886e-038
-7.653667 375.82889 -23.99514 2.3509886e-038
-2.5490124 374.91193 -23.936596 2.3509886e-038
2.5255339 373.22208 -23.828705 2.3509886e-038
7.5261202 370.14963 -23.632544 2.3509886e-038
12.40399 365.9162 -23.362255 2.3509886e-038
17.186544 362.09451 -23.118258 2.3509886e-038
21.906479 358.9458 -22.917223 2.3509886e-038
26.547234 355.88083 -22.721539 2.3509886e-038
31.093056 352.68256 -22.517342 2.3509886e-038
35.672752 350.66989 -22.38884 2.3509886e-038
40.439941 350.75742 -22.39443 2.3509886e-038
45.129471 354.22845 -22.616041 2.3509886e-038
-43.867451 329.19885 -25.483828 2.3509886e-038
-42.28331 328.0545 -25.395243 2.3509886e-038
-37.859959 328.28836 -25.413343 2.3509886e-038
-34.062546 334.73575 -25.912447 2.3509886e-038
-30.63135 347.319 -26.886538 2.3509886e-038
-26.996058 361.74213 -28.003056 2.3509886e-038
-22.656761 371.04413 -28.723139 2.3509886e-038
-17.800213 374.77048 -29.011604 2.3509886e-038
-12.732438 375.24976 -29.048702 2.3509886e-038
-7.6331091 374.8194 -29.015388 2.3509886e-038
-2.5435433 374.10751 -28.960279 2.3509886e-038
2.5231135 372.86441 -28.864048 2.3509886e-038
7.532464 370.46164 -28.678049 2.3509886e-038
12.432091 366.74515 -28.390348 2.3509886e-038
17.237383 363.16559 -28.113247 2.3509886e-038
21.977135 360.10349 -27.876205 2.3509886e-038
26.631935 357.0163 -27.63722 2.3509886e-038
31.161333 353.45703 -27.361692 2.3509886e-038
35.6609 350.55338 -27.136915 2.3509886e-038
40.293045 349.48331 -27.054081 2.3509886e-038
45.357891 351.99631 -27.248615 2.3509886e-038
45.611164 352.26114 -27.269115 2.3509886e-038
-41.840023 331.98682 -30.203314 2.3509886e-038
-37.92202 328.82651 -29.915798 2.3509886e-038
-33.468479 328.89777 -29.922283 2.3509886e-038
-29.718027 336.9631 -30.656046 2.3509886e-038
-26.221224 351.3595 -31.965792 2.3509886e-038
-22.260296 364.5513 -33.165951 2.3509886e-038
-17.642145 371.44254 -33.792892 2.3509886e-038
-12.661738 373.16608 -33.949699 2.3509886e-038
-7.6021652 373.29993 -33.961876 2.3509886e-038
-2.535881 372.98056 -33.932819 2.3509886e-038
2.5175967 372.04916 -33.848083 2.3509886e-038
7.5219345 369.94376 -33.65654 2.3509886e-038
12.427494 366.60956 -33.353203 2.3509886e-038
17.249432 363.41946 -33.062981 2.3509886e-038
22.012779 360.68756 -32.814434 2.3509886e-038
26.687813 357.76535 -32.54858 2.3509886e-038
31.211336 354.0242 -32.208218 2.3509886e-038
35.658085 350.52563 -31.889931 2.3509886e-038
40.191528 348.60281 -31.714994 2.3509886e-038
45.049236 349.60101 -31.805809 2.3509886e-038
45.989594 350.23618 -31.863596 2.3509886e-038
-39.482204 336.4097 -35.169365 2.3509886e-038
-38.656929 335.19897 -35.042793 2.3509886e-038
-33.599617 330.18655 -34.518776 2.3509886e-038
-29.350557 332.79648 -34.791626 2.3509886e-038
-25.631788 343.46118 -35.906551 2.3509886e-038
-21.839581 357.66138 -37.391083 2.3509886e-038
-17.436462 367.11197 -38.379082 2.3509886e-038
-12.575897 370.6362 -38.747517 2.3509886e-038
-7.566328 371.54016 -38.842018 2.3509886e-038
-2.5266962 371.62967 -38.851372 2.3509886e-038
2.5099478 370.91879 -38.777058 2.3509886e-038
7.5025301 368.98944 -38.575356 2.3509886e-038
12.406598 365.9931 -38.262112 2.3509886e-038
17.237854 363.17551 -37.967552 2.3509886e-038
22.017572 360.76608 -37.71566 2.3509886e-038
26.70557 358.00342 -37.426842 2.3509886e-038
31.214781 354.06326 -37.014927 2.3509886e-038
35.611073 350.06354 -36.596783 2.3509886e-038
40.069489 347.54425 -36.333408 2.3509886e-038
44.813858 347.77435 -36.357464 2.3509886e-038
46.39505 348.56738 -36.440369 2.3509886e-038
-37.532181 338.32227 -39.958923 2.3509886e-038
-34.019176 334.30954 -39.484989 2.3509886e-038
-29.407173 333.43845 -39.382103 2.3509886e-038
-25.369768 339.95016 -40.151199 2.3509886e-038
-21.536503 352.69794 -41.656822 2.3509886e-038
-17.239555 362.96631 -42.86961 2.3509886e-038
-12.482654 367.88812 -43.45092 2.3509886e-038
-7.5264292 369.58096 -43.65086 2.3509886e-038
-2.515928 370.04587 -43.705772 2.3509886e-038
2.5006039 369.53796 -43.645779 2.3509886e-038
7.4798927 367.87607 -43.449497 2.3509886e-038
12.384212 365.33273 -43.149105 2.3509886e-038
17.223406 362.87115 -42.858368 2.3509886e-038
22.005531 360.56882 -42.586445 2.3509886e-038
26.680599 357.66867 -42.243912 2.3509886e-038
31.159407 353.43518 -41.743896 2.3509886e-038
35.519497 349.16333 -41.239349 2.3509886e-038
39.956081 346.56064 -40.93195 2.3509886e-038
44.699657 346.88812 -40.970631 2.3509886e-038
47.043938 348.24976 -41.131451 2.3509886e-038
-36.671955 341.2048 -44.928093 2.3509886e-038
-34.478802 338.82635 -44.61491 2.3509886e-038
-29.647417 336.16251 -44.264149 2.3509886e-038
-25.357687 339.7883 -44.741573 2.3509886e-038
-21.376183 350.07242 -46.095737 2.3509886e-038
-17.072134 359.44135 -47.329384 2.3509886e-038
-12.375871 364.74103 -48.027222 2.3509886e-038
-7.4763756 367.12311 -48.340878 2.3509886e-038
-2.5025585 368.07947 -48.466808 2.3509886e-038
2.4897406 367.93256 -48.447468 2.3509886e-038
7.4561415 366.70795 -48.286217 2.3509886e-038
12.362937 364.70511 -48.022495 2.3509886e-038
17.208429 362.5556 -47.739456 2.3509886e-038
21.978815 360.13101 -47.4202 2.3509886e-038
26.617243 356.81934 -46.984131 2.3509886e-038
31.063927 352.35217 -46.39592 2.3509886e-038
35.424202 348.22656 -45.852684 2.3509886e-038
39.905106 346.11847 -45.5751 2.3509886e-038
44.720024 347.0462 -45.697258 2.3509886e-038
47.920185 349.39893 -46.007053 2.3509886e-038
-36.704456 345.95499 -50.246731 2.3509886e-038
-34.975536 343.70779 -49.920349 2.3509886e-038
-29.90881 339.12634 -49.254936 2.3509886e-038
-25.403502 340.40219 -49.440239 2.3509886e-038
-21.248945 347.98871 -50.54211 2.3509886e-038
-16.891933 355.64737 -51.654457 2.3509886e-038
-12.236278 360.62692 -52.377697 2.3509886e-038
-7.4042978 363.58377 -52.807148 2.3509886e-038
-2.4841719 365.37509 -53.067322 2.3509886e-038
2.4767725 366.01614 -53.160431 2.3509886e-038
7.4300399 365.42422 -53.074455 2.3509886e-038
12.334003 363.85156 -52.846043 2.3509886e-038
17.174461 361.83994 -52.553875 2.3509886e-038
21.924351 359.23862 -52.17606 2.3509886e-038
26.530991 355.66306 -51.656738 2.3509886e-038
30.971279 351.30127 -51.023232 2.3509886e-038
35.368507 347.67905 -50.497135 2.3509886e-038
39.919491 346.24326 -50.288601 2.3509886e-038
44.796505 347.63971 -50.491421 2.3509886e-038
48.550533 350.56052 -50.915642 2.3509886e-038
-37.086845 350.53699 -55.667542 2.3509886e-038
-35.397678 347.85623 -55.241821 2.3509886e-038
-30.101841 341.31506 -54.203041 2.3509886e-038
-25.405266 340.42581 -54.061821 2.3509886e-038
-21.080133 345.22406 -54.823814 2.3509886e-038
-16.666796 350.90723 -55.726341 2.3509886e-038
-12.052241 355.20303 -56.408539 2.3509886e-038
-7.2998004 358.45248 -56.924576 2.3509886e-038
-2.4565761 361.31628 -57.379364 2.3509886e-038
2.4584126 363.30295 -57.694859 2.3509886e-038
7.397131 363.80573 -57.7747 2.3509886e-038
12.297988 362.78912 -57.613262 2.3509886e-038
17.130074 360.90479 -57.314014 2.3509886e-038
21.86154 358.20947 -56.885979 2.3509886e-038
26.451834 354.60193 -56.31308 2.3509886e-038
30.905396 350.55399 -55.670242 2.3509886e-038
35.344055 347.43872 -55.175518 2.3509886e-038
39.947491 346.48611 -55.024239 2.3509886e-038
44.858643 348.12192 -55.284012 2.3509886e-038
48.763916 351.02731 -55.745407 2.3509886e-038
-37.401207 354.3876 -61.086594 2.3509886e-038
-35.75481 351.36581 -60.56572 2.3509886e-038
-30.250889 343.00507 -59.124557 2.3509886e-038
-25.380955 340.10004 -58.623817 2.3509886e-038
-20.899673 342.26874 -58.997639 2.3509886e-038
-16.43342 345.99368 -59.639717 2.3509886e-038
-11.854271 349.36844 -60.221436 2.3509886e-038
-7.1784754 352.4949 -60.760345 2.3509886e-038
-2.4214664 356.15231 -61.390785 2.3509886e-038
2.433146 359.56906 -61.979736 2.3509886e-038
7.3511009 361.54184 -62.319786 2.3509886e-038
12.253105 361.46509 -62.306557 2.3509886e-038
17.086311 359.98279 -62.051052 2.3509886e-038
21.812397 357.40421 -61.606571 2.3509886e-038
26.40156 353.92801 -61.007374 2.3509886e-038
30.872824 350.18454 -60.362099 2.3509886e-038
35.335152 347.3512 -59.873711 2.3509886e-038
39.958858 346.58472 -59.741589 2.3509886e-038
44.885406 348.32962 -60.04237 2.3509886e-038
48.821434 351.16489 -60.531086 2.3509886e-038
-37.326084 358.03613 -66.572548 2.3509886e-038
-36.199276 355.73361 -66.144424 2.3509886e-038
-30.480944 345.61359 -64.262726 2.3509886e-038
-25.430351 340.76196 -63.360622 2.3509886e-038
-20.794666 340.54904 -63.321033 2.3509886e-038
-16.259987 342.34216 -63.654446 2.3509886e-038
-11.692012 344.58636 -64.071732 2.3509886e-038
-7.071187 347.22653 -64.562637 2.3509886e-038
-2.3860574 350.94427 -65.253906 2.3509886e-038
2.4033754 355.16956 -66.039551 2.3509886e-038
7.2894998 358.51221 -66.661064 2.3509886e-038
12.194722 359.7428 -66.889885 2.3509886e-038
17.043936 359.08997 -66.768494 2.3509886e-038
21.781879 356.90414 -66.362068 2.3509886e-038
26.380411 353.64447 -65.755974 2.3509886e-038
30.866789 350.11609 -65.099907 2.3509886e-038
35.338589 347.38495 -64.592094 2.3509886e-038
39.967121 346.65637 -64.456619 2.3509886e-038
44.912163 348.53726 -64.806351 2.3509886e-038
48.89082 351.50745 -65.35862 2.3509886e-038
-36.243492 361.23151 -72.067085 2.3509886e-038
-30.956224 351.00262 -70.026382 2.3509886e-038
-25.663813 343.89032 -68.607452 2.3509886e-038
-20.816181 340.9014 -68.011147 2.3509886e-038
-16.171307 340.4751 -67.926094 2.3509886e-038
-11.586698 341.48254 -68.12709 2.3509886e-038
-6.9962835 343.54846 -68.539246 2.3509886e-038
-2.3579524 346.81058 -69.190056 2.3509886e-038
2.3753831 351.0329 -70.032417 2.3509886e-038
7.2205877 355.12296 -70.848404 2.3509886e-038
12.122305 357.60651 -71.343887 2.3509886e-038
16.991777 357.99109 -71.420609 2.3509886e-038
21.749922 356.38052 -71.099297 2.3509886e-038
26.363331 353.4155 -70.507759 2.3509886e-038
30.872328 350.17889 -69.862045 2.3509886e-038
35.365784 347.65228 -69.357979 2.3509886e-038
40.017372 347.09229 -69.246246 2.3509886e-038
45.014858 349.3342 -69.693527 2.3509886e-038
49.267494 352.99185 -70.423241 2.3509886e-038
-32.777725 361.75171 -77.078323 2.3509886e-038
-31.728439 359.75851 -76.653633 2.3509886e-038
-26.13312 350.17892 -74.612511 2.3509886e-038
-20.989746 343.74384 -73.241394 2.3509886e-038
-16.176765 340.59003 -72.569405 2.3509886e-038
-11.541194 340.14148 -72.473831 2.3509886e-038
-6.9543958 341.49158 -72.761497 2.3509886e-038
-2.3387957 343.99301 -73.294479 2.3509886e-038
2.3527572 347.68921 -74.082024 2.3509886e-038
7.1566191 351.97684 -74.99559 2.3509886e-038
12.047389 355.39648 -75.724213 2.3509886e-038
16.929575 356.68057 -75.997818 2.3509886e-038
21.70369 355.62302 -75.772476 2.3509886e-038
26.334263 353.02582 -75.219093 2.3509886e-038
30.878571 350.24969 -74.627594 2.3509886e-038
35.418621 348.17172 -74.184837 2.3509886e-038
40.12772 348.04938 -74.158768 2.3509886e-038
45.237354 351.06088 -74.80043 2.3509886e-038
50.557217 357.11206 -76.089745 2.3509886e-038
-27.518312 360.46396 -81.693893 2.3509886e-038
-26.791122 358.99603 -81.361214 2.3509886e-038
-21.298601 348.80185 -79.050858 2.3509886e-038
-16.275055 342.65945 -77.658768 2.3509886e-038
-11.554946 340.54678 -77.179962 2.3509886e-038
-6.9435534 340.95917 -77.273422 2.3509886e-038
-2.3292427 342.58792 -77.642555 2.3509886e-038
2.3386009 345.5972 -78.324562 2.3509886e-038
7.1110263 349.73453 -79.26223 2.3509886e-038
11.986921 353.61273 -80.141167 2.3509886e-038
16.870113 355.4278 -80.552528 2.3509886e-038
21.654591 354.81851 -80.414444 2.3509886e-038
26.310329 352.70502 -79.935448 2.3509886e-038
30.902796 350.52448 -79.441261 2.3509886e-038
35.509007 349.06021 -79.109398 2.3509886e-038
40.299568 349.53989 -79.218109 2.3509886e-038
45.547363 353.46667 -80.10807 2.3509886e-038
51.496521 361.56992 -81.94455 2.3509886e-038
53.720898 365.32974 -82.796654 2.3509886e-038
-22.547876 357.15155 -85.788231 2.3509886e-038
-21.696604 355.31985 -85.348259 2.3509886e-038
-16.462599 346.608 -83.255661 2.3509886e-038
-11.633721 342.86841 -82.357407 2.3509886e-038
-6.9686909 342.19354 -82.195305 2.3509886e-038
-2.3319621 342.98788 -82.386108 2.3509886e-038
2.3366985 345.31607 -82.945343 2.3509886e-038
7.0960879 348.99979 -83.83017 2.3509886e-038
11.958117 352.763 -84.7341 2.3509886e-038
16.836172 354.71274 -85.202423 2.3509886e-038
21.635786 354.51038 -85.153816 2.3509886e-038
26.334749 353.03235 -84.798798 2.3509886e-038
30.987297 351.48297 -84.426628 2.3509886e-038
35.666103 350.60449 -84.21563 2.3509886e-038
40.535107 351.58286 -84.450623 2.3509886e-038
45.863712 355.92172 -85.492828 2.3509886e-038
51.890511 364.33621 -87.514 2.3509886e-038
58.50819 375.0751 -90.093491 2.3509886e-038
59.243793 376.29056 -90.385445 2.3509886e-038
-17.361538 353.68066 -89.752487 2.3509886e-038
-16.754566 352.75516 -89.517624 2.3509886e-038
-11.792533 347.54892 -88.196457 2.3509886e-038
-7.0407057 345.72977 -87.73481 2.3509886e-038
-2.349869 345.62167 -87.707375 2.3509886e-038
2.3492024 347.16388 -88.09874 2.3509886e-038
7.1187506 350.11438 -88.847481 2.3509886e-038
11.97575 353.28317 -89.651611 2.3509886e-038
16.851957 355.04529 -90.098785 2.3509886e-038
21.673128 355.12225 -90.118309 2.3509886e-038
26.424627 354.23724 -89.893723 2.3509886e-038
31.151402 353.34439 -89.667152 2.3509886e-038
35.914024 353.0416 -89.590309 2.3509886e-038
40.850761 354.32068 -89.914902 2.3509886e-038
46.18539 358.41806 -90.954674 2.3509886e-038
52.107334 365.85858 -92.842842 2.3509886e-038
58.541737 375.29016 -95.236267 2.3509886e-038
65.209351 385.00159 -97.700706 2.3509886e-038
-11.968466 354.68491 -94.818916 2.3509886e-038
-7.168334 351.99689 -94.100327 2.3509886e-038
-2.3842878 350.68402 -93.749344 2.3509886e-038
2.3748024 350.94702 -93.819656 2.3509886e-038
7.1728101 352.77313 -94.307838 2.3509886e-038
12.036096 355.06332 -94.920074 2.3509886e-038
16.92309 356.54395 -95.315903 2.3509886e-038
21.777399 356.83078 -95.392578 2.3509886e-038
26.583673 356.36932 -95.269218 2.3509886e-038
31.386341 356.00928 -95.172966 2.3509886e-038
36.238239 356.22867 -95.231613 2.3509886e-038
41.235847 357.66074 -95.614456 2.3509886e-038
46.524792 361.05194 -96.521034 2.3509886e-038
52.237522 366.77267 -98.050377 2.3509886e-038
58.442741 374.65555 -100.15772 2.3509886e-038
65.04155 383.59833 -102.54842 2.3509886e-038
70.362503 390.3765 -104.36045 2.3509886e-038
-6.9492517 360.64056 -101.30344 2.3509886e-038
-2.4327869 357.81732 -100.5104 2.3509886e-038
2.4111376 356.31665 -100.08886 2.3509886e-038
7.2523384 356.68451 -100.19219 2.3509886e-038
12.134083 357.95395 -100.54877 2.3509886e-038
17.046717 359.14856 -100.88434 2.3509886e-038
21.946125 359.5954 -101.00985 2.3509886e-038
26.804625 359.33127 -100.93567 2.3509886e-038
31.665865 359.17981 -100.89312 2.3509886e-038
36.592789 359.71396 -101.04317 2.3509886e-038
41.643955 361.20047 -101.46072 2.3509886e-038
46.875469 363.77335 -102.18343 2.3509886e-038
52.378269 367.76089 -103.30353 2.3509886e-038
58.351101 374.06805 -105.0752 2.3509886e-038
64.836792 382.39075 -107.41303 2.3509886e-038
71.520302 390.56049 -109.70791 2.3509886e-038
74.265366 393.47 -110.52518 2.3509886e-038
-0.88136047 365.22293 -107.54515 2.3509886e-038
2.4589179 363.37759 -107.00178 2.3509886e-038
7.3688869 362.4166 -106.71879 2.3509886e-038
12.29142 362.59537 -106.77143 2.3509886e-038
17.238317 363.18527 -106.94514 2.3509886e-038
22.178593 363.40445 -107.00968 2.3509886e-038
27.07835 363.00073 -106.89079 2.3509886e-038
31.972643 362.65955 -106.79033 2.3509886e-038
36.939152 363.1188 -106.92556 2.3509886e-038
42.022354 364.48254 -107.32714 2.3509886e-038
47.219048 366.43967 -107.90344 2.3509886e-038
52.575039 369.14249 -108.69933 2.3509886e-038
58.33392 373.95792 -110.11729 2.3509886e-038
64.645798 381.26431 -112.26877 2.3509886e-038
71.260246 389.14041 -114.588 2.3509886e-038
76.576927 394.14243 -116.06091 2.3509886e-038
7.2905912 371.27634 -114.36433 2.3509886e-038
7.5479846 371.22498 -114.34851 2.3509886e-038
12.569033 370.78491 -114.21295 2.3509886e-038
17.572104 370.21768 -114.03824 2.3509886e-038
22.529011 369.14624 -113.70819 2.3509886e-038
27.448822 367.96713 -113.34499 2.3509886e-038
32.363491 367.09286 -113.0757 2.3509886e-038
37.347267 367.13068 -113.08734 2.3509886e-038
42.442875 368.12994 -113.39515 2.3509886e-038
47.629326 369.6236 -113.85523 2.3509886e-038
52.894814 371.38766 -114.39862 2.3509886e-038
58.459255 374.76141 -115.43784 2.3509886e-038
64.520584 380.52579 -117.21344 2.3509886e-038
70.936676 387.37341 -119.32272 2.3509886e-038
76.952957 392.60956 -120.93561 2.3509886e-038
16.57799 381.7359 -122.76475 2.3509886e-038
18.065699 380.617 -122.40491 2.3509886e-038
23.00852 377.00314 -121.24271 2.3509886e-038
27.937704 374.52087 -120.44443 2.3509886e-038
32.871605 372.85629 -119.9091 2.3509886e-038
37.861038 372.18112 -119.69197 2.3509886e-038
42.949696 372.52588 -119.80284 2.3509886e-038
48.125244 373.47214 -120.10715 2.3509886e-038
53.328934 374.43576 -120.41705 2.3509886e-038
58.73103 376.50363 -121.08208 2.3509886e-038
64.518204 380.51178 -122.37108 2.3509886e-038
70.616562 385.62531 -124.01556 2.3509886e-038
75.508614 389.39221 -125.22699 2.3509886e-038
25.432495 384.3349 -128.81438 2.3509886e-038
28.506041 382.13974 -128.07866 2.3509886e-038
33.454979 379.47342 -127.18501 2.3509886e-038
38.439121 377.8638 -126.64552 2.3509886e-038
43.503498 377.32928 -126.46638 2.3509886e-038
48.638329 377.45389 -126.50815 2.3509886e-038
53.788967 377.66577 -126.57915 2.3509886e-038
59.081463 378.75015 -126.94259 2.3509886e-038
64.648071 381.27768 -127.78972 2.3509886e-038
70.429962 384.60638 -128.90538 2.3509886e-038
72.75428 385.96985 -129.36237 2.3509886e-038
34.291985 385.81924 -134.54581 2.3509886e-038
38.998669 383.36423 -133.68967 2.3509886e-038
44.046104 382.03561 -133.22635 2.3509886e-038
49.116688 381.16614 -132.92313 2.3509886e-038
54.215412 380.65994 -132.74661 2.3509886e-038
59.443504 381.07108 -132.88998 2.3509886e-038
64.886856 382.68597 -133.45314 2.3509886e-038
66.991203 383.53198 -133.74817 2.3509886e-038
-72.48584 368.47198 41.333019 2.3418052e-038
-73.287224 372.54572 30.269344 2.3418052e-038
-67.072182 366.20593 42.093281 2.3418052e-038
-68.617554 374.64343 21.471766 2.3418052e-038
-62.373203 367.79141 38.567429 2.3418052e-038
-63.522949 374.57104 13.149714 2.3418052e-038
-58.224319 373.17847 32.854103 2.3418052e-038
-58.988552 378.07666 4.6627116 2.3418052e-038
-53.371811 374.65225 25.667147 2.3418052e-038
-54.366264 381.63303 -2.8336842 2.3418052e-038
-48.746284 378.19739 19.4513 2.3418052e-038
-49.1446 381.28772 -10.392407 2.3418052e-038
-43.415096 336.83545 -21.016865 2.3509886e-038
-42.577927 330.3403 -28.58194 2.3509886e-038
-43.690601 378.84659 13.651755 2.3418052e-038
-38.86459 336.99963 -36.437695 2.3509886e-038
-38.433002 377.68466 6.8463612 2.3418052e-038
-36.71711 360.82239 -70.866127 2.3509886e-038
-33.357899 378.23447 0.19829018 2.3418052e-038
-31.895082 361.64804 -77.929932 2.3509886e-038
-27.874022 373.50665 69.032791 2.3509528e-038
-26.116339 349.95407 37.538597 2.3509528e-038
-28.296431 379.16687 -3.780643 2.3509886e-038
-26.876749 360.14343 -82.208893 2.3509886e-038
-22.724957 372.16095 65.140602 2.3509528e-038
-22.736563 372.35098 15.695453 2.3509886e-038
-23.221016 380.28479 -4.3558741 2.3509886e-038
-21.769863 356.51962 -86.433159 2.3509886e-038
-17.587887 370.30014 52.11301 2.3509528e-038
-16.789534 353.49139 -90.179092 2.3509886e-038
-12.008329 353.90884 39.501923 2.3509528e-038
-12.032767 354.62909 -94.740562 2.3509886e-038
-7.089016 348.10202 33.00285 2.3509528e-038
-7.3354998 360.20547 -100.83104 2.3509886e-038
-2.363795 347.66992 28.84473 2.3509886e-038
-2.4761891 364.20099 -106.06029 2.3509886e-038
2.3489573 347.12769 24.541454 2.3509886e-038
2.4857166 367.33789 -110.38688 2.3509886e-038
7.0777607 348.09842 19.577251 2.3509886e-038
7.5547042 371.55548 -114.59788 2.3509886e-038
11.93887 352.19522 12.073977 2.3509886e-038
12.811331 377.93271 -119.46584 2.3509886e-038
17.087727 360.0126 1.9445766 2.3509886e-038
18.16431 382.69461 -123.98292 2.3509886e-038
21.816479 357.4711 -1.6268009 2.3418409e-038
23.434406 383.98145 -127.51018 2.3509886e-038
26.237463 351.72818 1.1840155 2.3418409e-038
28.719973 385.00763 -130.9823 2.3509886e-038
30.410309 344.93829 9.5003729 2.3418409e-038
34.011787 385.78918 -134.3708 2.3509886e-038
35.006435 344.11981 23.625381 2.3418409e-038
39.269348 386.02509 -137.20454 2.3509886e-038
39.516636 342.74908 38.860847 2.3418409e-038
44.46357 385.65652 -138.79176 2.3509886e-038
44.088509 342.14536 41.817978 2.3418409e-038
45.61974 354.02838 4.4232612 2.3509886e-038
45.471706 352.87955 -25.823715 2.3509886e-038
49.522938 384.31879 -138.97565 2.3509886e-038
51.073944 358.60287 -77.511368 2.3509886e-038
54.548164 382.99625 -138.16141 2.3509886e-038
58.490711 374.96304 -89.449745 2.3509886e-038
59.675407 382.55771 -136.69722 2.3509886e-038
65.29686 385.1041 -97.807701 2.3509886e-038
64.967056 383.159 -134.70183 2.3509886e-038
71.704346 391.56552 -106.32052 2.3509886e-038
70.417961 384.54083 -131.52835 2.3509886e-038
