# .PCD v0.7 - Point Cloud Data file format
VERSION 0.7
FIELDS x y z rgb
SIZE 4 4 4 4
TYPE F F F F
COUNT 1 1 1 1
WIDTH 885
HEIGHT 1
VIEWPOINT 0 0 0 1 0 0 0
POINTS 885
DATA ascii
-65.033287 373.19794 36.910786 2.3418052e-038
16.889862 358.6174 55.736546 9.1476764e-041
-92.593903 333.22348 -69.053078 3.5733111e-043
-21.413418 378.88727 58.886906 2.3509528e-038
62.506252 340.3017 25.643591 2.3418409e-038
-25.811947 380.52014 64.281807 2.3509528e-038
-22.875389 379.97705 64.190071 2.3509528e-038
-18.960606 380.11746 64.213791 2.3509528e-038
14.984342 361.1123 61.003216 9.1476764e-041
17.953966 362.06332 61.163872 9.1476764e-041
19.645548 363.11511 61.341549 9.1476764e-041
-27.749517 380.56781 59.067039 2.3509528e-038
-22.785748 378.48804 58.744244 2.3509528e-038
-17.568132 377.98596 58.666317 2.3509528e-038
-15.829885 378.40134 58.730789 2.3509528e-038
12.046171 360.2283 55.910191 9.1476764e-041
12.907561 359.9007 55.859344 9.1476764e-041
17.878078 360.53296 55.957481 9.1476764e-041
21.716738 363.05615 56.349098 9.1476764e-041
-28.144405 381.34296 53.953903 2.3509528e-038
-22.744356 377.80051 53.452705 2.3509528e-038
-17.497749 376.47165 53.264694 2.3509528e-038
-14.057458 377.27161 53.377872 2.3509528e-038
11.262682 359.05966 50.801178 9.1476764e-041
12.853211 358.38525 50.705761 9.1476764e-041
17.813076 359.22211 50.824162 9.1476764e-041
22.011219 362.12589 51.234997 9.1476764e-041
-28.055786 383.41867 48.985641 2.3509528e-038
-22.752783 377.94046 48.28574 2.3509528e-038
-17.451902 375.4852 47.972061 2.3509528e-038
-12.594431 376.9126 48.154427 2.3509528e-038
10.876914 356.85254 45.591545 9.1476764e-041
12.77465 356.19473 45.507507 9.1476764e-041
17.724346 357.43274 45.665672 9.1476764e-041
21.982561 360.74722 46.08913 9.1476764e-041
-68.836143 375.95877 42.872993 2.3418052e-038
-63.8009 375.31714 42.799824 2.3418052e-038
-63.743958 375.32391 42.800598 2.3418052e-038
-27.638674 385.92532 44.009544 2.3509528e-038
-22.786993 378.50876 43.163784 2.3509528e-038
-17.403727 374.44873 42.700794 2.3509528e-038
-12.302248 375.58951 42.830887 2.3509528e-038
-11.315644 376.19678 42.900135 2.3509528e-038
10.286262 354.76797 40.456474 9.1476764e-041
12.697493 354.04337 40.37384 9.1476764e-041
17.63106 355.55154 40.54583 9.1476764e-041
21.895903 359.22635 40.96489 9.1476764e-041
-70.847099 374.9549 37.612736 2.3418052e-038
-68.712074 374.01297 37.51825 2.3418052e-038
-63.471825 373.38129 37.454884 2.3418052e-038
-58.968391 376.02313 37.719894 2.3418052e-038
-26.821381 385.72406 38.693024 2.3509528e-038
-22.767769 378.18942 37.937199 2.3509528e-038
-17.339983 373.07718 37.424377 2.3509528e-038
-12.255745 374.16977 37.533978 2.3509528e-038
-10.244476 375.44949 37.66235 2.3509528e-038
9.2440462 353.78363 35.488991 9.1476764e-041
12.641811 352.49081 35.359303 9.1476764e-041
17.557573 354.06958 35.517673 9.1476764e-041
21.817368 357.9379 35.905716 9.1476764e-041
-70.228531 374.31479 32.41153 2.3418052e-038
-68.624947 373.53873 32.344334 2.3418052e-038
-63.338436 372.59665 32.26276 2.3418052e-038
-58.63372 375.21207 32.489227 2.3418052e-038
-56.435192 378.30652 32.757172 2.3418052e-038
-25.876301 382.70303 33.137863 2.3509528e-038
-22.676779 376.67798 32.616161 2.3509528e-038
-17.255142 371.25186 32.146317 2.3509528e-038
-12.181621 371.90677 32.203022 2.3509886e-038
-9.249402 373.48096 32.339333 2.3509886e-038
7.8281016 354.09402 30.660639 9.1476764e-041
7.8395109 354.08066 30.659477 9.1476764e-041
12.600122 351.32837 30.421162 9.1476764e-041
17.487019 352.64676 30.535322 9.1476764e-041
21.709032 356.16055 30.839575 9.1476764e-041
62.004189 340.5325 29.486361 2.3418409e-038
63.898376 342.02194 29.615328 2.3418409e-038
67.849625 345.793 29.94186 2.3418409e-038
-68.535576 373.24677 27.196703 2.3418052e-038
-63.127605 371.35638 27.058962 2.3418052e-038
-58.286236 372.98843 27.177881 2.3418052e-038
-53.960243 378.55008 27.583132 2.3418052e-038
-53.91227 378.64078 27.589741 2.3418052e-038
-25.221058 380.08005 27.694613 2.3509528e-038
-22.596684 375.34753 27.349775 2.3509528e-038
-17.177752 369.58673 26.930016 2.3509528e-038
-12.088009 369.04877 26.890816 2.3509886e-038
-8.3577566 370.14111 26.970411 2.3509886e-038
6.6338201 355.21341 25.882698 9.1476764e-041
7.8306665 353.68115 25.771051 9.1476764e-041
12.575664 350.64639 25.549925 9.1476764e-041
17.424915 351.39438 25.604425 9.1476764e-041
21.589359 354.19717 25.808651 9.1476764e-041
56.189739 336.44894 24.515423 2.3418409e-038
58.358326 337.13336 24.565292 2.3418409e-038
63.660831 340.75046 24.828854 2.3418409e-038
68.782623 345.90155 25.204189 2.3418409e-038
-66.29155 371.37909 21.963896 2.3418052e-038
-62.809586 369.4856 21.851913 2.3418052e-038
-57.724087 369.39111 21.846327 2.3418052e-038
-53.143589 372.82101 22.049173 2.3418052e-038
-50.755806 375.8288 22.22706 2.3418052e-038
-24.518002 378.93283 22.410637 2.3509528e-038
-22.603319 375.45776 22.205116 2.3509528e-038
-17.138893 368.75067 21.808449 2.3509528e-038
-12.017655 366.90085 21.699049 2.3509528e-038
-7.671556 367.39844 21.728476 2.3509886e-038
5.9611025 356.68295 21.094748 2.3509886e-038
7.8432422 354.24915 20.950809 9.1476764e-041
12.579197 350.74493 20.743565 9.1476764e-041
17.396629 350.82394 20.748238 9.1476764e-041
21.52471 353.13654 20.885008 9.1476764e-041
52.721981 335.43674 19.838215 2.3418409e-038
53.434067 335.26642 19.82814 2.3418409e-038
58.191902 336.17194 19.881695 2.3418409e-038
63.521004 340.00201 20.108212 2.3418409e-038
67.200142 343.9758 20.343227 2.3418409e-038
-63.943291 369.09241 16.763336 2.3418052e-038
-62.58873 368.18637 16.722189 2.3418052e-038
-57.283257 366.57013 16.648781 2.3418052e-038
-52.514275 368.40613 16.732168 2.3418052e-038
-47.9911 372.54166 16.919994 2.3418052e-038
-47.255814 373.36041 16.957182 2.3509886e-038
-23.411997 376.84622 17.115498 2.3509528e-038
-22.600929 375.41803 17.050632 2.3509528e-038
-17.111626 368.164 16.721172 2.3509528e-038
-11.981777 365.80548 16.614054 2.3509528e-038
-6.9738078 366.44818 16.643244 2.3509886e-038
-6.8818808 366.46817 16.64415 2.3509886e-038
5.5835013 358.35422 16.275633 9.1476764e-041
7.8656936 355.26321 16.135248 9.1476764e-041
12.599669 351.31573 15.955962 9.1476764e-041
17.399883 350.88956 15.936605 9.1476764e-041
21.517555 353.01627 16.033195 9.1476764e-041
49.725914 334.90436 15.210595 2.3418409e-038
53.309631 334.48566 15.191577 2.3418409e-038
58.062492 335.42435 15.234211 2.3418409e-038
63.342609 339.04712 15.39875 2.3418409e-038
64.561249 340.284 15.454925 2.3418409e-038
-61.907455 368.03635 11.664544 2.3418052e-038
-57.166382 365.82224 11.594369 2.3418052e-038
-52.223957 366.36945 11.611713 2.3418052e-038
-47.606785 369.55835 11.712781 2.3418052e-038
-43.931881 373.99216 11.853307 2.3509886e-038
-22.085463 373.54758 11.839216 2.3509528e-038
-17.073984 367.35413 11.64292 2.3509528e-038
-11.957117 365.05261 11.569977 2.3509528e-038
-6.9626365 365.86118 11.595604 2.3509886e-038
-5.6113691 366.29068 11.609217 2.3509886e-038
4.9548931 359.94409 11.408069 9.1476764e-041
7.8803635 355.92581 11.280712 9.1476764e-041
12.622971 351.96545 11.155192 9.1476764e-041
17.418766 351.27039 11.133163 9.1476764e-041
21.532625 353.18021 11.193693 9.1476764e-041
46.859196 335.35699 10.628803 2.3418409e-038
48.793728 334.99713 10.617398 2.3418409e-038
53.387367 334.97339 10.616646 2.3418409e-038
58.132607 335.82938 10.643776 2.3418409e-038
61.876141 337.94852 10.71094 2.3418409e-038
-60.119381 368.60065 6.6238413 2.3418052e-038
-57.359299 367.05676 6.5960975 2.3418052e-038
-52.194588 366.16339 6.5800438 2.3418052e-038
-47.382965 367.82089 6.6098285 2.3418052e-038
-42.814919 371.98987 6.6847467 2.3418052e-038
-40.891064 374.45804 6.7291002 2.3509886e-038
-20.990093 370.55402 6.6589437 2.3509528e-038
-17.034388 366.5022 6.5861316 2.3509528e-038
-11.924453 364.05536 6.5421615 2.3509886e-038
-6.9332056 364.3147 6.5468221 2.3509886e-038
-3.3246417 365.04276 6.5599051 2.3509886e-038
3.1694033 361.4718 6.4957342 2.3509886e-038
7.8785138 355.84225 6.3945704 9.1476764e-041
12.637779 352.37836 6.3323231 9.1476764e-041
17.433554 351.56857 6.317771 9.1476764e-041
21.579733 353.18311 6.3467841 9.1476764e-041
43.7066 336.55405 6.047956 2.3418409e-038
44.374905 336.35086 6.0443048 2.3418409e-038
48.940128 336.00226 6.0380402 2.3418409e-038
53.668255 336.73578 6.0512223 2.3418409e-038
58.53437 338.15033 6.076642 2.3418409e-038
59.623177 338.70956 6.0866914 2.3418409e-038
-58.170033 369.79016 1.5703057 2.3418052e-038
-57.738895 369.48587 1.5690135 2.3418052e-038
-52.293991 366.86075 1.5578659 2.3418052e-038
-47.192688 366.34381 1.5556709 2.3418052e-038
-42.370491 368.12854 1.5632495 2.3418052e-038
-37.654976 371.44888 1.5773493 2.3418052e-038
-37.575451 371.50793 1.5776001 2.3509886e-038
-20.718662 369.04578 1.5671445 2.3509528e-038
-17.00453 365.85983 1.5536156 2.3509886e-038
-11.885489 362.86581 1.5409015 2.3509886e-038
-6.8880954 361.94431 1.5369884 2.3509886e-038
-1.9197016 361.72638 1.536063 2.3509886e-038
3.0238237 359.26447 1.5256084 2.3509886e-038
7.8656731 355.26227 1.5086132 9.1476764e-041
12.63898 352.41183 1.496509 9.1476764e-041
17.426596 351.42828 1.4923322 9.1476764e-041
21.89362 352.87579 1.4984791 9.1476764e-041
40.035965 338.62799 1.4379761 2.3509886e-038
44.484039 337.17804 1.4318191 2.3418409e-038
49.14183 337.38705 1.4327065 2.3418409e-038
54.043526 339.09036 1.4399396 2.3418409e-038
57.517044 341.06616 1.4483298 2.3418409e-038
-55.74913 371.0787 -3.5168047 2.3418052e-038
-52.557266 368.7077 -3.4943342 2.3418052e-038
-47.138466 365.92291 -3.467942 2.3418052e-038
-42.032936 365.19574 -3.4610505 2.3418052e-038
-37.126392 366.23462 -3.4708962 2.3418052e-038
-33.207756 367.41946 -3.482125 2.3509886e-038
-22.37369 366.71866 -3.4754834 2.3509886e-038
-22.069832 366.59616 -3.4743226 2.3509886e-038
-16.921354 364.07025 -3.4503837 2.3509886e-038
-11.843894 361.59589 -3.426934 2.3509886e-038
-6.8508115 359.9852 -3.4116688 2.3509886e-038
-1.905138 358.98218 -3.4021628 2.3509886e-038
3.0070691 357.2738 -3.3859725 2.3509886e-038
7.8535371 354.71411 -3.3617136 2.3509886e-038
12.631912 352.21478 -3.3380265 9.1476764e-041
17.388985 350.6698 -3.3233845 9.1476764e-041
22.211596 350.82938 -3.3248968 9.1476764e-041
23.103884 350.92169 -3.3257718 9.1476764e-041
35.352154 341.18887 -3.2335315 2.3509886e-038
35.632187 341.03369 -3.2320607 2.3509886e-038
40.10207 339.25391 -3.2151933 2.3418409e-038
44.632885 338.30627 -3.2062123 2.3418409e-038
49.341217 338.75592 -3.2104738 2.3418409e-038
54.3843 341.22855 -3.2339072 2.3418409e-038
55.095181 341.81674 -3.2394819 2.3418409e-038
-52.941765 372.01807 -8.6311951 2.3418052e-038
-47.303219 367.20184 -8.519453 2.3418052e-038
-41.923153 364.24191 -8.4507799 2.3418052e-038
-36.82275 363.23938 -8.4275208 2.3509886e-038
-31.802893 362.84177 -8.4182949 2.3509886e-038
-26.790266 362.39407 -8.4079084 2.3509886e-038
-21.80632 362.21902 -8.4038467 2.3509886e-038
-16.806292 361.5946 -8.3893604 2.3509886e-038
-11.80157 360.30374 -8.3594103 2.3509886e-038
-6.8276739 358.76938 -8.3238115 2.3509886e-038
-1.8975742 357.55695 -8.295682 2.3509886e-038
2.9990685 356.32327 -8.2670603 2.3509886e-038
7.8493776 354.52628 -8.2253675 2.3509886e-038
12.627926 352.10361 -8.1691589 2.3509886e-038
17.347464 349.83252 -8.1164665 2.3509886e-038
22.047014 348.22983 -8.0792837 2.3509886e-038
26.694418 346.52127 -8.0396433 2.3509886e-038
31.201889 343.7876 -7.9762201 2.3509886e-038
35.704838 341.72903 -7.9284592 2.3509886e-038
40.24585 340.47025 -7.8992538 2.3418409e-038
44.82103 339.73239 -7.882134 2.3418409e-038
49.55479 340.22226 -7.8934999 2.3418409e-038
52.646828 341.61441 -7.9257989 2.3418409e-038
-50.311718 373.29492 -13.783816 2.3418052e-038
-47.734829 370.55231 -13.682545 2.3418052e-038
-42.054493 365.38306 -13.491673 2.3418052e-038
-36.717518 362.20129 -13.374187 2.3509886e-038
-31.598904 360.51447 -13.311901 2.3509886e-038
-26.596634 359.77481 -13.284589 2.3509886e-038
-21.654247 359.69299 -13.281568 2.3509886e-038
-16.71563 359.64395 -13.279758 2.3509886e-038
-11.759173 359.00937 -13.256326 2.3509886e-038
-6.8096061 357.82001 -13.212409 2.3509886e-038
-1.8935722 356.80286 -13.17485 2.3509886e-038
2.995553 355.90558 -13.14172 2.3509886e-038
7.848372 354.48087 -13.089112 2.3509886e-038
12.628633 352.12335 -13.002061 2.3509886e-038
17.329039 349.46094 -12.903751 2.3509886e-038
21.97912 347.15741 -12.818696 2.3509886e-038
26.599171 345.28485 -12.749552 2.3509886e-038
31.184481 343.59579 -12.687184 2.3509886e-038
35.781025 342.45822 -12.645179 2.3418409e-038
40.396564 341.74527 -12.618853 2.3418409e-038
45.043407 341.41794 -12.606767 2.3418409e-038
49.895813 342.56357 -12.649069 2.3418409e-038
50.633305 343.02774 -12.666208 2.3418409e-038
-48.348663 375.96564 -19.042093 2.3509886e-038
-42.383461 368.24124 -18.650866 2.3509886e-038
-36.76123 362.63248 -18.366789 2.3509886e-038
-31.522621 359.6441 -18.215433 2.3509886e-038
-26.514694 358.66638 -18.165913 2.3509886e-038
-21.581404 358.483 -18.156624 2.3509886e-038
-16.656216 358.36569 -18.150684 2.3509886e-038
-11.71743 357.73495 -18.118738 2.3509886e-038
-6.7868805 356.62585 -18.062563 2.3509886e-038
-1.887954 355.7442 -18.017908 2.3509886e-038
2.9883976 355.05545 -17.983025 2.3509886e-038
7.8359013 353.91763 -17.925394 2.3509886e-038
12.619229 351.86115 -17.821238 2.3509886e-038
17.325264 349.3848 -17.695814 2.3509886e-038
21.984404 347.24091 -17.587229 2.3509886e-038
26.619602 345.55005 -17.501591 2.3509886e-038
31.220461 343.99225 -17.422689 2.3509886e-038
35.829552 342.9227 -17.368517 2.3418409e-038
40.495255 342.58017 -17.351171 2.3418409e-038
45.266239 343.10696 -17.377851 2.3418409e-038
49.030258 345.00726 -17.4741 2.3418409e-038
-46.842495 378.1611 -24.343082 2.3509886e-038
-42.752964 371.4516 -23.911177 2.3509886e-038
-36.851597 363.5239 -23.400854 2.3509886e-038
-31.482599 359.18753 -23.121714 2.3509886e-038
-26.448862 357.77588 -23.03084 2.3509886e-038
-21.51956 357.45572 -23.010231 2.3509886e-038
-16.602905 357.21869 -22.994972 2.3509886e-038
-11.677659 356.52072 -22.950043 2.3509886e-038
-6.7644725 355.44839 -22.881016 2.3509886e-038
-1.881955 354.61383 -22.827293 2.3509886e-038
2.9795518 354.00446 -22.788065 2.3509886e-038
7.816638 353.04755 -22.726467 2.3509886e-038
12.599206 351.30283 -22.614157 2.3509886e-038
17.316233 349.20267 -22.478964 2.3509886e-038
21.997564 347.44873 -22.36606 2.3509886e-038
26.65394 345.99582 -22.272532 2.3509886e-038
31.254843 344.37109 -22.167944 2.3509886e-038
35.856483 343.18045 -22.091299 2.3418409e-038
40.557781 343.10916 -22.086712 2.3418409e-038
45.447189 344.47849 -22.174858 2.3418409e-038
47.917091 346.07379 -22.277554 2.3418409e-038
-45.010963 377.31818 -29.467018 2.3509886e-038
-42.997593 373.577 -29.174847 2.3509886e-038
-36.902622 364.02725 -28.429052 2.3509886e-038
-31.437366 358.67145 -28.010786 2.3509886e-038
-26.370039 356.70963 -27.857576 2.3509886e-038
-21.442173 356.17026 -27.815453 2.3509886e-038
-16.541384 355.89505 -27.793959 2.3509886e-038
-11.63927 355.34869 -27.751293 2.3509886e-038
-6.7469997 354.53027 -27.687376 2.3509886e-038
-1.8775586 353.78543 -27.629206 2.3509886e-038
2.9726877 353.18896 -27.582624 2.3509886e-038
7.800015 352.29678 -27.512949 2.3509886e-038
12.578623 350.72891 -27.390505 2.3509886e-038
17.301653 348.90863 -27.248348 2.3509886e-038
21.99548 347.4158 -27.131763 2.3509886e-038
26.661758 346.09732 -27.028797 2.3509886e-038
31.264246 344.47467 -26.902075 2.3509886e-038
35.867928 343.28995 -26.809551 2.3509886e-038
40.594574 343.42038 -26.81974 2.3418409e-038
45.54932 345.25262 -26.96283 2.3418409e-038
47.354889 346.49866 -27.060141 2.3418409e-038
-42.995316 373.48773 -34.293533 2.3509886e-038
-42.985172 373.46909 -34.291824 2.3509886e-038
-36.86734 363.6792 -33.392918 2.3509886e-038
-31.381243 358.03113 -32.874313 2.3509886e-038
-26.292713 355.66364 -32.656929 2.3509886e-038
-21.36599 354.90482 -32.587254 2.3509886e-038
-16.479565 354.56497 -32.556049 2.3509886e-038
-11.602758 354.23398 -32.525658 2.3509886e-038
-6.7339225 353.84308 -32.489769 2.3509886e-038
-1.8750995 353.32205 -32.441925 2.3509886e-038
2.9691436 352.76785 -32.391041 2.3509886e-038
7.7910352 351.8912 -32.310547 2.3509886e-038
12.567876 350.42926 -32.176311 2.3509886e-038
17.296812 348.811 -32.027721 2.3509886e-038
21.999531 347.4798 -31.905491 2.3509886e-038
26.669271 346.19482 -31.787508 2.3509886e-038
31.267651 344.51218 -31.633005 2.3509886e-038
35.865242 343.26428 -31.518425 2.3509886e-038
40.587421 343.35989 -31.527203 2.3509886e-038
45.537415 345.16238 -31.692709 2.3418409e-038
47.119827 346.20673 -31.788599 2.3418409e-038
-41.717117 369.14166 -38.960491 2.3509886e-038
-36.729038 362.31494 -38.239975 2.3509886e-038
-31.298372 357.08566 -37.688057 2.3509886e-038
-26.220854 354.69159 -37.435379 2.3509886e-038
-21.309269 353.96265 -37.358444 2.3509886e-038
-16.434792 353.60165 -37.320347 2.3509886e-038
-11.573552 353.34232 -37.292973 2.3509886e-038
-6.7224994 353.24286 -37.282475 2.3509886e-038
-1.8735851 353.03674 -37.260719 2.3509886e-038
2.9676654 352.59222 -37.213806 2.3509886e-038
7.787168 351.71652 -37.12138 2.3509886e-038
12.566271 350.38452 -36.980797 2.3509886e-038
17.307793 349.03244 -36.838093 2.3509886e-038
22.029217 347.9487 -36.723709 2.3509886e-038
26.708517 346.70428 -36.592373 2.3509886e-038
31.29138 344.77362 -36.388603 2.3509886e-038
35.852222 343.13968 -36.216152 2.3509886e-038
40.516747 342.76196 -36.176285 2.3509886e-038
45.393681 344.07291 -36.314648 2.3509886e-038
46.92149 344.96875 -36.409195 2.3509886e-038
-41.422703 365.65967 -43.611214 2.3509886e-038
-36.486755 359.92496 -42.92725 2.3509886e-038
-31.149143 355.38309 -42.385555 2.3509886e-038
-26.123795 353.37866 -42.146492 2.3509886e-038
-21.248127 352.94702 -42.095013 2.3509886e-038
-16.394327 352.73102 -42.069248 2.3509886e-038
-11.548679 352.58295 -42.05159 2.3509886e-038
-6.7124977 352.71732 -42.067612 2.3509886e-038
-1.872499 352.83206 -42.081299 2.3509886e-038
2.9669335 352.50528 -42.042328 2.3509886e-038
7.7846189 351.60138 -41.934525 2.3509886e-038
12.565589 350.36548 -41.787121 2.3509886e-038
17.319859 349.27576 -41.657154 2.3509886e-038
22.059578 348.42825 -41.556072 2.3509886e-038
26.745831 347.18863 -41.408222 2.3509886e-038
31.309006 344.96783 -41.143356 2.3509886e-038
35.826313 342.89169 -40.895741 2.3509886e-038
40.434505 342.06625 -40.797295 2.3509886e-038
45.277924 343.1955 -40.931973 2.3509886e-038
46.804218 344.13605 -41.044155 2.3509886e-038
-42.096756 362.51999 -48.211861 2.3509886e-038
-41.672279 362.06226 -48.150986 2.3509886e-038
-36.144928 356.55295 -47.418304 2.3509886e-038
-30.93681 352.96057 -46.940548 2.3509886e-038
-25.995745 351.64651 -46.765789 2.3509886e-038
-21.166378 351.58911 -46.758156 2.3509886e-038
-16.34479 351.66519 -46.768272 2.3509886e-038
-11.524554 351.84641 -46.792374 2.3509886e-038
-6.7052584 352.33691 -46.857605 2.3509886e-038
-1.8720855 352.75415 -46.913094 2.3509886e-038
2.9671268 352.52826 -46.883053 2.3509886e-038
7.7840457 351.5755 -46.756348 2.3509886e-038
12.564262 350.32849 -46.590508 2.3509886e-038
17.323858 349.35645 -46.461231 2.3509886e-038
22.068024 348.56165 -46.35553 2.3509886e-038
26.747818 347.21442 -46.176361 2.3509886e-038
31.29517 344.81537 -45.857311 2.3509886e-038
35.790451 342.54843 -45.555828 2.3509886e-038
40.393497 341.71933 -45.445564 2.3509886e-038
45.294804 343.32343 -45.658897 2.3509886e-038
46.85569 344.50882 -45.816544 2.3509886e-038
-43.714596 357.83505 -52.499653 2.3509886e-038
-40.955692 355.8363 -52.206409 2.3509886e-038
-35.733475 352.49417 -51.716068 2.3509886e-038
-30.719154 350.47729 -51.420162 2.3509886e-038
-25.870893 349.95764 -51.343922 2.3509886e-038
-21.078226 350.12485 -51.36845 2.3509886e-038
-16.289852 350.48322 -51.421028 2.3509886e-038
-11.501571 351.14471 -51.518078 2.3509886e-038
-6.7011681 352.12198 -51.661461 2.3509886e-038
-1.8725953 352.85019 -51.768303 2.3509886e-038
2.9691641 352.77029 -51.75658 2.3509886e-038
7.7896113 351.82687 -51.618168 2.3509886e-038
12.570301 350.49689 -51.423035 2.3509886e-038
17.327923 349.43842 -51.267742 2.3509886e-038
22.060753 348.44681 -51.122261 2.3509886e-038
26.720451 346.85919 -50.889332 2.3509886e-038
31.257305 344.39816 -50.528267 2.3509886e-038
35.756023 342.21893 -50.208538 2.3509886e-038
40.397839 341.75604 -50.140625 2.3509886e-038
45.381741 343.98239 -50.467262 2.3509886e-038
46.974915 345.32507 -50.664257 2.3509886e-038
-46.505627 352.05362 -56.482929 3.5733111e-043
-45.298157 351.63705 -56.4161 3.5733111e-043
-40.276215 349.9328 -56.14267 3.5733111e-043
-35.354366 348.75439 -55.953609 2.3509886e-038
-30.536032 348.38803 -55.894833 2.3509886e-038
-25.76824 348.56903 -55.92387 2.3509886e-038
-21.000591 348.8353 -55.966587 2.3509886e-038
-16.240337 349.41788 -56.060055 2.3509886e-038
-11.480479 350.50079 -56.233799 2.3509886e-038
-6.6961856 351.86017 -56.451893 2.3509886e-038
-1.8726505 352.8606 -56.612404 2.3509886e-038
2.9714305 353.03955 -56.641113 2.3509886e-038
7.8000164 352.29681 -56.521954 2.3509886e-038
12.587884 350.98712 -56.311829 2.3509886e-038
17.343903 349.76068 -56.115059 2.3509886e-038
22.058594 348.41269 -55.898785 2.3509886e-038
26.692049 346.49051 -55.590393 2.3509886e-038
31.220987 343.99805 -55.190506 2.3509886e-038
35.731682 341.98596 -54.867691 2.3509886e-038
40.407272 341.83588 -54.843616 2.3509886e-038
45.420956 344.27963 -55.235687 2.3509886e-038
47.053654 345.6105 -55.449207 2.3509886e-038
-51.214809 346.62625 -60.36919 3.5733111e-043
-49.396725 346.5354 -60.353367 3.5733111e-043
-44.583336 346.0881 -60.275467 3.5733111e-043
-39.780079 345.62222 -60.194321 3.5733111e-043
-35.059906 345.84973 -60.233948 2.3509886e-038
-30.375814 346.56012 -60.35767 2.3509886e-038
-25.666616 347.19437 -60.468132 2.3509886e-038
-20.923552 347.55557 -60.531044 2.3509886e-038
-16.189287 348.31946 -60.664085 2.3509886e-038
-11.453773 349.68542 -60.901981 2.3509886e-038
-6.6855588 351.30176 -61.183487 2.3509886e-038
-1.8711143 352.57114 -61.40456 2.3509886e-038
2.9719179 353.09747 -61.496231 2.3509886e-038
7.8086934 352.68872 -61.425041 2.3509886e-038
12.6074 351.53134 -61.223465 2.3509886e-038
17.366348 350.21329 -60.993912 2.3509886e-038
22.068478 348.56882 -60.707512 2.3509886e-038
26.681511 346.3537 -60.321724 2.3509886e-038
31.203672 343.80725 -59.878227 2.3509886e-038
35.723309 341.90582 -59.54707 2.3509886e-038
40.415115 341.90222 -59.54644 2.3509886e-038
45.419094 344.26553 -59.958038 2.3509886e-038
47.196491 345.59958 -60.190384 2.3509886e-038
-91.236374 329.44809 -61.89867 3.5733111e-043
-87.648842 329.43491 -61.896191 3.5733111e-043
-83.463821 330.76666 -62.146416 3.5733111e-043
-79.255127 332.15244 -62.406776 3.5733111e-043
-74.918839 333.14001 -62.592327 3.5733111e-043
-70.625832 334.46094 -62.840515 3.5733111e-043
-66.404144 336.3266 -63.19104 3.5733111e-043
-62.132778 338.20065 -63.543156 3.5733111e-043
-57.741669 339.67291 -63.819775 3.5733111e-043
-53.281815 340.96387 -64.062317 3.5733111e-043
-48.726379 341.8327 -64.225563 3.5733111e-043
-44.092098 342.27478 -64.308632 3.5733111e-043
-39.440407 342.67105 -64.383072 3.5733111e-043
-34.819683 343.48001 -64.535072 2.3509886e-038
-30.196594 344.51538 -64.729599 2.3509886e-038
-25.531048 345.3605 -64.88839 2.3509886e-038
-20.824978 345.91821 -64.993172 2.3509886e-038
-16.121939 346.87048 -65.172089 2.3509886e-038
-11.412386 348.42191 -65.463577 2.3509886e-038
-6.6658139 350.26422 -65.809723 2.3509886e-038
-1.8673635 351.86438 -66.110374 2.3509886e-038
2.969388 352.79688 -66.285583 2.3509886e-038
7.8104248 352.76694 -66.279953 2.3509886e-038
12.618647 351.84491 -66.106712 2.3509886e-038
17.383772 350.56467 -65.866173 2.3509886e-038
22.083988 348.81381 -65.537216 2.3509886e-038
26.690657 346.47241 -65.097305 2.3509886e-038
31.211744 343.89621 -64.613266 2.3509886e-038
35.739243 342.05832 -64.267952 2.3509886e-038
40.445641 342.16046 -64.287148 2.3509886e-038
45.454704 344.53543 -64.733368 2.3509886e-038
47.422535 345.98611 -65.005936 2.3509886e-038
-98.589531 334.31683 -67.401497 3.5733111e-043
-98.003731 333.90744 -67.31897 3.5733111e-043
-92.673904 331.23624 -66.780426 3.5733111e-043
-87.899712 330.37784 -66.607361 3.5733111e-043
-83.394516 330.492 -66.630386 3.5733111e-043
-79.017853 331.15805 -66.764664 3.5733111e-043
-74.695999 332.14911 -66.96447 3.5733111e-043
-70.379021 333.29208 -67.194901 3.5733111e-043
-66.042557 334.49521 -67.437462 3.5733111e-043
-61.67152 335.68994 -67.678329 3.5733111e-043
-57.255932 336.81552 -67.905266 3.5733111e-043
-52.789452 337.81314 -68.106392 3.5733111e-043
-48.267509 338.61356 -68.267761 3.5733111e-043
-43.708229 339.29492 -68.405128 3.5733111e-043
-39.136116 340.02725 -68.55278 2.3509886e-038
-34.559067 340.90918 -68.730583 2.3509886e-038
-29.96946 341.92398 -68.935181 2.3509886e-038
-25.349394 342.90326 -69.132614 2.3509886e-038
-20.694952 343.75839 -69.305008 2.3509886e-038
-16.032112 344.93784 -69.542793 2.3509886e-038
-11.353909 346.6366 -69.885284 2.3509886e-038
-6.6359067 348.69272 -70.29982 2.3509886e-038
-1.8611163 350.68723 -70.701935 2.3509886e-038
2.9636827 352.11902 -70.990601 2.3509886e-038
7.8057985 352.55798 -71.079094 2.3509886e-038
12.622129 351.94202 -70.954903 2.3509886e-038
17.392153 350.7337 -70.711296 2.3509886e-038
22.094553 348.98065 -70.357872 2.3509886e-038
26.708263 346.70099 -69.89827 2.3509886e-038
31.244276 344.25464 -69.40506 2.3509886e-038
35.791965 342.56296 -69.063995 2.3509886e-038
40.531124 342.88361 -69.128647 2.3509886e-038
45.5956 345.60339 -69.676979 2.3509886e-038
47.640835 347.25507 -70.009979 2.3509886e-038
-100.69141 338.28506 -72.844078 3.5733111e-043
-98.994095 337.28174 -72.628029 3.5733111e-043
-93.77388 335.16776 -72.172821 3.5733111e-043
-88.939598 334.28635 -71.983017 3.5733111e-043
-84.369942 334.35764 -71.998375 3.5733111e-043
-79.946594 335.05032 -72.14753 3.5733111e-043
-75.491425 335.68613 -72.284439 3.5733111e-043
-70.885307 335.68973 -72.28521 3.5733111e-043
-66.291092 335.754 -72.299057 3.5733111e-043
-61.780613 336.28375 -72.413124 3.5733111e-043
-57.290558 337.0192 -72.571495 3.5733111e-043
-52.714958 337.33643 -72.639801 3.5733111e-043
-48.090187 337.3696 -72.646942 3.5733111e-043
-43.477386 337.50296 -72.675667 2.3509886e-038
-38.896114 337.94205 -72.770218 2.3509886e-038
-34.31678 338.51913 -72.894485 2.3509886e-038
-29.741655 339.32495 -73.068001 2.3509886e-038
-25.159973 340.34097 -73.286789 2.3509886e-038
-20.554066 341.41815 -73.518738 2.3509886e-038
-15.929764 342.73575 -73.80246 2.3509886e-038
-11.283607 344.49026 -74.180267 2.3509886e-038
-6.5977869 346.68967 -74.65387 2.3509886e-038
-1.8524337 349.05118 -75.162384 2.3509886e-038
2.954777 351.06094 -75.595154 2.3509886e-038
7.7955556 352.09534 -75.817894 2.3509886e-038
12.618839 351.85028 -75.765121 2.3509886e-038
17.391378 350.71805 -75.521317 2.3509886e-038
22.097269 349.02359 -75.156441 2.3509886e-038
26.728912 346.96902 -74.714027 2.3509886e-038
31.298384 344.8508 -74.257904 2.3509886e-038
35.887527 343.47754 -73.962196 2.3509886e-038
40.694618 344.26675 -74.132133 2.3509886e-038
45.901932 347.92532 -74.919952 2.3509886e-038
48.090317 350.17682 -75.40477 2.3509886e-038
-77.808563 343.53546 -78.689262 2.3509886e-038
-77.228104 343.40857 -78.660194 2.3509886e-038
-72.143768 341.64938 -78.25724 2.3509886e-038
-67.236954 340.54465 -78.004196 3.5733111e-043
-62.561443 340.53397 -78.001755 2.3509886e-038
-57.89883 340.59744 -78.016289 2.3509886e-038
-53.100147 339.80133 -77.833939 2.3509886e-038
-48.270451 338.63419 -77.566597 2.3509886e-038
-43.504368 337.7124 -77.355453 2.3509886e-038
-38.816906 337.25385 -77.250412 2.3509886e-038
-34.17662 337.13654 -77.223549 2.3509886e-038
-29.583736 337.52325 -77.312126 2.3509886e-038
-25.014439 338.37228 -77.506599 2.3509886e-038
-20.432516 339.39914 -77.741806 2.3509886e-038
-15.833279 340.65982 -78.030579 2.3509886e-038
-11.213848 342.3605 -78.420135 2.3509886e-038
-6.5579586 344.59683 -78.932373 2.3509886e-038
-1.8425548 347.18973 -79.526299 2.3509886e-038
2.9435813 349.7308 -80.108345 2.3509886e-038
7.7806387 351.4216 -80.495644 2.3509886e-038
12.611269 351.63919 -80.545479 2.3509886e-038
17.388411 350.65823 -80.320786 2.3509886e-038
22.102695 349.10925 -79.965981 2.3509886e-038
26.762743 347.40817 -79.576332 2.3509886e-038
31.383369 345.7872 -79.205032 2.3509886e-038
36.040657 344.94315 -79.011703 2.3509886e-038
40.96159 346.52524 -79.3741 2.3509886e-038
46.426826 351.9039 -80.60611 2.3509886e-038
49.395027 356.2074 -81.591858 2.3509886e-038
-59.479336 347.18655 -84.290283 2.3509886e-038
-58.98344 346.97781 -84.239594 2.3509886e-038
-53.857582 344.64838 -83.674049 2.3509886e-038
-48.823719 342.51556 -83.15625 2.3509886e-038
-43.887608 340.68738 -82.712395 2.3509886e-038
-39.016861 338.99115 -82.300591 2.3509886e-038
-34.236038 337.72266 -81.99263 2.3509886e-038
-29.564697 337.30603 -81.891472 2.3509886e-038
-24.960716 337.64563 -81.973915 2.3509886e-038
-20.363968 338.2605 -82.123207 2.3509886e-038
-15.767377 339.24191 -82.361473 2.3509886e-038
-11.162255 340.78534 -82.736183 2.3509886e-038
-6.5266929 342.95392 -83.262672 2.3509886e-038
-1.8341508 345.60614 -83.906586 2.3509886e-038
2.9330959 348.48499 -84.605515 2.3509886e-038
7.7655869 350.74176 -85.153419 2.3509886e-038
12.606432 351.50433 -85.338547 2.3509886e-038
17.396395 350.81921 -85.172211 2.3509886e-038
22.128298 349.51364 -84.855247 2.3509886e-038
26.825064 348.21716 -84.540489 2.3509886e-038
31.509935 347.1817 -84.289101 2.3509886e-038
36.257271 347.01633 -84.248955 2.3509886e-038
41.320591 349.56232 -84.867065 2.3509886e-038
47.093613 356.95798 -86.66259 2.3509886e-038
52.676105 367.67218 -89.263794 2.3509886e-038
-49.827038 349.11984 -89.55085 2.3509886e-038
-49.76091 349.0903 -89.543274 2.3509886e-038
-44.69162 346.92868 -88.988808 2.3509886e-038
-39.612022 344.16208 -88.279167 2.3509886e-038
-34.598881 341.30191 -87.545525 2.3509886e-038
-29.75235 339.44696 -87.06971 2.3509886e-038
-25.045519 338.79276 -86.901901 2.3509886e-038
-20.389645 338.68701 -86.874786 2.3509886e-038
-15.764049 339.17032 -86.998756 2.3509886e-038
-11.149414 340.39331 -87.312462 2.3509886e-038
-6.5158191 342.38254 -87.822708 2.3509886e-038
-1.8308907 344.99185 -88.492004 2.3509886e-038
2.9287775 347.97189 -89.256401 2.3509886e-038
7.7613177 350.54895 -89.917427 2.3509886e-038
12.617582 351.81522 -90.242226 2.3509886e-038
17.430914 351.51535 -90.165314 2.3509886e-038
22.187965 350.45609 -89.893608 2.3509886e-038
26.921148 349.46445 -89.639244 2.3509886e-038
31.672337 348.97107 -89.512688 2.3509886e-038
36.510647 349.44141 -89.633339 2.3509886e-038
41.68438 352.63989 -90.453758 2.3509886e-038
47.60228 360.81357 -92.550346 2.3509886e-038
54.579365 374.71887 -96.117126 2.3509886e-038
57.957603 381.79599 -97.932442 2.3509886e-038
-42.228493 354.49533 -95.794701 2.3509886e-038
-40.656612 353.23779 -95.45488 2.3509886e-038
-35.347454 348.68625 -94.224922 2.3509886e-038
-30.24428 345.05942 -93.24485 2.3509886e-038
-25.349689 342.90729 -92.663284 2.3509886e-038
-20.564693 341.5947 -92.308578 2.3509886e-038
-15.859835 341.2312 -92.21035 2.3509886e-038
-11.198375 341.88809 -92.387871 2.3509886e-038
-6.536612 343.47513 -92.816734 2.3509886e-038
-1.8351539 345.7952 -93.44368 2.3509886e-038
2.9335618 348.54034 -94.185493 2.3509886e-038
7.7745056 351.14462 -94.889236 2.3509886e-038
12.654473 352.84384 -95.348427 2.3509886e-038
17.505381 353.01706 -95.395233 2.3509886e-038
22.298656 352.20447 -95.175644 2.3509886e-038
27.066391 351.34985 -94.94471 2.3509886e-038
31.874794 351.20178 -94.904694 2.3509886e-038
36.79472 352.16022 -95.163689 2.3509886e-038
42.029224 355.55719 -96.08165 2.3509886e-038
47.905998 363.11563 -98.124153 2.3509886e-038
54.65781 375.25745 -101.40521 2.3509886e-038
61.856594 388.11267 -104.87906 2.3509886e-038
63.629917 390.98529 -105.65532 2.3509886e-038
-33.817463 356.92935 -101.35086 2.3509886e-038
-31.057896 354.34204 -100.61619 2.3509886e-038
-25.90926 350.47662 -99.518593 2.3509886e-038
-20.929855 347.66031 -98.718887 2.3509886e-038
-16.095026 346.29141 -98.330193 2.3509886e-038
-11.33909 346.18417 -98.299736 2.3509886e-038
-6.6024928 346.93695 -98.513489 2.3509886e-038
-1.8491006 348.42313 -98.935493 2.3509886e-038
2.9494956 350.43344 -99.506325 2.3509886e-038
7.8095422 352.72705 -100.1576 2.3509886e-038
12.722818 354.74951 -100.73188 2.3509886e-038
17.628813 355.50623 -100.94675 2.3509886e-038
22.479294 355.05759 -100.81937 2.3509886e-038
27.292501 354.285 -100.59999 2.3509886e-038
32.151943 354.25546 -100.5916 2.3509886e-038
37.138458 355.45016 -100.93083 2.3509886e-038
42.386044 358.57581 -101.81837 2.3509886e-038
48.104801 364.62253 -103.53535 2.3509886e-038
54.471146 373.97586 -106.19125 2.3509886e-038
61.214008 384.08084 -109.06058 2.3509886e-038
67.92054 392.37384 -111.41539 2.3509886e-038
68.301582 392.77176 -111.52838 2.3509886e-038
-23.177305 358.19885 -106.62717 2.3509886e-038
-21.49308 357.0159 -106.27504 2.3509886e-038
-16.494873 354.89435 -105.64349 2.3509886e-038
-11.596182 354.0332 -105.38715 2.3509886e-038
-6.7281713 353.54089 -105.24061 2.3509886e-038
-1.8762517 353.53915 -105.24009 2.3509886e-038
2.9810162 354.17847 -105.4304 2.3509886e-038
7.8745995 355.66547 -105.87304 2.3509886e-038
12.82903 357.71103 -106.48196 2.3509886e-038
17.804977 359.05878 -106.88315 2.3509886e-038
22.738146 359.14615 -106.90916 2.3509886e-038
27.620264 358.5397 -106.72863 2.3509886e-038
32.532429 358.44769 -106.70125 2.3509886e-038
37.562016 359.504 -107.01568 2.3509886e-038
42.78334 361.9368 -107.73987 2.3509886e-038
48.307907 366.16202 -108.99761 2.3509886e-038
54.298641 372.79153 -110.97105 2.3509886e-038
60.764351 381.25949 -113.49177 2.3509886e-038
67.431519 389.54871 -115.95927 2.3509886e-038
72.279922 394.50232 -117.43383 2.3509886e-038
-10.318581 365.05197 -113.67707 2.3509886e-038
-6.9249258 363.87961 -113.31199 2.3509886e-038
-1.9221352 362.18494 -112.78427 2.3509886e-038
3.0372856 360.86389 -112.37289 2.3509886e-038
7.9874554 360.76273 -112.34139 2.3509886e-038
12.989274 362.17911 -112.78245 2.3509886e-038
18.035707 363.71173 -113.25972 2.3509886e-038
23.054249 364.13895 -113.39275 2.3509886e-038
28.005653 363.54248 -113.20701 2.3509886e-038
32.953362 363.08563 -113.06474 2.3509886e-038
37.989971 363.59991 -113.22489 2.3509886e-038
43.171593 365.22134 -113.7298 2.3509886e-038
48.547005 367.9743 -114.58707 2.3509886e-038
54.229465 372.31659 -115.93927 2.3509886e-038
60.417671 379.08429 -118.04672 2.3509886e-038
67.020851 387.1763 -120.56657 2.3509886e-038
73.662132 394.28333 -122.77969 2.3509886e-038
74.882187 395.35718 -123.11411 2.3509886e-038
4.8644481 368.93423 -119.94915 2.3509886e-038
8.1460114 367.9241 -119.62072 2.3509886e-038
13.223177 368.70099 -119.87331 2.3509886e-038
18.349087 370.0314 -120.30585 2.3509886e-038
23.439367 370.22186 -120.36777 2.3509886e-038
28.44068 369.18958 -120.03215 2.3509886e-038
33.404999 368.06183 -119.6655 2.3509886e-038
38.426964 367.78238 -119.57465 2.3509886e-038
43.574184 368.6272 -119.84932 2.3509886e-038
48.867764 370.40558 -120.42751 2.3509886e-038
54.340282 373.07742 -121.29619 2.3509886e-038
60.217125 377.82599 -122.84006 2.3509886e-038
66.558556 384.50565 -125.01177 2.3509886e-038
73.110756 391.33206 -127.23119 2.3509886e-038
75.189819 393.15457 -127.82374 2.3509886e-038
16.530174 378.77832 -128.34795 2.3509886e-038
18.77668 378.65433 -128.30592 2.3509886e-038
23.907589 377.61734 -127.95454 2.3509886e-038
28.937788 375.64255 -127.28539 2.3509886e-038
33.908939 373.61438 -126.59817 2.3509886e-038
38.914181 372.4455 -126.2021 2.3509886e-038
44.034264 372.51935 -126.22711 2.3509886e-038
49.284298 373.56284 -126.5807 2.3509886e-038
54.637707 375.11942 -127.10814 2.3509886e-038
60.246227 378.00858 -128.08711 2.3509886e-038
66.218506 382.5412 -129.623 2.3509886e-038
72.502632 388.07703 -131.49878 2.3509886e-038
72.945404 388.46567 -131.63048 2.3509886e-038
27.432608 384.21155 -135.46181 2.3509886e-038
29.48905 382.79846 -134.96361 2.3509886e-038
34.456486 379.64728 -133.85258 2.3509886e-038
39.446949 377.54459 -133.11122 2.3509886e-038
44.536972 376.77213 -132.83888 2.3509886e-038
49.73727 376.99625 -132.91791 2.3509886e-038
55.010708 377.68027 -133.15907 2.3509886e-038
60.443638 379.24722 -133.71153 2.3509886e-038
66.131798 382.04034 -134.6963 2.3509886e-038
68.662437 383.73483 -135.29372 2.3509886e-038
38.051079 383.36508 -140.42455 2.3509886e-038
39.950634 382.36536 -140.05835 2.3509886e-038
45.006969 380.74817 -139.46599 2.3509886e-038
50.153767 380.15317 -139.24805 2.3509886e-038
55.367695 380.1312 -139.23997 2.3509886e-038
60.708458 380.90881 -139.52483 2.3509886e-038
61.800644 381.2193 -139.63857 2.3509886e-038
-97.919678 333.62109 -66.651192 3.5733111e-043
-99.630928 339.45148 -75.133499 3.5733111e-043
-92.252296 329.72931 -62.437393 3.5733111e-043
-95.051094 339.73282 -76.934601 3.5733111e-043
-87.781097 329.93201 -60.696686 3.5733111e-043
-90.381554 339.70602 -77.368935 3.5733111e-043
-84.045937 333.07361 -60.230949 3.5733111e-043
-86.084061 341.1507 -77.782112 3.5733111e-043
-80.038689 335.43628 -60.324551 3.5733111e-043
-81.816925 342.88876 -78.263252 2.3509886e-038
-75.39241 335.24585 -60.835991 3.5733111e-043
-77.251366 343.51202 -78.733246 2.3509886e-038
-70.786636 335.22241 -61.844391 3.5733111e-043
-72.432358 343.01602 -79.34996 2.3509886e-038
-66.437714 336.49661 -62.955418 3.5733111e-043
-67.876572 343.78421 -80.690475 2.3509886e-038
-69.059067 375.90176 42.661819 2.3418052e-038
-68.57653 373.27521 27.307903 2.3418052e-038
-62.151016 338.2999 -63.433289 3.5733111e-043
-63.559288 345.96542 -82.608665 2.3509886e-038
-63.805008 375.34131 42.839279 2.3418052e-038
-62.589905 368.19333 13.47944 2.3418052e-038
-57.894955 340.57465 -63.001423 3.5733111e-043
-59.029816 347.25061 -84.477692 2.3509886e-038
-58.782959 376.16708 37.38792 2.3418052e-038
-57.816177 369.98044 0.78451979 2.3418052e-038
-53.764099 344.05014 -61.714275 3.5733111e-043
-54.302967 347.4985 -86.589439 2.3509886e-038
-53.978191 378.67599 27.715637 2.3418052e-038
-53.025944 371.99567 -8.4806337 2.3418052e-038
-49.629097 348.16556 -59.317688 3.5733111e-043
-49.77002 349.15421 -89.594925 2.3509886e-038
-48.143234 373.72266 18.28743 2.3418052e-038
-48.41544 375.83569 -18.812929 2.3509886e-038
-45.566418 353.71951 -55.356178 3.5733111e-043
-45.391987 352.36548 -93.223633 2.3509886e-038
-43.084248 374.3299 10.459185 2.3509886e-038
-42.984161 373.46033 -34.32019 2.3509886e-038
-41.818283 363.33078 -47.112835 2.3509886e-038
-40.88599 355.23071 -96.819504 2.3509886e-038
-37.671024 371.60718 1.7067147 2.3509886e-038
-36.148457 356.58774 -99.965118 2.3509886e-038
-32.134731 366.62772 -4.355473 2.3509886e-038
-31.324677 357.38577 -102.79426 2.3509886e-038
-26.950701 364.56427 -6.1841898 2.3509886e-038
-26.468653 358.04358 -105.24278 2.3509886e-038
-22.914598 380.62836 65.807426 2.3509528e-038
-22.565359 374.82724 13.73712 2.3509528e-038
-22.091381 366.9541 -3.1005173 2.3509886e-038
-21.579655 358.45395 -107.34309 2.3509886e-038
-17.643993 379.61813 62.498749 2.3509528e-038
-16.765585 360.71881 -109.98698 2.3509886e-038
-12.342448 376.81683 47.208832 2.3509528e-038
-11.925485 364.08688 -112.83446 2.3509886e-038
-6.9746265 366.49121 17.137964 2.3509886e-038
-6.9766359 366.59683 -115.21436 2.3509886e-038
-1.9323039 364.10098 5.0170484 2.3509886e-038
-1.9531289 368.02502 -117.25711 2.3509886e-038
3.0429142 361.53262 6.2782464 2.3509886e-038
3.1029437 368.66483 -119.19984 2.3509886e-038
7.8396688 354.08777 30.701853 9.1476764e-041
8.1982822 370.285 -121.70744 2.3509886e-038
12.92629 360.42291 58.332352 9.1476764e-041
13.463967 375.41495 -125.7453 2.3509886e-038
17.974045 362.46823 62.02232 9.1476764e-041
18.888042 380.90012 -130.21782 2.3509886e-038
22.297878 352.19217 -0.93055248 9.1476764e-041
24.290796 383.67007 -133.76515 2.3509886e-038
26.761059 347.38632 -6.5261149 2.3509886e-038
29.602846 384.27567 -136.55324 2.3509886e-038
31.23037 344.10141 -5.972352 2.3509886e-038
34.827911 383.73972 -139.02649 2.3509886e-038
35.630917 341.02155 -2.9945304 2.3509886e-038
40.031956 383.14365 -141.18449 2.3509886e-038
40.028576 338.6322 1.4293792 2.3509886e-038
45.216076 382.51718 -142.61154 2.3509886e-038
44.360371 336.24069 6.9291368 2.3418409e-038
50.375729 381.8356 -142.95987 2.3509886e-038
48.784081 334.93091 13.696698 2.3418409e-038
50.066177 343.73322 -14.219301 2.3418409e-038
54.220245 372.2533 -91.95977 2.3509886e-038
55.53323 381.2677 -142.14763 2.3509886e-038
53.487343 335.60068 20.967001 2.3418409e-038
54.467121 341.74817 -4.4107051 2.3418409e-038
62.023285 389.15854 -103.59767 2.3509886e-038
60.745956 381.14407 -140.19846 2.3509886e-038
58.46455 337.74698 26.929028 2.3418409e-038
58.788685 339.61948 4.2310805 2.3418409e-038
67.979836 392.71634 -111.10399 2.3509886e-038
66.17292 382.27786 -137.02541 2.3509886e-038
63.954273 342.32111 30.306425 2.3418409e-038
63.314079 338.89444 13.302478 2.3418409e-038
73.852501 395.30231 -120.43397 2.3509886e-038
72.428986 387.6828 -132.19214 2.3509886e-038
