# .PCD v0.7 - Point Cloud Data file format
VERSION 0.7
FIELDS x y z rgb
SIZE 4 4 4 4
TYPE F F F F
COUNT 1 1 1 1
WIDTH 679
HEIGHT 1
VIEWPOINT 0 0 0 1 0 0 0
POINTS 679
DATA ascii
-64.078125 348.85941 24.645432 2.3418052e-038
-23.143608 327.60089 29.315239 9.1476764e-041
0 0 0 2.3509528e-038
0 0 0 2.3509528e-038
42.308144 345.50623 34.171963 2.3418409e-038
39.460182 348.03119 37.084774 2.3418409e-038
41.466145 347.11517 36.987167 2.3418409e-038
46.349331 347.71365 37.050941 2.3418409e-038
46.946777 348.06976 37.088886 2.3418409e-038
-29.084721 331.47473 30.733606 9.1476764e-041
-24.406563 328.60059 30.467123 9.1476764e-041
-19.942436 329.97522 30.594574 9.1476764e-041
-16.964035 334.37158 31.002195 9.1476764e-041
36.814968 349.28757 32.385174 2.3418409e-038
36.88335 349.20395 32.377422 2.3418409e-038
41.360416 346.23013 32.101696 2.3418409e-038
46.226929 346.79541 32.154106 2.3418409e-038
47.801113 347.952 32.261341 2.3418409e-038
-69.421928 351.32285 27.712227 2.3418052e-038
-64.443253 348.3811 27.480183 2.3418052e-038
-59.739746 349.06732 27.534313 2.3418052e-038
-58.163223 350.57474 27.653215 2.3418052e-038
-27.86298 335.05573 26.429083 9.1476764e-041
-24.707703 332.655 26.239716 9.1476764e-041
-20.077639 332.21234 26.204796 9.1476764e-041
-15.683131 336.56186 26.547886 9.1476764e-041
-12.061026 343.45142 27.091331 9.1476764e-041
35.525921 349.69162 27.583559 2.3418409e-038
36.799503 348.4101 27.48247 2.3418409e-038
41.344353 346.09564 27.299908 2.3418409e-038
46.274632 347.15329 27.383333 2.3418409e-038
47.557911 348.19055 27.465151 2.3418409e-038
-69.176071 352.95886 22.956985 2.3418052e-038
-64.795593 350.28586 22.783131 2.3418052e-038
-59.933907 350.20184 22.777666 2.3418052e-038
-55.655807 353.81293 23.012535 2.3418052e-038
-54.747829 355.11832 23.097439 2.3418052e-038
-25.310511 340.04977 22.117359 9.1476764e-041
-25.253273 340.00037 22.114145 9.1476764e-041
-20.414701 337.78952 21.970348 9.1476764e-041
-15.810786 339.30136 22.068682 9.1476764e-041
-11.274102 344.14343 22.383615 9.1476764e-041
-7.3923807 350.7211 22.81144 9.1476764e-041
34.368755 349.33829 22.721498 2.3418409e-038
36.699829 347.4664 22.599749 2.3418409e-038
41.309746 345.80594 22.491749 2.3418409e-038
46.29248 347.28714 22.588089 2.3418409e-038
46.761162 347.6449 22.611357 2.3418409e-038
-67.372292 354.20972 18.136755 2.3418052e-038
-65.290863 352.96326 18.072931 2.3418052e-038
-60.178257 351.62961 18.004642 2.3418052e-038
-55.551399 353.1492 18.082451 2.3418052e-038
-51.345028 357.43338 18.301817 2.3418052e-038
-22.024183 346.84753 17.759785 9.1476764e-041
-20.925095 346.23468 17.728405 9.1476764e-041
-16.0704 344.87265 17.658665 9.1476764e-041
-11.324136 345.67072 17.699526 9.1476764e-041
-6.6079698 349.22525 17.881531 9.1476764e-041
-2.7881472 354.23508 18.138052 9.1476764e-041
32.781731 349.43317 17.892178 2.3418409e-038
36.595299 346.47678 17.740799 2.3418409e-038
41.267094 345.44891 17.688169 2.3418409e-038
45.979424 347.66071 17.80142 2.3418409e-038
-64.99942 355.81308 13.295075 2.3418052e-038
-60.511337 353.57584 13.211479 2.3418052e-038
-55.591125 353.40176 13.204975 2.3418052e-038
-51.097984 356.17084 13.308443 2.3418052e-038
-48.067974 360.01886 13.452226 2.3418052e-038
-18.547653 353.55228 13.2106 9.1476764e-041
-16.39782 351.89914 13.14883 9.1476764e-041
-11.450578 349.53036 13.060319 9.1476764e-041
-6.6146574 349.5787 13.062126 9.1476764e-041
-1.7913811 352.37744 13.166701 9.1476764e-041
1.0394318 355.026 13.265666 2.3509886e-038
30.900856 350.92786 13.112537 2.3418409e-038
32.07164 349.42877 13.056523 2.3418409e-038
36.527454 345.83441 12.922219 2.3418409e-038
41.241344 345.23334 12.89976 2.3418409e-038
45.127392 348.0408 13.004661 2.3418409e-038
-62.426979 357.03851 8.4001303 2.3418052e-038
-60.959846 356.19653 8.3803205 2.3418052e-038
-55.825706 354.89304 8.3496532 2.3418052e-038
-51.143856 356.49057 8.3872385 2.3418052e-038
-46.754166 360.68307 8.485877 2.3418052e-038
-44.836246 363.2774 8.5469141 2.3418052e-038
-15.347973 357.50659 8.4111433 9.1476764e-041
-11.6185 354.65622 8.3440809 9.1476764e-041
-6.6693034 352.46667 8.2925682 9.1476764e-041
-1.7918411 352.46793 8.2925968 9.1476764e-041
3.1066692 354.86957 8.3491011 2.3509886e-038
4.0677938 355.68881 8.3683758 2.3509886e-038
28.809877 353.18884 8.3095579 2.3418409e-038
32.063324 349.33817 8.2189627 2.3418409e-038
36.549267 346.04092 8.141387 2.3418409e-038
41.261639 345.40326 8.1263847 2.3418409e-038
43.905327 347.5293 8.176405 2.3418409e-038
-59.910366 357.23105 3.4612491 2.3418052e-038
-56.054848 356.3497 3.4527097 2.3418052e-038
-51.233685 357.1167 3.4601412 2.3418052e-038
-46.647655 359.86142 3.4867351 2.3418052e-038
-42.16415 364.14761 3.5282643 2.3418052e-038
-41.067375 365.28894 3.5393229 2.3509886e-038
-12.889034 361.02484 3.4980073 9.1476764e-041
-11.797351 360.11569 3.4891987 9.1476764e-041
-6.7468905 356.56708 3.4548159 9.1476764e-041
-1.8036134 354.78363 3.4375355 9.1476764e-041
3.113646 355.6665 3.44609 2.3509886e-038
6.9245291 358.2619 3.4712372 2.3509886e-038
26.252844 355.33981 3.4429247 2.3418409e-038
27.594238 354.02213 3.4301574 2.3418409e-038
32.145901 350.23788 3.3934915 2.3418409e-038
36.746639 347.90961 3.3709326 2.3418409e-038
41.544476 347.77087 3.3695884 2.3418409e-038
42.658028 348.60983 3.3777173 2.3418409e-038
-56.669834 349.5322 -1.4502192 2.3418052e-038
-55.136105 350.50909 -1.4542724 2.3418052e-038
-50.644863 353.01242 -1.4646587 2.3418052e-038
-46.003357 354.89099 -1.4724531 2.3418052e-038
-41.298466 356.67114 -1.479839 2.3418052e-038
-36.407379 357.10852 -1.4816537 2.3418052e-038
-35.015953 357.13861 -1.4817785 2.3418052e-038
-11.567537 364.66641 -1.5130116 9.1476764e-041
-6.8269362 360.79742 -1.496959 9.1476764e-041
-1.8203932 358.08435 -1.4857024 9.1476764e-041
3.1365943 358.28784 -1.4865468 2.3509886e-038
8.1535778 360.89764 -1.4973748 2.3509886e-038
10.819954 362.41089 -1.5036534 2.3509886e-038
22.540237 357.58981 -1.4836506 2.3509886e-038
22.905548 357.30264 -1.4824591 2.3418409e-038
27.588728 353.95142 -1.4685547 2.3418409e-038
32.265938 351.54572 -1.4585733 2.3418409e-038
37.026497 350.55927 -1.4544805 2.3418409e-038
41.671833 351.48773 -1.4583328 2.3418409e-038
-53.666485 332.37158 -5.9784098 2.3509886e-038
-52.682064 334.90836 -6.0240393 2.3509886e-038
-48.971409 341.34784 -6.1398668 2.3418052e-038
-44.647953 344.43478 -6.1953926 2.3418052e-038
-40.093338 346.26318 -6.2282791 2.3418052e-038
-35.438007 347.60031 -6.2523308 2.3418052e-038
-30.858536 350.21802 -6.2994161 2.3418052e-038
-26.762978 354.56741 -6.3776488 2.3418052e-038
-12.067264 367.63861 -6.6127625 9.1476764e-041
-12.04346 367.62817 -6.6125746 9.1476764e-041
-6.8865538 363.94818 -6.546382 9.1476764e-041
-1.8363712 361.22729 -6.4974413 9.1476764e-041
3.1619203 361.18079 -6.4966044 2.3509886e-038
8.191761 362.58765 -6.5219102 2.3509886e-038
13.221725 362.92844 -6.5280399 2.3509886e-038
18.11659 360.39459 -6.4824634 2.3509886e-038
22.882187 356.9382 -6.4202929 2.3418409e-038
27.608387 354.20364 -6.3711057 2.3418409e-038
32.360958 352.58099 -6.3419189 2.3418409e-038
37.248447 352.66061 -6.3433514 2.3418409e-038
41.030304 354.08224 -6.3689227 2.3418409e-038
-53.977535 313.78345 -9.986228 2.3509886e-038
-53.753048 314.08627 -9.9958658 2.3509886e-038
-50.428581 320.58264 -10.202615 2.3509886e-038
-46.997875 327.59161 -10.425677 2.3509886e-038
-43.239738 333.5712 -10.615978 2.3418052e-038
-39.263245 339.09418 -10.791748 2.3418052e-038
-35.085335 344.14102 -10.952367 2.3418052e-038
-30.771996 349.23587 -11.11451 2.3418052e-038
-26.334702 354.56027 -11.283961 2.3509886e-038
-21.742064 359.75253 -11.449205 2.3509886e-038
-16.997576 364.76999 -11.608888 2.3509886e-038
-12.013811 366.72311 -11.671046 2.3509886e-038
-6.9046383 364.90393 -11.613151 2.3509886e-038
-1.8478069 363.47681 -11.567732 2.3509886e-038
3.1832078 363.61243 -11.572047 2.3509886e-038
8.2242918 364.02759 -11.585259 2.3509886e-038
13.225313 363.02695 -11.553414 2.3509886e-038
18.119761 360.45767 -11.471647 2.3509886e-038
22.917439 357.4881 -11.377139 2.3418409e-038
27.672092 355.02097 -11.298623 2.3418409e-038
32.453022 353.58401 -11.252892 2.3418409e-038
37.397575 354.07254 -11.268438 2.3418409e-038
40.367458 355.36447 -11.309555 2.3418409e-038
-56.540874 311.09259 -14.205521 2.3509886e-038
-53.252289 311.16025 -14.208611 2.3509886e-038
-49.459553 314.42236 -14.357571 2.3509886e-038
-46.015427 320.74362 -14.64622 2.3509886e-038
-42.729092 329.63181 -15.052084 2.3509886e-038
-39.355122 339.88763 -15.520399 2.3418052e-038
-35.520298 348.40744 -15.909443 2.3418052e-038
-31.22471 354.37381 -16.181887 2.3418052e-038
-26.634377 358.59497 -16.374638 2.3509886e-038
-21.88607 362.13535 -16.536303 2.3509886e-038
-17.012159 365.08298 -16.670902 2.3509886e-038
-12.000546 366.31827 -16.72731 2.3509886e-038
-6.9223971 365.84247 -16.705582 2.3509886e-038
-1.8590081 365.68015 -16.69817 2.3509886e-038
3.2042234 366.01303 -16.713371 2.3509886e-038
8.2624187 365.71521 -16.699772 2.3509886e-038
13.259071 363.95358 -16.619329 2.3509886e-038
18.167549 361.40833 -16.503105 2.3509886e-038
22.989115 358.60617 -16.375149 2.3509886e-038
27.74761 355.98981 -16.255678 2.3418409e-038
32.515762 354.26758 -16.177034 2.3418409e-038
37.451229 354.58054 -16.191324 2.3418409e-038
39.641006 355.42316 -16.229803 2.3418409e-038
-57.021217 313.30948 -18.642384 2.3509886e-038
-53.452404 312.32953 -18.584072 2.3509886e-038
-49.414421 314.13547 -18.691528 2.3509886e-038
-45.889202 319.8638 -19.032372 2.3509886e-038
-42.841751 330.50092 -19.665298 2.3509886e-038
-39.932407 344.87332 -20.520477 2.3418052e-038
-36.353409 356.57919 -21.216993 2.3509886e-038
-31.986359 363.01785 -21.600103 2.3509886e-038
-27.155916 365.61679 -21.754745 2.3509886e-038
-22.197319 367.28537 -21.854029 2.3509886e-038
-17.168388 368.43564 -21.92247 2.3509886e-038
-12.078907 368.71021 -21.938808 2.3509886e-038
-6.9709382 368.40781 -21.920815 2.3509886e-038
-1.8737423 368.57849 -21.930971 2.3509886e-038
3.2270615 368.62177 -21.933544 2.3509886e-038
8.3055201 367.62296 -21.874113 2.3509886e-038
13.311029 365.37982 -21.740643 2.3509886e-038
18.231386 362.67822 -21.579895 2.3509886e-038
23.054558 359.62698 -21.398342 2.3509886e-038
27.792204 356.56192 -21.215965 2.3509886e-038
32.527954 354.40042 -21.087355 2.3418409e-038
37.41906 354.27594 -21.079947 2.3418409e-038
39.341743 354.83859 -21.113426 2.3418409e-038
-55.714611 314.51004 -23.066038 2.3509886e-038
-53.683876 313.68207 -23.005314 2.3509886e-038
-49.435696 314.27069 -23.048485 2.3509886e-038
-45.724113 318.71307 -23.374285 2.3509886e-038
-42.686447 329.30286 -24.150936 2.3509886e-038
-40.082584 346.17032 -25.387987 2.3509886e-038
-36.879372 361.73819 -26.52973 2.3509886e-038
-32.636902 370.401 -27.165056 2.3509886e-038
-27.675562 372.6131 -27.327291 2.3509886e-038
-22.549747 373.11679 -27.364231 2.3509886e-038
-17.385712 373.09943 -27.362957 2.3509886e-038
-12.208838 372.67633 -27.33193 2.3509886e-038
-7.0409274 372.10666 -27.29015 2.3509886e-038
-1.8901646 371.80887 -27.268309 2.3509886e-038
3.2479362 371.00626 -27.209446 2.3509886e-038
8.3405428 369.17316 -27.075008 2.3509886e-038
13.351328 366.48599 -26.877932 2.3509886e-038
18.273373 363.51346 -26.659927 2.3509886e-038
23.084106 360.08792 -26.408701 2.3509886e-038
27.795107 356.59915 -26.152836 2.3509886e-038
32.503345 354.13229 -25.971918 2.3509886e-038
37.349831 353.62051 -25.934381 2.3509886e-038
39.617599 354.12802 -25.971605 2.3509886e-038
-53.627571 316.23959 -27.569036 2.3509886e-038
-49.682873 315.84204 -27.534376 2.3509886e-038
-45.705719 318.58487 -27.773491 2.3509886e-038
-42.352238 326.72458 -28.483095 2.3509886e-038
-39.600048 342.00293 -29.815023 2.3509886e-038
-36.700626 359.98489 -31.38265 2.3509886e-038
-32.807617 372.33847 -32.459606 2.3509886e-038
-27.957043 376.40286 -32.813931 2.3509886e-038
-22.78363 376.98672 -32.864826 2.3509886e-038
-17.545164 376.5213 -32.824257 2.3509886e-038
-12.30912 375.73749 -32.755928 2.3509886e-038
-7.0920949 374.81085 -32.675144 2.3509886e-038
-1.9006523 373.87186 -32.593285 2.3509886e-038
3.2596774 372.34741 -32.460388 2.3509886e-038
8.3580246 369.94696 -32.251122 2.3509886e-038
13.367559 366.93152 -31.988241 2.3509886e-038
18.28772 363.79892 -31.715147 2.3509886e-038
23.094135 360.24435 -31.40527 2.3509886e-038
27.793535 356.57901 -31.085733 2.3509886e-038
32.479973 353.87762 -30.850233 2.3509886e-038
37.294849 353.09995 -30.782436 2.3509886e-038
40.253399 353.78336 -30.842016 2.3509886e-038
-51.90591 321.33517 -32.459923 2.3509886e-038
-50.439751 320.65363 -32.391075 2.3509886e-038
-46.068478 321.1134 -32.437523 2.3509886e-038
-42.2318 325.7955 -32.910488 2.3509886e-038
-39.050041 337.25287 -34.067863 2.3509886e-038
-36.17395 354.81894 -35.842316 2.3509886e-038
-32.576366 369.71396 -37.346943 2.3509886e-038
-27.965164 376.51221 -38.033676 2.3509886e-038
-22.844564 377.99496 -38.183456 2.3509886e-038
-17.593988 377.56909 -38.140434 2.3509886e-038
-12.340726 376.70227 -38.052876 2.3509886e-038
-7.1079249 375.64746 -37.94632 2.3509886e-038
-1.9034172 374.41574 -37.821899 2.3509886e-038
3.2617211 372.58087 -37.636551 2.3509886e-038
8.3575115 369.92426 -37.368191 2.3509886e-038
13.360402 366.73508 -37.046032 2.3509886e-038
18.278349 363.61249 -36.730598 2.3509886e-038
23.087721 360.14432 -36.38026 2.3509886e-038
27.779207 356.39517 -36.001541 2.3509886e-038
32.432701 353.36264 -35.695206 2.3509886e-038
37.223557 352.42496 -35.600483 2.3509886e-038
40.743317 353.47601 -35.706657 2.3509886e-038
-50.463371 327.16763 -37.576469 2.3509886e-038
-46.741463 325.80435 -37.419891 2.3509886e-038
-42.444546 327.43668 -37.607376 2.3509886e-038
-38.802467 335.11469 -38.489223 2.3509886e-038
-35.670563 349.88135 -40.18523 2.3509886e-038
-32.150509 364.88086 -41.907986 2.3509886e-038
-27.766367 373.83569 -42.936478 2.3509886e-038
-22.754082 376.4978 -43.242233 2.3509886e-038
-17.542171 376.45709 -43.23756 2.3509886e-038
-12.310875 375.79105 -43.16106 2.3509886e-038
-7.094738 374.95053 -43.064522 2.3509886e-038
-1.9002714 373.79694 -42.93203 2.3509886e-038
3.2561486 371.94434 -42.719254 2.3509886e-038
8.3418722 369.23196 -42.407726 2.3509886e-038
13.334378 366.02075 -42.038902 2.3509886e-038
18.247696 363.00269 -41.692268 2.3509886e-038
23.051588 359.58066 -41.299236 2.3509886e-038
27.719278 355.62631 -40.845062 2.3509886e-038
32.327805 352.21976 -40.453808 2.3509886e-038
37.093559 351.19418 -40.336014 2.3509886e-038
40.831459 352.44388 -40.479549 2.3509886e-038
-49.182491 332.07779 -42.735771 2.3509886e-038
-47.466831 330.86041 -42.579102 2.3509886e-038
-42.789406 330.09711 -42.480869 2.3509886e-038
-38.750706 334.66763 -43.069061 2.3509886e-038
-35.262005 345.87393 -44.511223 2.3509886e-038
-31.66128 359.32852 -46.242722 2.3509886e-038
-27.426115 369.25464 -47.520134 2.3509886e-038
-22.548649 373.09863 -48.014828 2.3509886e-038
-17.422186 373.88217 -48.115662 2.3509886e-038
-12.246696 373.832 -48.109203 2.3509886e-038
-7.0669255 373.48065 -48.063992 2.3509886e-038
-1.8936582 372.49606 -47.937283 2.3509886e-038
3.2452409 370.69836 -47.705929 2.3509886e-038
8.3155241 368.06573 -47.367134 2.3509886e-038
13.295373 364.95007 -46.966167 2.3509886e-038
18.195736 361.96906 -46.582539 2.3509886e-038
22.971796 358.336 -46.114994 2.3509886e-038
27.596544 354.0517 -45.563637 2.3509886e-038
32.170483 350.50568 -45.107292 2.3509886e-038
36.912189 349.47699 -44.974907 2.3509886e-038
40.704823 350.58987 -45.118126 2.3509886e-038
-47.876266 335.68573 -47.845333 2.3509886e-038
-43.146366 332.85083 -47.441277 2.3509886e-038
-38.77816 334.90475 -47.734024 2.3509886e-038
-34.941944 342.73459 -48.850006 2.3509886e-038
-31.153961 353.57089 -50.394508 2.3509886e-038
-26.952648 362.88007 -51.721348 2.3509886e-038
-22.217514 367.61954 -52.396866 2.3509886e-038
-17.229559 369.74838 -52.700287 2.3509886e-038
-12.150265 370.8884 -52.862774 2.3509886e-038
-7.0265017 371.34427 -52.92775 2.3509886e-038
-1.8846976 370.73346 -52.840694 2.3509886e-038
3.231775 369.16019 -52.616451 2.3509886e-038
8.2859669 366.75748 -52.273994 2.3509886e-038
13.252336 363.76871 -51.848007 2.3509886e-038
18.125706 360.57593 -51.392937 2.3509886e-038
22.858 356.56088 -50.820675 2.3509886e-038
27.446579 352.12772 -50.188812 2.3509886e-038
32.018627 348.85117 -49.721806 2.3509886e-038
36.758015 348.01727 -49.602951 2.3509886e-038
40.733536 349.07193 -49.753269 2.3509886e-038
-46.55349 337.67255 -52.801258 2.3509886e-038
-43.475769 335.39203 -52.444664 2.3509886e-038
-38.855938 335.57648 -52.473503 2.3509886e-038
-34.721016 340.56757 -53.253948 2.3509886e-038
-30.684954 348.24805 -54.454933 2.3509886e-038
-26.404507 355.50012 -55.588932 2.3509886e-038
-21.77285 360.26193 -56.333527 2.3509886e-038
-16.946129 363.66592 -56.865803 2.3509886e-038
-12.002182 366.36816 -57.288349 2.3509886e-038
-6.9652343 368.10635 -57.560146 2.3509886e-038
-1.8726988 368.37323 -57.601871 2.3509886e-038
3.2158287 367.33865 -57.440098 2.3509886e-038
8.252141 365.26025 -57.115101 2.3509886e-038
13.20153 362.37408 -56.663799 2.3509886e-038
18.041433 358.89951 -56.120483 2.3509886e-038
22.732174 354.59818 -55.447891 2.3509886e-038
27.302834 350.28351 -54.773216 2.3509886e-038
31.897705 347.53369 -54.343235 2.3509886e-038
36.65847 347.07483 -54.271481 2.3509886e-038
41.133633 348.41449 -54.480957 2.3509886e-038
-45.631237 339.99854 -57.869907 2.3509886e-038
-43.887558 338.56879 -57.626553 2.3509886e-038
-39.043015 337.19214 -57.392239 2.3509886e-038
-34.63377 339.71179 -57.821098 2.3509886e-038
-30.328403 344.20151 -58.585278 2.3509886e-038
-25.89826 348.68423 -59.348263 2.3509886e-038
-21.298071 352.4061 -59.981747 2.3509886e-038
-16.600193 356.24213 -60.634666 2.3509886e-038
-11.799758 360.18915 -61.306473 2.3509886e-038
-6.8765693 363.42047 -61.856472 2.3509886e-038
-1.8559068 365.0701 -62.137245 2.3509886e-038
3.1950805 364.96863 -62.119972 2.3509886e-038
8.209507 363.3732 -61.848419 2.3509886e-038
13.140154 360.68939 -61.391621 2.3509886e-038
17.956642 357.21274 -60.799873 2.3509886e-038
22.62718 352.96039 -60.076096 2.3509886e-038
27.196888 348.92429 -59.389126 2.3509886e-038
31.815786 346.64117 -59.000526 2.3509886e-038
36.607803 346.59512 -58.992683 2.3509886e-038
41.632946 348.51147 -59.318863 2.3509886e-038
41.81274 348.65384 -59.343098 2.3509886e-038
-44.924072 344.26694 -63.360416 2.3509886e-038
-44.581909 343.92529 -63.297539 2.3509886e-038
-39.438911 340.61127 -62.687614 2.3509886e-038
-34.719517 340.55283 -62.676853 2.3509886e-038
-30.140959 342.07416 -62.956848 2.3509886e-038
-25.547371 343.95996 -63.303917 2.3509886e-038
-20.918165 346.12 -63.701458 2.3509886e-038
-16.276928 349.30481 -64.287605 2.3509886e-038
-11.578981 353.44992 -65.050491 2.3509886e-038
-6.7674294 357.65256 -65.823959 2.3509886e-038
-1.833689 360.69968 -66.384773 2.3509886e-038
3.167654 361.83575 -66.593857 2.3509886e-038
8.1574478 361.06891 -66.452721 2.3509886e-038
13.075614 358.91782 -66.056824 2.3509886e-038
17.890703 355.901 -65.501602 2.3509886e-038
22.569792 352.06519 -64.795639 2.3509886e-038
27.151148 348.33746 -64.109573 2.3509886e-038
31.781588 346.26859 -63.728809 2.3509886e-038
36.603687 346.55615 -63.781731 2.3509886e-038
41.681236 348.91574 -64.215996 2.3509886e-038
42.379917 349.57071 -64.336548 2.3509886e-038
-43.679806 349.40567 -69.141304 2.3509886e-038
-40.091148 346.24426 -68.515717 2.3509886e-038
-34.997498 343.27945 -67.929031 2.3509886e-038
-30.103472 341.64871 -67.606339 2.3509886e-038
-25.33581 341.11157 -67.500046 2.3509886e-038
-20.658693 341.82672 -67.641563 2.3509886e-038
-16.036556 344.14642 -68.100594 2.3509886e-038
-11.396482 347.87912 -68.839226 2.3509886e-038
-6.6651597 352.24768 -69.70369 2.3509886e-038
-1.8103635 356.11142 -70.468254 2.3509886e-038
3.1375892 358.40149 -70.921417 2.3509886e-038
8.1040154 358.70383 -70.981247 2.3509886e-038
13.016988 357.30853 -70.705147 2.3509886e-038
17.838728 354.86707 -70.222023 2.3509886e-038
22.536125 351.54001 -69.563652 2.3509886e-038
27.140514 348.20105 -68.902931 2.3509886e-038
31.792156 346.38373 -68.543312 2.3509886e-038
36.66362 347.12363 -68.689728 2.3509886e-038
41.846207 350.29669 -69.317627 2.3509886e-038
42.460674 350.95502 -69.447891 2.3509886e-038
-41.088673 354.98138 -75.156914 2.3509886e-038
-35.565731 348.85309 -73.859421 2.3509886e-038
-30.266413 343.49796 -72.725632 2.3509886e-038
-25.276104 340.30774 -72.050194 2.3509886e-038
-20.532152 339.73288 -71.92849 2.3509886e-038
-15.901873 341.25607 -72.250977 2.3509886e-038
-11.276482 344.21606 -72.87767 2.3509886e-038
-6.5850244 348.0126 -73.681473 2.3509886e-038
-1.7894633 352.00021 -74.525726 2.3509886e-038
3.1090214 355.13824 -75.190117 2.3509886e-038
8.0541096 356.49487 -75.477348 2.3509886e-038
12.96284 355.82224 -75.334938 2.3509886e-038
17.784859 353.79544 -74.905823 2.3509886e-038
22.494736 350.89435 -74.291603 2.3509886e-038
27.130938 348.07816 -73.695351 2.3509886e-038
31.83148 346.81216 -73.427315 2.3509886e-038
36.795658 348.37369 -73.757927 2.3509886e-038
42.172169 353.02533 -74.742775 2.3509886e-038
42.706314 353.71375 -74.888527 2.3509886e-038
-37.063599 358.27505 -80.812088 2.3509886e-038
-36.408207 357.1167 -80.550812 2.3509886e-038
-30.634764 347.67844 -78.421928 2.3509886e-038
-25.38755 341.8082 -77.097847 2.3509886e-038
-20.543251 339.91653 -76.671165 2.3509886e-038
-15.866528 340.49756 -76.802223 2.3509886e-038
-11.2169 342.39734 -77.230728 2.3509886e-038
-6.5319557 345.20798 -77.8647 2.3509886e-038
-1.7733595 348.83246 -78.682228 2.3509886e-038
3.085201 352.41727 -79.490822 2.3509886e-038
8.0098505 354.53589 -79.968689 2.3509886e-038
12.908872 354.34082 -79.92469 2.3509886e-038
17.72176 352.54019 -79.518539 2.3509886e-038
22.438482 350.01688 -78.949387 2.3509886e-038
27.114168 347.86301 -78.46357 2.3509886e-038
31.886547 347.41214 -78.36187 2.3509886e-038
36.971233 350.03601 -78.953705 2.3509886e-038
42.591255 356.53354 -80.419273 2.3509886e-038
44.154037 359.017 -80.979446 2.3509886e-038
-32.0905 354.49942 -84.866058 2.3509886e-038
-31.071512 352.63513 -84.419754 2.3509886e-038
-25.640039 345.20761 -82.641632 2.3509886e-038
-20.676188 342.11618 -81.90155 2.3509886e-038
-15.913133 341.49771 -81.753494 2.3509886e-038
-11.212177 342.25317 -81.934349 2.3509886e-038
-6.5108013 344.09 -82.374077 2.3509886e-038
-1.7644365 347.07724 -83.089218 2.3509886e-038
3.0694911 350.62277 -83.938004 2.3509886e-038
7.9758663 353.03165 -84.514679 2.3509886e-038
12.861588 353.04294 -84.51738 2.3509886e-038
17.666599 351.44287 -84.134331 2.3509886e-038
22.398237 349.38907 -83.642662 2.3509886e-038
27.122505 347.96997 -83.30294 2.3509886e-038
31.965439 348.27167 -83.375153 2.3509886e-038
37.136482 351.60059 -84.172089 2.3509886e-038
42.900528 359.1225 -85.972809 2.3509886e-038
47.704086 367.50836 -87.980362 2.3509886e-038
-27.377647 351.42511 -88.993141 2.3509886e-038
-25.99168 349.94196 -88.617554 2.3509886e-038
-20.92037 346.15646 -87.658943 2.3509886e-038
-16.045824 344.34528 -87.200279 2.3509886e-038
-11.268397 343.9693 -87.105064 2.3509886e-038
-6.5269628 344.94412 -87.351929 2.3509886e-038
-1.7649944 347.18698 -87.919899 2.3509886e-038
3.0663829 350.2677 -88.70005 2.3509886e-038
7.9649425 352.54816 -89.277534 2.3509886e-038
12.847968 352.66907 -89.308151 2.3509886e-038
17.660257 351.31671 -88.965691 2.3509886e-038
22.417921 349.69617 -88.555313 2.3509886e-038
27.193254 348.87766 -88.348038 2.3509886e-038
32.102032 349.75995 -88.571457 2.3509886e-038
37.319199 353.33047 -89.475647 2.3509886e-038
43.073833 360.57324 -91.309761 2.3509886e-038
49.396404 370.57288 -93.842026 2.3509886e-038
52.90276 376.09991 -95.241669 2.3509886e-038
-22.805986 353.23349 -94.339195 2.3509886e-038
-21.286095 352.20789 -94.065285 2.3509886e-038
-16.299032 349.77911 -93.416626 2.3509886e-038
-11.410479 348.30634 -93.023277 2.3509886e-038
-6.5842514 347.97177 -92.933929 2.3509886e-038
-1.7745881 349.07416 -93.228348 2.3509886e-038
3.075773 351.34033 -93.83358 2.3509886e-038
7.982378 353.31989 -94.362267 2.3509886e-038
12.883878 353.65475 -94.451698 2.3509886e-038
17.726103 352.62659 -94.177101 2.3509886e-038
22.520575 351.29739 -93.822113 2.3509886e-038
27.343063 350.79965 -93.689178 2.3509886e-038
32.309048 352.01538 -94.01387 2.3509886e-038
37.547859 355.49539 -94.943283 2.3509886e-038
43.194897 361.58667 -96.570107 2.3509886e-038
49.285332 369.73959 -98.747528 2.3509886e-038
55.722622 378.71631 -101.14497 2.3509886e-038
58.162632 382.09802 -102.04813 2.3509886e-038
-17.618584 359.29266 -100.92936 2.3509886e-038
-16.717979 358.76984 -100.78249 2.3509886e-038
-11.655653 355.79031 -99.945511 2.3509886e-038
-6.6802168 353.04343 -99.173882 2.3509886e-038
-1.7909893 352.30038 -98.965149 2.3509886e-038
3.0944912 353.47849 -99.296097 2.3509886e-038
8.0241566 355.16913 -99.771011 2.3509886e-038
12.965315 355.89017 -99.973549 2.3509886e-038
17.859509 355.28046 -99.802284 2.3509886e-038
22.70299 354.14291 -99.482727 2.3509886e-038
27.56794 353.68472 -99.354019 2.3509886e-038
32.571846 354.87863 -99.689407 2.3509886e-038
37.810139 357.97861 -100.56023 2.3509886e-038
43.334911 362.75873 -101.90302 2.3509886e-038
49.225414 369.2901 -103.73775 2.3509886e-038
55.569233 377.67383 -106.09283 2.3509886e-038
62.232079 386.59802 -108.59974 2.3509886e-038
63.016338 387.59225 -108.87903 2.3509886e-038
-11.555742 365.08444 -107.60841 2.3509886e-038
-6.8037214 359.57053 -105.98319 2.3509886e-038
-1.8136343 356.75482 -105.15325 2.3509886e-038
3.1228709 356.72025 -105.14307 2.3509886e-038
8.0871735 357.95837 -105.50801 2.3509886e-038
13.078601 358.99979 -105.81496 2.3509886e-038
18.039011 358.85132 -105.7712 2.3509886e-038
22.946644 357.9437 -105.50368 2.3509886e-038
27.856005 357.38049 -105.33767 2.3509886e-038
32.870781 358.13562 -105.56025 2.3509886e-038
38.064869 360.39035 -106.22483 2.3509886e-038
43.472225 363.9082 -107.26172 2.3509886e-038
49.201908 369.11377 -108.79605 2.3509886e-038
55.408291 376.57999 -110.99672 2.3509886e-038
61.931 384.72766 -113.39824 2.3509886e-038
66.190727 389.3392 -114.75749 2.3509886e-038
-4.9422407 365.43314 -112.76808 2.3509886e-038
-1.8481419 363.54269 -112.18472 2.3509886e-038
3.1728802 362.43271 -111.84219 2.3509886e-038
8.1927509 362.6315 -111.90353 2.3509886e-038
13.23371 363.25745 -112.09669 2.3509886e-038
18.257271 363.19318 -112.07687 2.3509886e-038
23.236734 362.46878 -111.85332 2.3509886e-038
28.200951 361.80597 -111.64879 2.3509886e-038
33.223003 361.97318 -111.70038 2.3509886e-038
38.363541 363.21814 -112.08456 2.3509886e-038
43.679558 365.64377 -112.83308 2.3509886e-038
49.27475 369.66019 -114.0725 2.3509886e-038
55.259026 375.56552 -115.89481 2.3509886e-038
61.526726 382.21625 -117.94714 2.3509886e-038
67.132996 387.50195 -119.57824 2.3509886e-038
3.2058384 371.32452 -119.72453 2.3509886e-038
3.2505393 371.30359 -119.71777 2.3509886e-038
8.3507671 369.62573 -119.17678 2.3509886e-038
13.442878 368.99896 -118.97471 2.3509886e-038
18.529388 368.60645 -118.84814 2.3509886e-038
23.591629 368.00473 -118.65414 2.3509886e-038
28.625757 367.25604 -118.41274 2.3509886e-038
33.664352 366.7818 -118.25983 2.3509886e-038
38.770126 367.06757 -118.35197 2.3509886e-038
44.021461 368.50586 -118.81571 2.3509886e-038
49.486256 371.24695 -119.69951 2.3509886e-038
55.193813 375.12231 -120.94902 2.3509886e-038
61.117794 379.67587 -122.41721 2.3509886e-038
66.294579 383.79172 -123.74426 2.3509886e-038
13.160281 376.43561 -126.58164 2.3509886e-038
13.70692 376.24677 -126.51814 2.3509886e-038
18.864046 375.26382 -126.18761 2.3509886e-038
24.022539 374.72647 -126.00692 2.3509886e-038
29.135355 373.79398 -125.69335 2.3509886e-038
34.192181 372.53262 -125.2692 2.3509886e-038
39.27697 371.86624 -125.04514 2.3509886e-038
44.471401 372.27234 -125.18167 2.3509886e-038
49.801517 373.61203 -125.63216 2.3509886e-038
55.244827 375.46902 -126.25661 2.3509886e-038
60.829926 377.88757 -127.06988 2.3509886e-038
64.165665 379.78552 -127.70809 2.3509886e-038
24.453926 381.70773 -133.63658 2.3509886e-038
24.469833 381.70383 -133.63521 2.3509886e-038
29.633013 380.17871 -133.10127 2.3509886e-038
34.699039 378.05493 -132.35773 2.3509886e-038
39.756855 376.40973 -131.78174 2.3509886e-038
44.895058 375.81879 -131.57484 2.3509886e-038
50.123108 376.0246 -131.6469 2.3509886e-038
55.395226 376.49121 -131.81026 2.3509886e-038
60.612156 377.67319 -132.22408 2.3509886e-038
43.203083 379.08844 -137.96542 2.3509886e-038
45.242149 378.7243 -137.8329 2.3509886e-038
48.956436 378.44531 -137.73137 2.3509886e-038
-64.28891 347.54672 31.718109 2.3418052e-038
-65.731171 355.34357 14.721193 2.3418052e-038
-59.694618 348.80365 29.301327 2.3418052e-038
-61.178238 357.47263 5.9364333 2.3418052e-038
-53.835537 314.56824 -9.7229977 2.3509886e-038
-54.015198 315.61801 -26.658726 2.3509886e-038
-55.70089 354.09955 24.413671 2.3418052e-038
-51.071747 324.67133 -35.306652 2.3509886e-038
-51.284836 357.47327 18.214869 2.3418052e-038
-48.091957 335.21777 -47.030396 2.3509886e-038
-46.810005 361.11386 11.546806 2.3418052e-038
-44.755695 345.26596 -64.498909 2.3509886e-038
-42.315605 365.45566 5.0129576 2.3509886e-038
-41.10022 354.95905 -75.133888 2.3509886e-038
-36.671268 359.69699 -0.37153444 2.3418052e-038
-36.510883 358.12381 -81.350327 2.3509886e-038
-31.115782 353.13754 -3.8734307 2.3418052e-038
-31.155373 353.58688 -85.579834 2.3509886e-038
-24.346447 327.7912 34.516644 9.1476764e-041
-25.264351 340.14951 22.046989 9.1476764e-041
-26.362661 354.93671 -6.6107845 2.3509886e-038
-26.116072 351.61673 -90.418266 2.3509886e-038
-19.931238 329.78995 32.764275 9.1476764e-041
-21.08383 348.86115 16.554121 9.1476764e-041
-21.756657 359.99399 -8.9022503 9.1476764e-041
-21.42091 354.4386 -96.043945 2.3509886e-038
-15.691427 336.7399 30.115301 9.1476764e-041
-16.593052 356.08887 10.387231 9.1476764e-041
-17.020973 365.27206 -10.050423 9.1476764e-041
-16.792866 360.37689 -101.94376 2.3509886e-038
-11.297053 344.84402 26.410595 9.1476764e-041
-11.904774 363.39474 0.25948071 9.1476764e-041
-12.04325 367.62173 -6.5691323 9.1476764e-041
-11.956088 364.96115 -107.25274 2.3509886e-038
-6.6507316 351.48517 22.098755 9.1476764e-041
-6.9057283 364.96155 -111.17489 2.3509886e-038
-1.802691 354.60217 16.991343 9.1476764e-041
-1.8681424 367.47693 -115.51384 2.3509886e-038
3.1106353 355.3226 10.008817 2.3509886e-038
3.2509763 371.35352 -119.75847 2.3509886e-038
8.1285982 359.79193 1.6472656 2.3509886e-038
8.4549932 374.23898 -123.40108 2.3509886e-038
13.226085 363.04813 -3.4260213 2.3509886e-038
13.723164 376.69266 -126.96101 2.3509886e-038
18.128881 360.6391 -4.2786665 2.3509886e-038
19.066523 379.29166 -130.49113 2.3509886e-038
22.909365 357.36215 -1.1307641 2.3418409e-038
24.470402 381.71271 -133.64465 2.3509886e-038
27.615746 354.29803 5.8926005 2.3418409e-038
29.806952 382.41025 -135.8801 2.3509886e-038
32.106037 349.80353 16.116129 2.3418409e-038
34.990021 381.22528 -137.09966 2.3509886e-038
36.886848 349.23709 32.563957 2.3418409e-038
40.107609 379.73056 -137.76396 2.3509886e-038
41.553829 347.84918 38.665833 2.3418409e-038
41.897617 350.72705 -0.22946495 2.3418409e-038
41.633663 348.51749 -58.142921 2.3509886e-038
45.252594 378.81174 -137.98538 2.3509886e-038
46.419743 348.24188 38.174595 2.3418409e-038
46.319782 347.49197 20.000065 2.3418409e-038
49.435482 370.86603 -90.591171 2.3509886e-038
50.421131 378.26038 -137.45789 2.3509886e-038
55.83445 379.47638 -99.010979 2.3509886e-038
55.559399 377.60703 -135.70177 2.3509886e-038
62.270699 386.83792 -107.72577 2.3509886e-038
60.801983 377.71399 -132.04903 2.3509886e-038
