# .PCD v0.7 - Point Cloud Data file format
VERSION 0.7
FIELDS x y z rgb
SIZE 4 4 4 4
TYPE F F F F
COUNT 1 1 1 1
WIDTH 699
HEIGHT 1
VIEWPOINT 0 0 0 1 0 0 0
POINTS 699
DATA ascii
-69.039101 366.47162 36.245525 2.3418052e-038
0 0 0 3.5733111e-043
0 0 0 3.5733111e-043
-26.334484 372.76819 63.20277 2.3509528e-038
30.483339 340.65454 38.505272 2.3418409e-038
-32.305481 375.91162 66.150948 2.3509528e-038
-31.970951 375.67471 66.109253 2.3509528e-038
-26.68124 373.06708 65.650383 2.3509528e-038
-21.599094 372.81927 65.606773 2.3509528e-038
-21.157461 372.92581 65.625519 2.3509528e-038
-32.789761 376.2261 61.095596 2.3509528e-038
-31.961296 375.56131 60.987637 2.3509528e-038
-26.642904 372.53104 60.495548 2.3509528e-038
-21.530243 371.63086 60.349369 2.3509528e-038
-18.669918 372.43488 60.479939 2.3509528e-038
-32.17979 376.1546 55.974251 2.3509528e-038
-31.997665 375.98865 55.949558 2.3509528e-038
-26.645641 372.56934 55.440742 2.3509528e-038
-21.512171 371.31894 55.254677 2.3509528e-038
-17.06015 372.93115 55.494583 2.3509528e-038
-30.997766 376.37561 50.894409 2.3509528e-038
-26.717484 373.57385 50.515549 2.3509528e-038
-21.544901 371.88391 50.287029 2.3509528e-038
-16.543068 373.0087 50.439125 2.3509528e-038
-15.739491 373.68753 50.530922 2.3509528e-038
-29.635626 377.64124 45.935619 2.3509528e-038
-26.8458 375.36801 45.659107 2.3509528e-038
-21.587688 372.62244 45.325142 2.3509528e-038
-16.542036 372.98541 45.369293 2.3509528e-038
-14.206387 374.70999 45.579067 2.3509528e-038
27.987755 342.23041 41.628307 2.3418409e-038
31.181921 340.82034 41.456791 2.3418409e-038
33.973007 340.94843 41.47237 2.3418409e-038
-74.286629 368.51715 39.819801 2.3418052e-038
-71.068825 366.75818 39.629734 2.3418052e-038
-65.853416 365.46338 39.489826 2.3418052e-038
-63.239136 366.16663 39.565815 2.3418052e-038
-28.440067 378.5957 40.908833 2.3509528e-038
-26.965353 377.03964 40.740692 2.3509528e-038
-21.616041 373.11182 40.316273 2.3509528e-038
-16.548634 373.13416 40.318687 2.3509528e-038
-12.408799 377.33905 40.773045 2.3509528e-038
26.652771 344.54422 37.229427 2.3418409e-038
26.82729 344.35172 37.208626 2.3418409e-038
31.223495 341.27478 36.876148 2.3418409e-038
35.970245 342.32953 36.99012 2.3418409e-038
36.0989 342.466 37.004868 2.3418409e-038
-74.829597 369.95673 34.949829 2.3418052e-038
-71.292175 367.91083 34.756554 2.3418052e-038
-66.0746 366.69089 34.6413 2.3418052e-038
-61.396935 368.51257 34.813396 2.3418052e-038
-59.591614 370.50177 35.001316 2.3418052e-038
-27.702885 379.29089 35.831627 2.3509528e-038
-27.070116 378.50449 35.757332 2.3509528e-038
-21.641901 373.55817 35.290054 2.3509528e-038
-16.553604 373.24628 35.260593 2.3509528e-038
-11.661473 379.03488 35.807438 2.3509528e-038
-10.557469 381.452 36.035782 2.3509528e-038
26.252298 346.05185 32.691532 2.3418409e-038
26.900274 345.28854 32.619423 2.3418409e-038
31.306255 342.17932 32.325695 2.3418409e-038
36.086243 343.43347 32.444172 2.3418409e-038
37.699203 345.42581 32.632393 2.3418409e-038
-73.405617 371.51379 30.050232 2.3418052e-038
-71.77504 370.40268 29.960358 2.3418052e-038
-66.375717 368.36197 29.795294 2.3418052e-038
-61.483341 369.03119 29.849422 2.3418052e-038
-57.031689 372.69931 30.146124 2.3418052e-038
-56.464745 373.42001 30.204416 2.3418052e-038
-27.08213 380.73767 30.796312 2.3509528e-038
-21.700018 374.56131 30.296732 2.3509528e-038
-16.541988 372.98431 30.169176 2.3509528e-038
-11.619902 377.68365 30.549284 2.3509528e-038
-9.0864258 382.73544 30.957903 2.3509528e-038
26.133698 346.77188 28.048958 2.3418409e-038
26.943707 345.84604 27.974072 2.3418409e-038
31.379677 342.98184 27.742399 2.3418409e-038
36.217583 344.68344 27.880033 2.3418409e-038
38.781441 348.22983 28.166887 2.3418409e-038
-70.654144 372.05554 25.040014 2.3418052e-038
-66.662025 369.9509 24.898367 2.3418052e-038
-61.477283 368.99484 24.834023 2.3418052e-038
-56.72113 370.66986 24.946756 2.3418052e-038
-52.832062 374.75848 25.221928 2.3418052e-038
-26.275743 382.20963 25.723404 2.3509528e-038
-21.776344 375.87878 25.297325 2.3509528e-038
-16.506227 372.17798 25.048254 2.3509528e-038
-11.516742 374.33063 25.193132 2.3509528e-038
-7.9567347 378.52209 25.475224 2.3509528e-038
25.905052 347.37473 23.378952 2.3418409e-038
26.970779 346.19351 23.299454 2.3418409e-038
31.428528 343.51578 23.119238 2.3418409e-038
36.292522 345.39667 23.245823 2.3418409e-038
39.285278 349.53488 23.524332 2.3418409e-038
-67.155701 371.89206 19.977182 2.3418052e-038
-66.990982 371.77643 19.97097 2.3418052e-038
-61.50132 369.1391 19.8293 2.3418052e-038
-56.49337 369.18146 19.831573 2.3418052e-038
-51.944176 372.52209 20.011024 2.3418052e-038
-48.939777 376.2294 20.210173 2.3418052e-038
-25.291832 382.78036 20.562077 2.3509528e-038
-21.854509 377.228 20.263815 2.3509528e-038
-16.464779 371.24344 19.942339 2.3509528e-038
-11.381831 369.94562 19.872623 2.3509528e-038
-6.436368 369.5553 19.851656 2.3509528e-038
25.408539 348.32983 18.711473 2.3418409e-038
26.999912 346.56747 18.616802 2.3418409e-038
31.460974 343.87042 18.471924 2.3418409e-038
36.289207 345.36511 18.552216 2.3418409e-038
39.30582 348.84882 18.739351 2.3418409e-038
-63.407703 371.22028 14.898392 2.3509886e-038
-61.69241 370.28604 14.860896 2.3509886e-038
-56.488811 369.15164 14.81537 2.3418052e-038
-51.741802 371.07074 14.892389 2.3418052e-038
-47.165859 374.76312 15.040578 2.3418052e-038
-44.845539 377.07608 15.133405 2.3418052e-038
-23.982922 382.05847 15.333365 2.3509528e-038
-21.920641 378.36948 15.185313 2.3509528e-038
-16.421854 370.2756 14.860478 2.3509528e-038
-11.232995 365.10797 14.653083 2.3509528e-038
-6.1714096 359.17517 14.414978 2.3509886e-038
-2.1161609 351.56238 14.109449 2.3509886e-038
24.68729 349.83981 14.040317 2.3418409e-038
27.052567 347.24335 13.93611 2.3418409e-038
31.506464 344.36761 13.820699 2.3418409e-038
36.255138 345.04089 13.847719 2.3418409e-038
39.145927 347.31079 13.938817 2.3418409e-038
-60.463257 372.17453 9.8810215 2.3509886e-038
-56.785095 371.08786 9.8521709 2.3418052e-038
-51.799923 371.48758 9.8627844 2.3418052e-038
-46.979092 373.27914 9.9103489 2.3418052e-038
-42.251019 376.33066 9.9913645 2.3418052e-038
-40.738888 377.72134 10.028287 2.3418052e-038
-22.310947 378.68472 10.053864 2.3509528e-038
-21.887178 377.79187 10.03016 2.3509528e-038
-16.280975 367.09909 9.7462711 2.3509528e-038
-11.008795 357.82074 9.4999371 2.3509886e-038
-5.9907026 348.65805 9.2566729 2.3509886e-038
-1.2267143 340.93924 9.0517426 2.3509886e-038
3.3797779 338.44876 8.9856215 2.3509886e-038
5.6878467 339.22263 9.0061674 2.3509886e-038
23.908255 351.91861 9.3432388 2.3418409e-038
27.148857 348.47934 9.2519283 2.3418409e-038
31.607038 345.46692 9.1719494 2.3418409e-038
36.321732 345.67462 9.1774654 2.3418409e-038
39.151894 347.34998 9.2219439 2.3418409e-038
-58.163059 375.31665 4.8660936 2.3509886e-038
-57.382332 374.99075 4.8618684 2.3418052e-038
-52.079151 373.49008 4.8424115 2.3418052e-038
-46.962166 373.14465 4.8379331 2.3418052e-038
-42.055641 374.59042 4.856678 2.3418052e-038
-37.355343 378.52396 4.9076777 2.3418052e-038
-36.770691 379.16949 4.9160471 2.3418052e-038
-20.39975 365.05682 4.7330718 2.3509886e-038
-15.756786 355.27982 4.6063099 2.3509886e-038
-10.640267 345.84241 4.4839511 2.3509886e-038
-5.8190117 338.66565 4.390903 2.3509886e-038
-1.2104665 336.42355 4.3618331 2.3509886e-038
3.3808706 338.55817 4.3895092 2.3509886e-038
8.0878639 343.13919 4.4489031 2.3509886e-038
10.831902 346.18356 4.4883747 2.3509886e-038
22.357067 354.18121 4.5920663 2.3418409e-038
22.764557 353.91226 4.5885792 2.3418409e-038
27.249044 349.76529 4.5348125 2.3418409e-038
31.752977 347.06201 4.4997635 2.3418409e-038
36.502205 347.39221 4.504045 2.3418409e-038
39.349438 349.09988 4.5261855 2.3418409e-038
-55.495529 378.73044 -0.23435457 2.3418052e-038
-52.526344 376.69714 -0.23309638 2.3418052e-038
-47.078487 374.06891 -0.23147005 2.3418052e-038
-41.936687 373.53091 -0.23113716 2.3418052e-038
-36.984325 374.76437 -0.23190039 2.3418052e-038
-31.809151 373.77353 -0.23128727 2.3418052e-038
-31.280384 373.33517 -0.23101604 2.3418052e-038
-19.70583 346.08963 -0.21415675 2.3509886e-038
-14.938352 336.82596 -0.20842449 2.3509886e-038
-10.230633 332.52798 -0.20576495 2.3509886e-038
-5.709229 332.27634 -0.20560923 2.3509886e-038
-1.2111579 336.61569 -0.20829436 2.3509886e-038
3.4194107 342.41754 -0.2118845 2.3509886e-038
8.1979847 347.81122 -0.21522206 2.3509886e-038
13.085951 352.20517 -0.21794097 2.3418409e-038
18.01012 354.95987 -0.21964557 2.3418409e-038
22.764481 353.91107 -0.21899658 2.3418409e-038
27.308514 350.52866 -0.21690358 2.3418409e-038
31.891264 348.57355 -0.21569377 2.3418409e-038
36.702515 349.29852 -0.21614239 2.3418409e-038
39.585701 351.15701 -0.2172924 2.3418409e-038
-51.951153 379.95563 -5.3964782 2.3418052e-038
-47.371056 376.39355 -5.3458867 2.3418052e-038
-41.979393 373.91129 -5.3106313 2.3418052e-038
-36.684433 371.72559 -5.2795882 2.3418052e-038
-30.960474 363.80112 -5.167037 2.3509886e-038
-24.883236 347.9267 -4.9415741 2.3509886e-038
-19.136787 330.31775 -4.6914754 2.3509886e-038
-14.364518 323.88733 -4.6001449 2.3509886e-038
-10.045285 326.50363 -4.6373043 2.3509886e-038
-5.7333813 333.68201 -4.7392578 2.3509886e-038
-1.2341913 343.01733 -4.8718472 2.3509886e-038
3.4941244 349.89932 -4.9695911 2.3509886e-038
8.3334751 353.5596 -5.0215783 2.3418409e-038
13.195211 355.14587 -5.0441079 2.3418409e-038
18.016565 355.08688 -5.0432701 2.3418409e-038
22.72193 353.24954 -5.0171742 2.3418409e-038
27.324686 350.73624 -4.9814777 2.3418409e-038
31.968363 349.4162 -4.9627299 2.3418409e-038
36.805058 350.27444 -4.9749193 2.3418409e-038
39.753025 352.0423 -5.0000277 2.3509886e-038
-48.243782 380.91534 -10.584498 2.3509886e-038
-47.900757 380.60239 -10.575803 2.3509886e-038
-42.198578 375.86359 -10.444125 2.3418052e-038
-36.417187 369.01758 -10.253895 2.3509886e-038
-30.111866 353.82956 -9.8318663 2.3509886e-038
-23.913744 334.37091 -9.2911682 2.3509886e-038
-18.602507 321.09558 -8.922286 2.3509886e-038
-14.254135 321.39844 -8.9307022 2.3509886e-038
-10.189209 331.18161 -9.2025471 2.3509886e-038
-5.9074235 343.81122 -9.5534868 2.3509886e-038
-1.2747477 354.28915 -9.8446369 2.3509886e-038
3.5853631 359.03592 -9.9765348 2.3509886e-038
8.4685001 359.28824 -9.9835463 2.3509886e-038
13.292697 357.76965 -9.94135 2.3418409e-038
18.041742 355.58313 -9.8805923 2.3418409e-038
22.71883 353.20135 -9.8144102 2.3418409e-038
27.351902 351.08557 -9.755619 2.3418409e-038
32.012066 349.89389 -9.7225056 2.3418409e-038
36.823795 350.45279 -9.7380352 2.3418409e-038
39.985073 351.96414 -9.7800312 2.3509886e-038
-44.873081 382.14581 -15.809808 2.3509886e-038
-42.529499 378.8111 -15.671845 2.3509886e-038
-36.141563 366.22464 -15.15113 2.3509886e-038
-29.378809 345.21576 -14.281968 2.3509886e-038
-23.265955 325.31326 -13.45858 2.3509886e-038
-18.472708 318.8551 -13.191399 2.3509886e-038
-14.491834 326.758 -13.518351 2.3509886e-038
-10.525528 342.11304 -14.153605 2.3509886e-038
-6.1292405 356.72095 -14.757952 2.3509886e-038
-1.313481 365.05426 -15.10271 2.3509886e-038
3.6604307 366.55313 -15.16472 2.3509886e-038
8.5790215 363.97726 -15.058152 2.3509886e-038
13.389956 360.38736 -14.909635 2.3418409e-038
18.117596 357.07809 -14.772727 2.3418409e-038
22.789803 354.30475 -14.657991 2.3418409e-038
27.423683 352.00693 -14.562927 2.3418409e-038
32.055977 350.37384 -14.495363 2.3418409e-038
36.799404 350.22064 -14.489027 2.3509886e-038
40.442772 351.34457 -14.535525 2.3509886e-038
-40.67202 376.67871 -20.70048 2.3509886e-038
-35.879627 363.57047 -19.98011 2.3509886e-038
-28.942186 340.08524 -18.689474 2.3509886e-038
-23.028458 321.99249 -17.695183 2.3509886e-038
-18.556601 320.30319 -17.602348 2.3509886e-038
-14.777546 333.20016 -18.311104 2.3509886e-038
-10.802691 351.12177 -19.295988 2.3509886e-038
-6.270915 364.9664 -20.056826 2.3509886e-038
-1.3334419 370.60193 -20.366528 2.3509886e-038
3.6984787 370.36322 -20.353411 2.3509886e-038
8.651782 367.06421 -20.172112 2.3509886e-038
13.482277 362.87219 -19.941738 2.3509886e-038
18.225164 359.19818 -19.739832 2.3509886e-038
22.906384 356.11719 -19.570515 2.3418409e-038
27.527084 353.3342 -19.417574 2.3418409e-038
32.107803 350.94031 -19.286018 2.3509886e-038
36.759197 349.83798 -19.225439 2.3509886e-038
41.105164 350.38702 -19.255611 2.3509886e-038
-35.480175 360.78384 -24.727907 2.3509886e-038
-28.79331 338.33588 -23.189337 2.3509886e-038
-23.069469 322.56595 -22.108475 2.3509886e-038
-18.648592 321.89108 -22.06222 2.3509886e-038
-14.851347 334.8642 -22.951391 2.3509886e-038
-10.855705 352.84488 -24.183775 2.3509886e-038
-6.300281 366.67551 -25.131718 2.3509886e-038
-1.3376681 371.77652 -25.481339 2.3509886e-038
3.7108667 371.60376 -25.469498 2.3509886e-038
8.6917963 368.76187 -25.274715 2.3509886e-038
13.552685 364.76715 -25.000921 2.3509886e-038
18.318216 361.0321 -24.744923 2.3509886e-038
23.007397 357.68762 -24.515694 2.3509886e-038
27.613945 354.44913 -24.293728 2.3509886e-038
32.148678 351.38705 -24.083857 2.3509886e-038
36.713013 349.39844 -23.947557 2.3509886e-038
41.419079 349.0596 -23.924335 2.3509886e-038
41.645844 349.1572 -23.931023 2.3509886e-038
-30.981432 343.28116 -28.191458 2.3509886e-038
-28.61639 336.25699 -27.614609 2.3509886e-038
-23.196869 324.34729 -26.636543 2.3509886e-038
-18.741055 323.487 -26.565895 2.3509886e-038
-14.816216 334.07208 -27.435179 2.3509886e-038
-10.79167 350.76349 -28.805935 2.3509886e-038
-6.2733412 365.1076 -29.983923 2.3509886e-038
-1.3346903 370.94894 -30.463634 2.3509886e-038
3.7098098 371.49792 -30.508718 2.3509886e-038
8.7037735 369.27005 -30.32576 2.3509886e-038
13.586899 365.68802 -30.03159 2.3509886e-038
18.374998 362.15121 -29.741135 2.3509886e-038
23.080631 358.8262 -29.468073 2.3509886e-038
27.686792 355.38419 -29.185402 2.3509886e-038
32.189556 351.83389 -28.893837 2.3509886e-038
36.687325 349.15399 -28.673758 2.3509886e-038
41.290367 347.97488 -28.576925 2.3509886e-038
42.169319 348.18326 -28.594036 2.3509886e-038
-28.624603 334.33231 -31.998161 2.3509886e-038
-28.413855 333.87704 -31.95459 2.3509886e-038
-23.336496 326.29962 -31.22937 2.3509886e-038
-18.878265 325.85544 -31.186859 2.3509886e-038
-14.833153 334.45398 -32.009808 2.3509886e-038
-10.753844 349.53403 -33.453083 2.3509886e-038
-6.2484679 363.65997 -34.805046 2.3509886e-038
-1.3307887 369.86456 -35.398872 2.3509886e-038
3.7027085 370.7868 -35.487137 2.3509886e-038
8.6942091 368.86423 -35.303131 2.3509886e-038
13.584507 365.62366 -34.992981 2.3509886e-038
18.390749 362.46164 -34.690353 2.3509886e-038
23.119268 359.42685 -34.399902 2.3509886e-038
27.733681 355.98602 -34.070587 2.3509886e-038
32.209461 352.05142 -33.694016 2.3509886e-038
36.656006 348.85596 -33.388184 2.3509886e-038
41.199059 347.20541 -33.230217 2.3509886e-038
43.041058 347.40424 -33.249245 2.3509886e-038
-28.07633 333.8428 -36.486252 2.3509886e-038
-23.523855 328.91934 -35.948158 2.3509886e-038
-19.070095 329.16656 -35.975178 2.3509886e-038
-14.954019 337.1792 -36.850891 2.3509886e-038
-10.793586 350.82574 -38.342346 2.3509886e-038
-6.2458754 363.50909 -39.728531 2.3509886e-038
-1.3277208 369.01187 -40.329941 2.3509886e-038
3.6922617 369.74066 -40.409592 2.3509886e-038
8.6719999 367.92197 -40.210819 2.3509886e-038
13.560287 364.9718 -39.888393 2.3509886e-038
18.375395 362.15906 -39.580982 2.3509886e-038
23.115183 359.36331 -39.275429 2.3509886e-038
27.725445 355.88031 -38.894768 2.3509886e-038
32.167915 351.59735 -38.426674 2.3509886e-038
36.568779 348.02579 -38.036335 2.3509886e-038
41.07032 346.12045 -37.828094 2.3509886e-038
44.17654 346.30243 -37.847984 2.3509886e-038
-28.561253 336.43613 -41.33987 2.3509886e-038
-23.728718 331.78381 -40.768215 2.3509886e-038
-19.281921 332.82288 -40.895889 2.3509886e-038
-15.119499 340.91043 -41.889656 2.3509886e-038
-10.864962 353.14572 -43.393074 2.3509886e-038
-6.2495627 363.72369 -44.692856 2.3509886e-038
-1.3242038 368.03439 -45.222534 2.3509886e-038
3.6788731 368.39993 -45.267452 2.3509886e-038
8.644989 366.776 -45.067905 2.3509886e-038
13.534595 364.2803 -44.76125 2.3509886e-038
18.356823 361.79297 -44.455616 2.3509886e-038
23.092306 359.00766 -44.113369 2.3509886e-038
27.680254 355.30026 -43.657818 2.3509886e-038
32.093616 350.78525 -43.103031 2.3509886e-038
36.474983 347.13312 -42.654274 2.3509886e-038
40.975143 345.31833 -42.431274 2.3509886e-038
45.421658 345.90936 -42.503902 2.3509886e-038
-29.510904 338.91058 -46.247723 2.3509886e-038
-28.757931 337.92014 -46.112568 2.3509886e-038
-23.887732 334.00717 -45.578606 2.3509886e-038
-19.4559 335.8259 -45.82679 2.3509886e-038
-15.249044 343.83139 -46.91922 2.3509886e-038
-10.905611 354.46695 -48.370544 2.3509886e-038
-6.2362604 362.94949 -49.528072 2.3509886e-038
-1.3183564 366.40924 -50.000191 2.3509886e-038
3.6625452 366.76486 -50.048721 2.3509886e-038
8.6162319 365.55597 -49.883755 2.3509886e-038
13.508776 363.58536 -49.614841 2.3509886e-038
18.333513 361.33359 -49.307568 2.3509886e-038
23.053074 358.39777 -48.906944 2.3509886e-038
27.613672 354.44562 -48.367634 2.3509886e-038
32.018597 349.9653 -47.756252 2.3509886e-038
36.422298 346.63171 -47.30135 2.3509886e-038
40.995445 345.48944 -47.145473 2.3509886e-038
45.943993 347.42053 -47.408993 2.3509886e-038
46.533577 347.89023 -47.473087 2.3509886e-038
-30.804832 340.83099 -51.139679 2.3509886e-038
-28.794783 338.35315 -50.767895 2.3509886e-038
-23.983959 335.35269 -50.317692 2.3509886e-038
-19.559536 337.61475 -50.657101 2.3509886e-038
-15.292969 344.82178 -51.738476 2.3509886e-038
-10.875342 353.48312 -53.038052 2.3509886e-038
-6.1891041 360.20499 -54.046635 2.3509886e-038
-1.3082771 363.60794 -54.557228 2.3509886e-038
3.6417241 364.67987 -54.718063 2.3509886e-038
8.5846262 364.21506 -54.648319 2.3509886e-038
13.476777 362.72412 -54.424614 2.3509886e-038
18.296589 360.60583 -54.106781 2.3509886e-038
22.9974 357.5322 -53.645596 2.3509886e-038
27.54097 353.51245 -53.042458 2.3509886e-038
31.962208 349.34897 -52.417751 2.3509886e-038
36.418179 346.59253 -52.004162 2.3509886e-038
41.119411 346.53415 -51.995407 2.3509886e-038
46.347496 350.47174 -52.586216 2.3509886e-038
47.392761 351.77478 -52.781731 2.3509886e-038
-32.654671 345.29303 -56.499683 2.3509886e-038
-28.91724 339.79211 -55.599579 2.3509886e-038
-24.077681 336.66312 -55.087589 2.3509886e-038
-19.611717 338.51544 -55.390678 2.3509886e-038
-15.256934 344.00928 -56.289627 2.3509886e-038
-10.776236 350.26184 -57.312721 2.3509886e-038
-6.1072841 355.44308 -58.160522 2.3509886e-038
-1.2928354 359.31619 -58.79427 2.3509886e-038
3.6128681 361.79025 -59.199097 2.3509886e-038
8.5454636 362.5535 -59.323986 2.3509886e-038
13.43753 361.66782 -59.179062 2.3509886e-038
18.253618 359.75897 -58.866722 2.3509886e-038
22.944057 356.70288 -58.366661 2.3509886e-038
27.484863 352.79227 -57.726772 2.3509886e-038
31.930893 349.00668 -57.107346 2.3509886e-038
36.429913 346.70419 -56.730587 2.3509886e-038
41.226494 347.43661 -56.850433 2.3509886e-038
46.616947 352.50928 -57.68047 2.3509886e-038
47.803707 354.16705 -57.951721 2.3509886e-038
-34.118443 351.12161 -62.22308 2.3509886e-038
-29.120621 342.18192 -60.638859 2.3509886e-038
-24.182428 338.12775 -59.920406 2.3509886e-038
-19.631531 338.85745 -60.049721 2.3509886e-038
-15.178278 342.23578 -60.648403 2.3509886e-038
-10.651248 346.19934 -61.350796 2.3509886e-038
-6.0149055 350.06665 -62.036133 2.3509886e-038
-1.2743083 354.16702 -62.762768 2.3509886e-038
3.5744104 357.93912 -63.431232 2.3509886e-038
8.4894867 360.17862 -63.828094 2.3509886e-038
13.386975 360.30713 -63.850872 2.3509886e-038
18.211723 358.9332 -63.607395 2.3509886e-038
22.908329 356.14746 -63.113728 2.3509886e-038
27.458881 352.45874 -62.460037 2.3509886e-038
31.923943 348.93069 -61.834824 2.3509886e-038
36.444847 346.84631 -61.465446 2.3509886e-038
41.292973 347.99686 -61.669338 2.3509886e-038
46.755993 353.56073 -62.655323 2.3509886e-038
47.968033 355.28067 -62.960117 2.3509886e-038
-33.96479 354.18439 -67.577133 2.3509886e-038
-29.414457 345.63467 -65.945877 2.3509886e-038
-24.330549 340.19882 -64.908737 2.3509886e-038
-19.650503 339.18491 -64.715286 2.3509886e-038
-15.098644 340.44022 -64.954796 2.3509886e-038
-10.540783 342.60889 -65.368568 2.3509886e-038
-5.9353337 345.43558 -65.907898 2.3509886e-038
-1.2565938 349.24365 -66.634453 2.3509886e-038
3.531707 353.66281 -67.477623 2.3509886e-038
8.4190254 357.18921 -68.150444 2.3509886e-038
13.324714 358.63138 -68.425606 2.3509886e-038
18.168774 358.08673 -68.321693 2.3509886e-038
22.883745 355.76526 -67.878761 2.3509886e-038
27.452744 352.37994 -67.232857 2.3509886e-038
31.937067 349.07413 -66.602112 2.3509886e-038
36.475807 347.14096 -66.233276 2.3509886e-038
41.37225 348.66498 -66.524048 2.3509886e-038
46.940838 354.9585 -67.724831 2.3509886e-038
48.284382 357.01489 -68.117188 2.3509886e-038
-31.723022 354.30841 -72.413734 2.3509886e-038
-29.868494 350.96982 -71.7314 2.3509886e-038
-24.581429 343.70673 -70.246964 2.3509886e-038
-19.712864 340.26132 -69.542786 2.3509886e-038
-15.053003 339.4111 -69.369019 2.3509886e-038
-10.467405 340.22388 -69.535133 2.3509886e-038
-5.8808208 342.26294 -69.951881 2.3509886e-038
-1.2431321 345.50226 -70.613937 2.3509886e-038
3.4940426 349.89114 -71.510941 2.3509886e-038
8.3474321 354.15173 -72.381721 2.3509886e-038
13.255611 356.77148 -72.917145 2.3509886e-038
18.116882 357.06403 -72.976936 2.3509886e-038
22.850168 355.24323 -72.604797 2.3509886e-038
27.443127 352.2565 -71.99437 2.3509886e-038
31.963289 349.36075 -71.402527 2.3509886e-038
36.540012 347.75204 -71.073738 2.3509886e-038
41.509903 349.82501 -71.497429 2.3509886e-038
47.254772 357.3324 -73.031784 2.3509886e-038
49.163769 360.70306 -73.72068 2.3509886e-038
-28.10133 354.24005 -77.211815 2.3509886e-038
-24.967525 349.10526 -76.092613 2.3509886e-038
-19.85611 342.73386 -74.703873 2.3509886e-038
-15.065643 339.69611 -74.041748 2.3509886e-038
-10.438611 339.28796 -73.952789 2.3509886e-038
-5.8528056 340.63248 -74.245842 2.3509886e-038
-1.2349527 343.22897 -74.811783 2.3509886e-038
3.4670959 347.19272 -75.675743 2.3509886e-038
8.2879982 351.63016 -76.642944 2.3509886e-038
13.188402 354.96259 -77.369301 2.3509886e-038
18.054605 355.83664 -77.559814 2.3509886e-038
22.800177 354.46606 -77.261078 2.3509886e-038
27.422632 351.99347 -76.722137 2.3509886e-038
31.996544 349.72424 -76.227524 2.3509886e-038
36.630543 348.61356 -75.985435 2.3509886e-038
41.650188 351.00729 -76.507179 2.3509886e-038
47.472408 358.97815 -78.244553 2.3509886e-038
51.270115 366.26981 -79.83387 2.3509886e-038
-23.854446 351.88519 -81.478592 2.3509886e-038
-20.050531 346.08975 -80.136665 2.3509886e-038
-15.144535 341.47495 -79.068108 2.3509886e-038
-10.460566 340.00156 -78.726944 2.3509886e-038
-5.8524451 340.61148 -78.868172 2.3509886e-038
-1.2325099 342.55002 -79.317039 2.3509886e-038
3.4541969 345.901 -80.092957 2.3509886e-038
8.2514191 350.07825 -81.060196 2.3509886e-038
13.137967 353.60516 -81.876846 2.3509886e-038
18.000803 354.77628 -82.148018 2.3509886e-038
22.760277 353.84573 -81.932549 2.3509886e-038
27.422037 351.98581 -81.501884 2.3509886e-038
32.057873 350.39456 -81.133438 2.3509886e-038
36.758667 349.83298 -81.003403 2.3509886e-038
41.799648 352.26688 -81.566971 2.3509886e-038
47.573162 359.74002 -83.297363 2.3509886e-038
54.298088 372.34518 -86.21608 2.3509886e-038
55.575253 374.81982 -86.78907 2.3509886e-038
-19.854263 350.74438 -85.978996 2.3509886e-038
-15.342643 345.9418 -84.801727 2.3509886e-038
-10.559555 343.21906 -84.134285 2.3509886e-038
-5.8877716 342.66748 -83.999084 2.3509886e-038
-1.2367762 343.73575 -84.260948 2.3509886e-038
3.4585056 346.33249 -84.897499 2.3509886e-038
8.2483807 349.94934 -85.784103 2.3509886e-038
13.124487 353.24234 -86.591324 2.3509886e-038
17.985912 354.48276 -86.895401 2.3509886e-038
22.768646 353.97586 -86.771141 2.3509886e-038
27.480764 352.73962 -86.468102 2.3509886e-038
32.180649 351.73651 -86.222198 2.3509886e-038
36.952454 351.67725 -86.207672 2.3509886e-038
42.010094 354.04041 -86.786964 2.3509886e-038
47.672092 360.48813 -88.367508 2.3509886e-038
54.153259 371.35202 -91.030602 2.3509886e-038
61.062206 383.1636 -93.92601 2.3509886e-038
-15.969893 355.24838 -91.908821 2.3509886e-038
-15.743319 354.97614 -91.838379 2.3509886e-038
-10.770566 350.07755 -90.57103 2.3509886e-038
-5.9715028 347.54065 -89.914696 2.3509886e-038
-1.2492503 347.20267 -89.827255 2.3509886e-038
3.482646 348.74991 -90.227554 2.3509886e-038
8.2857847 351.53629 -90.948433 2.3509886e-038
13.163259 354.28586 -91.659798 2.3509886e-038
18.034607 355.4425 -91.959038 2.3509886e-038
22.851177 355.25891 -91.911537 2.3509886e-038
27.620388 354.53183 -91.723434 2.3509886e-038
32.389633 354.02072 -91.591202 2.3509886e-038
37.239326 354.40744 -91.691246 2.3509886e-038
42.327305 356.71368 -92.28791 2.3509886e-038
47.873989 362.01483 -93.659416 2.3509886e-038
54.051384 370.65341 -95.894363 2.3509886e-038
60.702953 380.79422 -98.51796 2.3509886e-038
66.344315 388.92429 -100.62135 2.3509886e-038
-11.002473 359.65668 -97.934937 2.3509886e-038
-6.1030302 355.19553 -96.720154 2.3509886e-038
-1.2702781 353.04694 -96.135086 2.3509886e-038
3.5241661 352.90768 -96.097176 2.3509886e-038
8.3519411 354.34302 -96.488022 2.3509886e-038
13.239876 356.34799 -97.033974 2.3509886e-038
18.138414 357.4884 -97.344513 2.3509886e-038
23.003016 357.61951 -97.380203 2.3509886e-038
27.833385 357.26584 -97.283897 2.3509886e-038
32.676609 357.15738 -97.254372 2.3509886e-038
37.609112 357.92667 -97.463844 2.3509886e-038
42.726063 360.07422 -98.04863 2.3509886e-038
48.152248 364.11899 -99.150024 2.3509886e-038
54.031078 370.51416 -100.89143 2.3509886e-038
60.423138 379.03894 -103.21275 2.3509886e-038
67.128891 388.03821 -105.66326 2.3509886e-038
70.970398 392.742 -106.94411 2.3509886e-038
-5.0417914 363.83124 -104.01401 2.3509886e-038
-1.298526 360.89783 -103.17538 2.3509886e-038
3.5823088 358.73004 -102.55565 2.3509886e-038
8.4497328 358.49194 -102.48758 2.3509886e-038
13.358646 359.54468 -102.78854 2.3509886e-038
18.294369 360.56207 -103.0794 2.3509886e-038
23.212164 360.87106 -103.16773 2.3509886e-038
28.099327 360.67941 -103.11295 2.3509886e-038
33.002571 360.72015 -103.12459 2.3509886e-038
37.993149 361.58154 -103.37084 2.3509886e-038
43.117851 363.37601 -103.88387 2.3509886e-038
48.436401 366.26767 -104.71055 2.3509886e-038
54.080418 370.85254 -106.02129 2.3509886e-038
60.254845 377.98322 -108.05984 2.3509886e-038
66.879646 386.59747 -110.52254 2.3509886e-038
73.622093 394.58807 -112.80693 2.3509886e-038
75.033707 396.05695 -113.22686 2.3509886e-038
1.5318062 368.04883 -110.21938 2.3509886e-038
3.6620643 366.71671 -109.82045 2.3509886e-038
8.6062794 365.1337 -109.34638 2.3509886e-038
13.558153 364.91437 -109.2807 2.3509886e-038
18.526892 365.14487 -109.34973 2.3509886e-038
23.483658 365.09189 -109.33386 2.3509886e-038
28.413353 364.71024 -109.21957 2.3509886e-038
33.349701 364.51431 -109.1609 2.3509886e-038
38.355431 365.02936 -109.31514 2.3509886e-038
43.466393 366.31335 -109.69966 2.3509886e-038
48.716293 368.38419 -110.31981 2.3509886e-038
54.201702 371.68423 -111.30807 2.3509886e-038
60.147133 377.30753 -112.99208 2.3509886e-038
66.585091 384.89484 -115.26424 2.3509886e-038
73.239731 392.53876 -117.55336 2.3509886e-038
77.673233 396.62683 -118.77762 2.3509886e-038
9.5157423 375.78015 -117.63929 2.3509886e-038
13.892573 373.91519 -117.05545 2.3509886e-038
18.883507 372.17334 -116.51016 2.3509886e-038
23.854094 370.85089 -116.09617 2.3509886e-038
28.81279 369.83734 -115.77887 2.3509886e-038
33.772495 369.13547 -115.55914 2.3509886e-038
38.784237 369.11032 -115.55127 2.3509886e-038
43.887596 369.86307 -115.78693 2.3509886e-038
49.100891 371.29245 -116.23439 2.3509886e-038
54.467899 373.50961 -116.92849 2.3509886e-038
60.191296 377.58456 -118.20417 2.3509886e-038
66.351334 383.54358 -120.06966 2.3509886e-038
72.757629 389.95486 -122.07673 2.3509886e-038
78.318268 394.56177 -123.51894 2.3509886e-038
17.938864 382.29752 -124.87275 2.3509886e-038
19.343987 381.24893 -124.53024 2.3509886e-038
24.350246 378.56442 -123.65338 2.3509886e-038
29.351734 376.75516 -123.06241 2.3509886e-038
34.316013 375.07617 -122.51399 2.3509886e-038
39.31374 374.14966 -122.21135 2.3509886e-038
44.406788 374.23856 -122.24039 2.3509886e-038
49.599174 375.06039 -122.50883 2.3509886e-038
54.878429 376.3248 -122.92184 2.3509886e-038
60.413101 378.97595 -123.7878 2.3509886e-038
66.275467 383.10504 -125.13653 2.3509886e-038
72.325287 387.63766 -126.61704 2.3509886e-038
76.729416 390.6019 -127.58527 2.3509886e-038
26.507345 387.61584 -131.87534 2.3509886e-038
30.027288 385.42648 -131.13048 2.3509886e-038
34.957905 382.0921 -129.99603 2.3509886e-038
39.908894 379.81372 -129.22089 2.3509886e-038
44.971207 378.99518 -128.9424 2.3509886e-038
50.136501 379.12357 -128.98607 2.3509886e-038
55.357594 379.61066 -129.15179 2.3509886e-038
60.754089 381.11502 -129.66362 2.3509886e-038
66.368591 383.64337 -130.52382 2.3509886e-038
72.093674 386.3963 -131.46042 2.3509886e-038
72.780991 386.69165 -131.56091 2.3509886e-038
35.919884 388.99072 -137.6272 2.3509886e-038
40.490921 385.35291 -136.34013 2.3509886e-038
45.498444 383.43848 -135.66278 2.3509886e-038
50.611362 382.71436 -135.40659 2.3509886e-038
55.793957 382.60297 -135.36717 2.3509886e-038
61.110783 383.35257 -135.6324 2.3509886e-038
66.112801 384.82196 -136.15227 2.3509886e-038
-71.148109 367.16736 42.514057 2.3418052e-038
-72.067802 371.91351 27.39217 2.3418052e-038
-65.84008 365.38934 41.487587 2.3418052e-038
-67.007034 371.86554 19.774633 2.3418052e-038
-61.308296 367.98053 37.442001 2.3418052e-038
-61.869549 371.34927 12.519845 2.3509886e-038
-57.091316 373.08899 31.138994 2.3418052e-038
-57.571049 376.22403 3.6465719 2.3418052e-038
-52.283627 374.95648 24.49596 2.3418052e-038
-52.959274 379.80197 -4.01824 2.3418052e-038
-47.401142 376.6326 18.287928 2.3418052e-038
-47.959278 381.06735 -11.025805 2.3509886e-038
-42.366547 377.35965 12.075386 2.3418052e-038
-42.724236 380.54562 -18.602949 2.3509886e-038
-37.409237 379.07007 5.7195463 2.3418052e-038
-35.672089 361.46741 -24.593674 2.3509886e-038
-31.977587 375.75269 67.236252 2.3509528e-038
-32.011208 376.14777 55.069946 2.3509528e-038
-31.874496 374.54135 0.14532085 2.3418052e-038
-28.405363 333.77728 -32.679852 2.3509886e-038
-28.661819 336.79077 -41.927322 2.3509886e-038
-30.154987 354.33627 -74.664848 2.3509886e-038
-26.732508 373.78391 70.408501 2.3509528e-038
-27.207565 380.42636 31.748655 2.3509528e-038
-25.439829 355.7092 -2.6423335 2.3509886e-038
-25.243263 352.96072 -80.186935 2.3509886e-038
-21.612333 373.04779 66.316261 2.3509528e-038
-21.802568 376.33145 8.604929 2.3509528e-038
-19.949583 344.34729 -0.89388835 2.3509886e-038
-20.308136 350.53625 -85.349579 2.3509886e-038
-16.55253 373.22202 53.598999 2.3509528e-038
-15.765777 355.48254 -92.189377 2.3509886e-038
-11.659282 378.96362 38.913708 2.3509528e-038
-11.063969 359.61407 -97.869087 2.3509886e-038
-6.3397713 368.97382 19.563875 2.3509528e-038
-6.236536 362.96552 -102.80588 2.3509886e-038
-1.2542067 348.58017 13.439152 2.3509886e-038
-1.3181319 366.34686 -107.66474 2.3509886e-038
3.3889344 339.36566 10.528946 2.3509886e-038
3.6907978 369.59406 -112.12932 2.3509886e-038
8.0479431 341.4455 7.0563941 2.3509886e-038
8.8393469 375.02191 -116.99218 2.3509886e-038
13.001659 349.93646 2.8279591 2.3418409e-038
14.119628 380.02631 -121.78091 2.3509886e-038
18.000031 354.76102 1.2185724 2.3418409e-038
19.438576 383.11319 -126.07243 2.3509886e-038
22.759287 353.83032 5.2844186 2.3418409e-038
24.86231 386.52527 -130.52411 2.3509886e-038
26.809677 344.12567 38.119305 2.3418409e-038
30.337936 389.41394 -134.70422 2.3509886e-038
31.211748 341.14639 43.821064 2.3418409e-038
35.598503 389.09384 -137.50064 2.3509886e-038
35.966 342.28909 37.348824 2.3418409e-038
40.717113 387.50555 -139.33801 2.3509886e-038
41.48175 349.5878 -22.330105 2.3509886e-038
45.839283 386.31091 -140.37553 2.3509886e-038
45.778763 346.17108 -43.91325 2.3509886e-038
50.954544 385.30945 -140.52086 2.3509886e-038
54.33009 372.56461 -85.048286 2.3509886e-038
56.085476 384.60205 -140.01219 2.3509886e-038
61.085751 383.19556 -93.955566 2.3509886e-038
61.274693 384.3808 -138.5672 2.3509886e-038
67.435028 389.80786 -102.0351 2.3509886e-038
66.584984 384.8942 -135.88615 2.3509886e-038
73.724159 395.13513 -111.07762 2.3509886e-038
72.08506 386.35016 -132.11617 2.3509886e-038
