# .PCD v0.7 - Point Cloud Data file format
VERSION 0.7
FIELDS x y z rgb
SIZE 4 4 4 4
TYPE F F F F
COUNT 1 1 1 1
WIDTH 827
HEIGHT 1
VIEWPOINT 0 0 0 1 0 0 0
POINTS 827
DATA ascii
-26.474277 330.65909 54.505871 2.3418052e-038
4.6856184 331.62778 46.856182 9.1476764e-041
-96.230896 314.34488 -63.660435 3.5733111e-043
-65.506981 323.4628 35.038616 2.3509528e-038
50.459332 315.11411 14.840981 2.3418409e-038
-34.048527 335.10373 58.297123 2.3418052e-038
-30.717173 332.52689 57.848843 2.3418052e-038
-25.713146 331.27914 57.631775 2.3418052e-038
-23.098248 332.16922 57.786613 2.3418052e-038
-35.373756 337.12265 53.673332 2.3418052e-038
-30.716446 332.51901 52.940388 2.3418052e-038
-25.666153 330.67374 52.646595 2.3418052e-038
-21.426954 332.49445 52.936474 2.3418052e-038
3.0210242 332.71396 52.971424 9.1476764e-041
3.6326528 332.47342 52.933128 9.1476764e-041
7.8648672 331.79959 52.825848 9.1476764e-041
-34.770321 336.74945 48.644398 2.3418052e-038
-30.71413 332.49396 48.029675 2.3418052e-038
-25.636639 330.29349 47.711811 2.3418052e-038
-20.884909 332.24246 47.993347 2.3418052e-038
-20.332722 332.76031 48.06815 2.3418052e-038
0.056130517 333.64362 48.195751 9.1476764e-041
3.6244016 331.71823 47.917622 9.1476764e-041
8.5008335 330.98468 47.811657 9.1476764e-041
10.939639 331.39819 47.871387 9.1476764e-041
-33.442089 335.20987 43.475201 2.3418052e-038
-30.718882 332.54541 43.129631 2.3418052e-038
-25.639071 330.3248 42.841629 2.3418052e-038
-20.887396 332.28201 43.09547 2.3418052e-038
-19.508507 333.58826 43.264881 2.3418052e-038
-0.63297689 333.45624 43.247765 9.1476764e-041
3.616044 330.95334 42.923145 9.1476764e-041
8.4788027 330.12692 42.81596 9.1476764e-041
11.981762 330.63824 42.882278 9.1476764e-041
-71.023033 325.49799 37.412132 2.3509528e-038
-68.210724 324.1438 37.256485 2.3509528e-038
-63.376465 323.88434 37.226662 2.3509528e-038
-60.83556 325.28214 37.387321 2.3509528e-038
-32.083797 334.2728 38.420696 2.3418052e-038
-30.768469 333.08221 38.283848 2.3418052e-038
-25.687416 330.94769 38.038513 2.3418052e-038
-20.944004 333.18259 38.295383 2.3418052e-038
-18.703625 335.66269 38.580444 2.3418052e-038
-0.79437071 333.04364 38.279415 9.1476764e-041
3.6084204 330.25558 37.958965 9.1476764e-041
8.45716 329.28424 37.847317 9.1476764e-041
12.356787 329.74426 37.900192 9.1476764e-041
-70.94532 325.30994 32.589832 2.3509528e-038
-68.163986 323.92172 32.450756 2.3509528e-038
-63.328892 323.64124 32.422657 2.3509528e-038
-59.120411 326.7785 32.736954 2.3509528e-038
-58.337013 327.95572 32.854889 2.3509528e-038
-31.140297 334.05844 33.466259 2.3418052e-038
-30.832474 333.77509 33.437874 2.3418052e-038
-25.72245 331.39902 33.199841 2.3418052e-038
-20.953259 333.3298 33.393269 2.3418052e-038
-17.538025 336.83734 33.744656 2.3418052e-038
-0.81654769 332.70807 33.330982 9.1476764e-041
3.6032848 329.78555 33.038204 9.1476764e-041
8.4456635 328.83661 32.943138 9.1476764e-041
12.483958 329.44882 33.004467 9.1476764e-041
-69.998116 325.62579 27.816111 2.3509528e-038
-68.326378 324.69342 27.736464 2.3509528e-038
-63.383312 323.91931 27.670338 2.3509528e-038
-59.079941 326.55484 27.895472 2.3509528e-038
-56.318455 330.32306 28.217367 2.3509528e-038
-30.715496 334.73447 28.594206 2.3418052e-038
-25.757256 331.84747 28.347586 2.3418052e-038
-20.9347 333.03458 28.448994 2.3418052e-038
-16.217676 337.14395 28.800032 2.3418052e-038
-16.142481 337.21652 28.806231 2.3418052e-038
-0.85993946 332.73395 28.423315 9.1476764e-041
3.5984256 329.34082 28.133459 9.1476764e-041
8.4338369 328.37613 28.051054 9.1476764e-041
12.608525 329.45154 28.142918 9.1476764e-041
-68.458145 325.73505 23.018465 2.3509528e-038
-63.432625 324.17136 22.907967 2.3509528e-038
-59.014378 326.19244 23.050787 2.3509528e-038
-54.973221 330.84192 23.379351 2.3509528e-038
-54.246384 331.97357 23.459318 2.3509528e-038
-30.613657 335.71649 23.723816 2.3418052e-038
-25.81292 332.56464 23.501085 2.3418052e-038
-20.930576 332.96899 23.529659 2.3418052e-038
-16.1763 336.28378 23.763905 2.3418052e-038
-14.796232 337.40485 23.843126 2.3509886e-038
-1.0444739 332.72104 23.512138 9.1476764e-041
3.5928798 328.83325 23.237404 9.1476764e-041
8.4249735 328.03104 23.180714 9.1476764e-041
12.947726 330.41391 23.349102 9.1476764e-041
-66.648773 325.35498 18.190245 2.3509528e-038
-63.483677 324.43225 18.138655 2.3509528e-038
-58.965416 325.92181 18.221933 2.3509528e-038
-54.79649 329.77832 18.437546 2.3509528e-038
-52.111107 333.77191 18.660824 2.3509528e-038
-30.52298 336.82547 18.831545 2.3418052e-038
-25.901541 333.70639 18.657162 2.3418052e-038
-20.951712 333.30518 18.634729 2.3418052e-038
-16.128872 335.29779 18.746134 2.3418052e-038
-13.539661 336.67783 18.82329 2.3509886e-038
-1.5018598 332.62991 18.596977 9.1476764e-041
-1.2734324 332.38715 18.583405 9.1476764e-041
3.5891211 328.48926 18.365477 9.1476764e-041
8.4316969 328.29285 18.354496 9.1476764e-041
13.47293 333.1521 18.626171 9.1476764e-041
13.640429 333.42252 18.641289 9.1476764e-041
47.537445 315.64639 17.647446 2.3418409e-038
50.080051 315.96399 17.665201 2.3418409e-038
55.075371 317.8833 17.772511 2.3418409e-038
55.671062 318.29068 17.795284 2.3418409e-038
-65.0467 325.79443 13.40696 2.3509528e-038
-63.680695 325.43909 13.392337 2.3509528e-038
-59.015141 326.19666 13.423511 2.3509528e-038
-54.671165 329.02408 13.539864 2.3509528e-038
-50.623508 334.35986 13.759439 2.3509528e-038
-49.967468 335.65024 13.812541 2.3509528e-038
-30.270739 339.17349 13.957528 2.3418052e-038
-26.049059 335.60696 13.81076 2.3418052e-038
-21.000149 334.07571 13.747747 2.3418052e-038
-16.115648 335.02289 13.786725 2.3418052e-038
-12.557755 336.62546 13.852673 2.3509886e-038
-2.2757497 333.91537 13.74115 2.3509886e-038
-1.274765 332.73499 13.692574 9.1476764e-041
3.5905788 328.62265 13.523344 9.1476764e-041
8.4479828 328.92691 13.535866 9.1476764e-041
13.554669 335.17328 13.792913 9.1476764e-041
14.210319 336.49481 13.847296 9.1476764e-041
43.929825 314.56985 12.94505 2.3418409e-038
45.153969 314.13217 12.927038 2.3418409e-038
49.855915 314.54987 12.944227 2.3418409e-038
55.008121 317.49518 13.065432 2.3418409e-038
55.850559 318.31833 13.099306 2.3418409e-038
-63.79018 327.43826 8.6424952 2.3509528e-038
-59.203083 327.2355 8.6371441 2.3509528e-038
-54.634995 328.8064 8.678607 2.3509528e-038
-50.421379 333.02481 8.7899485 2.3509528e-038
-47.919174 337.62827 8.9114542 2.3509528e-038
-29.701572 342.13174 9.0303202 2.3418052e-038
-26.269449 338.44638 8.9330473 2.3418052e-038
-21.088358 335.479 8.8547258 2.3418052e-038
-16.161793 335.98218 8.8680058 2.3418052e-038
-11.981926 338.55719 8.9359722 2.3509886e-038
-3.0181248 336.89822 8.8921852 2.3509886e-038
-1.2809615 334.35242 8.8249893 9.1476764e-041
3.5971518 329.22424 8.6896353 9.1476764e-041
8.4514151 329.06058 8.6853161 9.1476764e-041
13.539389 334.79544 8.8366842 9.1476764e-041
13.807111 335.29108 8.8497648 9.1476764e-041
41.484047 316.40692 8.3513317 2.3418409e-038
45.180088 314.3139 8.2960882 2.3418409e-038
49.859173 314.57043 8.3028593 2.3418409e-038
54.307083 317.29776 8.3748446 2.3418409e-038
-62.727531 329.82864 3.8382139 2.3509528e-038
-59.525574 329.01801 3.8287804 2.3509528e-038
-54.661533 328.96613 3.8281765 2.3509528e-038
-50.232845 331.77957 3.8609166 2.3509528e-038
-46.300907 338.836 3.943032 2.3509528e-038
-45.999161 339.6123 3.9520664 2.3509528e-038
-29.038643 344.99283 4.0146794 2.3418052e-038
-26.524464 341.7319 3.976732 2.3418052e-038
-21.184366 337.00629 3.9217403 2.3418052e-038
-16.205566 336.89215 3.9204121 2.3509886e-038
-11.372512 340.70776 3.9648139 2.3509886e-038
-3.6392422 340.06622 3.9573483 2.3509886e-038
-1.2883286 336.27533 3.913234 9.1476764e-041
3.6090729 330.31528 3.8438771 9.1476764e-041
8.4554768 329.21872 3.8311162 9.1476764e-041
12.619774 331.88113 3.8620987 9.1476764e-041
39.14854 320.1579 3.7256753 2.3418409e-038
41.072144 318.4267 3.7055295 2.3418409e-038
45.450554 316.1955 3.679565 2.3418409e-038
50.134014 316.30444 3.6808329 2.3418409e-038
52.511627 317.62967 3.6962545 2.3418409e-038
-61.453556 332.19379 -1.0365521 2.3509528e-038
-59.927116 331.23746 -1.033568 2.3509528e-038
-54.714184 329.28296 -1.0274694 2.3509528e-038
-50.065456 330.67398 -1.0318098 2.3509528e-038
-45.996094 336.60532 -1.0503175 2.3509528e-038
-44.074078 340.99753 -1.0640227 2.3509528e-038
-28.577824 347.1456 -1.0832067 2.3509886e-038
-26.730318 344.38403 -1.0745897 2.3509886e-038
-21.247742 338.0145 -1.0547146 2.3509886e-038
-16.204845 336.8772 -1.0511658 2.3509886e-038
-11.356182 340.55801 -1.0626513 2.3509886e-038
-9.8684826 342.03326 -1.0672544 2.3509886e-038
-4.7649841 342.15961 -1.0676486 2.3509886e-038
-1.2924873 337.36081 -1.0526749 9.1476764e-041
3.6236596 331.65036 -1.0348564 9.1476764e-041
8.4785213 330.11597 -1.0300688 9.1476764e-041
11.389639 330.7916 -1.0321767 9.1476764e-041
36.14296 321.66605 -1.0037022 2.3418409e-038
36.712414 321.39792 -1.0028656 2.3418409e-038
41.217144 319.55087 -0.99710214 2.3418409e-038
45.775154 318.4537 -0.99367857 2.3418409e-038
50.606937 319.28821 -0.99628258 2.3418409e-038
50.668053 319.33032 -0.99641401 2.3418409e-038
-59.426346 332.5723 -5.9455957 2.3509528e-038
-54.797935 329.78702 -5.895802 2.3509528e-038
-49.99472 330.20682 -5.903307 2.3509528e-038
-45.722836 334.60556 -5.9819465 2.3509528e-038
-41.822617 340.4953 -6.0872402 2.3509528e-038
-28.408337 347.49814 -6.2124348 2.3509886e-038
-26.78289 345.0614 -6.1688714 2.3509886e-038
-21.261732 338.23706 -6.0468683 2.3509886e-038
-16.176142 336.28046 -6.0118895 2.3509886e-038
-11.298215 338.81964 -6.0572839 2.3509886e-038
-6.3407316 341.11066 -6.0982413 2.3509886e-038
-1.2906477 336.88065 -6.0226192 2.3509886e-038
3.6338196 332.5802 -5.9457374 9.1476764e-041
8.5124044 331.43524 -5.9252682 9.1476764e-041
10.955894 331.87759 -5.933176 9.1476764e-041
32.823509 322.03381 -5.7571936 2.3418409e-038
36.653099 320.87863 -5.7365413 2.3418409e-038
41.316753 320.32315 -5.7266102 2.3418409e-038
46.040745 320.30142 -5.726222 2.3418409e-038
48.545418 320.9043 -5.737 2.3418409e-038
-57.145905 331.98166 -10.834196 2.3509528e-038
-54.979809 330.88156 -10.798294 2.3509528e-038
-50.07193 330.71674 -10.792914 2.3509528e-038
-45.586517 333.608 -10.887271 2.3509528e-038
-41.196743 337.98401 -11.030081 2.3509528e-038
-39.106556 340.50986 -11.112513 2.3509528e-038
-28.90481 345.10114 -11.262349 2.3509886e-038
-26.606417 342.78775 -11.186852 2.3509886e-038
-21.224222 337.64038 -11.018867 2.3509886e-038
-16.130222 335.32587 -10.943334 2.3509886e-038
-11.201678 335.92462 -10.962873 2.3509886e-038
-6.2601585 336.77609 -10.990661 2.3509886e-038
-1.2823344 334.71075 -10.923259 2.3509886e-038
3.6332335 332.52655 -10.851978 2.3509886e-038
8.5294981 332.1008 -10.838084 9.1476764e-041
11.923369 332.95825 -10.866066 9.1476764e-041
29.27199 324.22241 -10.580973 2.3418409e-038
32.062984 322.33835 -10.519486 2.3418409e-038
36.68269 321.1377 -10.480304 2.3418409e-038
41.438107 321.26395 -10.484424 2.3418409e-038
46.359741 322.52063 -10.525436 2.3418409e-038
46.483284 322.58664 -10.52759 2.3418409e-038
-55.401604 333.76013 -15.81764 2.3509528e-038
-50.287655 332.14157 -15.740932 2.3509528e-038
-45.522884 333.1423 -15.78836 2.3509528e-038
-40.906326 335.60132 -15.904898 2.3509528e-038
-36.25758 338.43735 -16.039303 2.3509886e-038
-31.393219 339.8454 -16.106033 2.3509886e-038
-26.264658 338.38464 -16.036806 2.3509886e-038
-21.12821 336.11295 -15.929144 2.3509886e-038
-16.092857 334.5491 -15.855031 2.3509886e-038
-11.13594 333.95322 -15.82679 2.3509886e-038
-6.2022214 333.65927 -15.812859 2.3509886e-038
-1.2752985 332.87421 -15.775655 2.3509886e-038
3.6275611 332.00742 -15.734573 2.3509886e-038
8.5230026 331.84787 -15.727014 2.3509886e-038
13.452403 332.64453 -15.76477 2.3509886e-038
15.635111 333.03467 -15.783257 2.3509886e-038
23.876562 328.71445 -15.578514 2.3418409e-038
27.587278 325.65707 -15.433617 2.3418409e-038
32.14851 323.19815 -15.317083 2.3418409e-038
36.783489 322.02014 -15.261255 2.3418409e-038
41.576847 322.3396 -15.276395 2.3418409e-038
44.490437 323.38327 -15.325857 2.3418409e-038
-53.885319 336.21893 -20.895857 2.3509886e-038
-50.613873 334.2962 -20.776361 2.3509528e-038
-45.54364 333.29422 -20.714087 2.3509528e-038
-40.68465 333.78271 -20.744446 2.3509886e-038
-35.839146 334.53159 -20.790991 2.3509886e-038
-30.92741 334.8028 -20.807848 2.3509886e-038
-25.985653 334.79004 -20.807055 2.3509886e-038
-21.034084 334.6156 -20.796211 2.3509886e-038
-16.07091 334.09286 -20.763723 2.3509886e-038
-11.115439 333.33844 -20.716837 2.3509886e-038
-6.1847258 332.71805 -20.67828 2.3509886e-038
-1.2731063 332.30203 -20.652424 2.3509886e-038
3.6247878 331.75357 -20.618338 2.3509886e-038
8.5077953 331.2558 -20.587402 2.3509886e-038
13.379051 330.83069 -20.560982 2.3509886e-038
18.206488 329.83951 -20.499378 2.3418409e-038
22.926647 327.73264 -20.368439 2.3418409e-038
27.597528 325.77808 -20.246962 2.3418409e-038
32.265621 324.37549 -20.159792 2.3418409e-038
36.946339 323.4458 -20.102013 2.3418409e-038
41.801525 324.08148 -20.141521 2.3418409e-038
42.653923 324.48996 -20.166908 2.3418409e-038
-52.411129 338.2131 -26.010914 2.3509886e-038
-51.050312 337.1788 -25.931368 2.3509886e-038
-45.700607 334.4429 -25.720959 2.3509886e-038
-40.637722 333.39764 -25.640572 2.3509886e-038
-35.703941 333.26956 -25.63072 2.3509886e-038
-30.803013 333.45615 -25.645071 2.3509886e-038
-25.908033 333.79004 -25.670748 2.3509886e-038
-21.000715 334.08475 -25.693415 2.3509886e-038
-16.060387 333.87408 -25.677212 2.3509886e-038
-11.113048 333.26669 -25.630501 2.3509886e-038
-6.18612 332.79306 -25.594074 2.3509886e-038
-1.2740679 332.55304 -25.575613 2.3509886e-038
3.6278956 332.03802 -25.536007 2.3509886e-038
8.5027132 331.05789 -25.460629 2.3509886e-038
13.340203 329.87009 -25.369278 2.3509886e-038
18.144264 328.71222 -25.28023 2.3418409e-038
22.903255 327.39825 -25.179176 2.3418409e-038
27.643929 326.32581 -25.096697 2.3418409e-038
32.386242 325.58813 -25.039965 2.3418409e-038
37.153664 325.26083 -25.014795 2.3418409e-038
41.000793 326.64932 -25.121576 2.3418409e-038
-51.059361 339.95444 -31.16165 2.3509886e-038
-45.930519 336.12546 -30.810671 2.3509886e-038
-40.702995 333.9332 -30.609718 2.3509886e-038
-35.719227 333.41223 -30.561964 2.3509886e-038
-30.831818 333.76797 -30.594572 2.3509886e-038
-25.934731 334.13397 -30.628122 2.3509886e-038
-21.011858 334.26199 -30.639854 2.3509886e-038
-16.061399 333.89514 -30.60623 2.3509886e-038
-11.114301 333.30432 -30.552073 2.3509886e-038
-6.1900005 333.00183 -30.524343 2.3509886e-038
-1.2755371 332.93652 -30.518358 2.3509886e-038
3.6330676 332.51138 -30.479391 2.3509886e-038
8.5116539 331.40604 -30.378065 2.3509886e-038
13.347712 330.05576 -30.254293 2.3509886e-038
18.164087 329.07132 -30.164057 2.3418409e-038
22.956478 328.15903 -30.080435 2.3418409e-038
27.723938 327.27029 -29.99897 2.3418409e-038
32.499763 326.7294 -29.949387 2.3418409e-038
37.36068 327.07312 -29.980894 2.3418409e-038
39.331036 328.00958 -30.066734 2.3418409e-038
-49.738148 340.03091 -36.186604 2.3509886e-038
-46.052567 337.01862 -35.866028 2.3509886e-038
-40.753689 334.34909 -35.581936 2.3509886e-038
-35.75679 333.76285 -35.519547 2.3509886e-038
-30.875946 334.24567 -35.57093 2.3509886e-038
-25.96678 334.54691 -35.602982 2.3509886e-038
-21.027287 334.50748 -35.598789 2.3509886e-038
-16.067142 334.01453 -35.546329 2.3509886e-038
-11.116686 333.37585 -35.478359 2.3509886e-038
-6.1911511 333.06372 -35.445141 2.3509886e-038
-1.2758005 333.00528 -35.438927 2.3509886e-038
3.6344166 332.63483 -35.399502 2.3509886e-038
8.5201073 331.73517 -35.303757 2.3509886e-038
13.372878 330.67804 -35.191257 2.3509886e-038
18.210754 329.91678 -35.110237 2.3509886e-038
23.031317 329.22885 -35.037029 2.3418409e-038
27.81963 328.3999 -34.948811 2.3418409e-038
32.611229 327.84998 -34.890289 2.3418409e-038
37.507038 328.35446 -34.943977 2.3418409e-038
37.860428 328.46643 -34.955894 2.3418409e-038
-48.652653 339.41266 -41.129631 2.3509886e-038
-46.083698 337.24646 -40.86713 2.3509886e-038
-40.769543 334.47916 -40.531792 2.3509886e-038
-35.781757 333.99588 -40.473228 2.3509886e-038
-30.905571 334.56638 -40.542366 2.3509886e-038
-25.988302 334.82422 -40.573605 2.3509886e-038
-21.042152 334.74396 -40.563877 2.3509886e-038
-16.078402 334.24857 -40.503853 2.3509886e-038
-11.125894 333.65192 -40.431553 2.3509886e-038
-6.1971369 333.38574 -40.399296 2.3509886e-038
-1.2767938 333.26456 -40.384609 2.3509886e-038
3.6363039 332.80756 -40.329231 2.3509886e-038
8.5289516 332.0795 -40.241005 2.3509886e-038
13.401795 331.3931 -40.157829 2.3509886e-038
18.261908 330.84351 -40.091228 2.3509886e-038
23.101215 330.22806 -40.016651 2.3509886e-038
27.905834 329.41754 -39.91843 2.3509886e-038
32.716106 328.90436 -39.856243 2.3418409e-038
36.959423 329.30542 -39.904842 2.3418409e-038
-47.899033 338.89661 -46.068272 2.3509886e-038
-46.080669 337.22427 -45.840942 2.3509886e-038
-40.737198 334.21381 -45.431705 2.3509886e-038
-35.763504 333.82556 -45.378933 2.3509886e-038
-30.907883 334.59143 -45.48304 2.3509886e-038
-25.999454 334.9679 -45.534214 2.3509886e-038
-21.057259 334.98428 -45.536442 2.3509886e-038
-16.098036 334.65674 -45.491924 2.3509886e-038
-11.148052 334.31647 -45.445667 2.3509886e-038
-6.2129908 334.23862 -45.435081 2.3509886e-038
-1.2796633 334.01352 -45.404484 2.3509886e-038
3.6426275 333.38632 -45.319225 2.3509886e-038
8.5441275 332.67038 -45.221905 2.3509886e-038
13.433976 332.18884 -45.156445 2.3509886e-038
18.315304 331.81085 -45.105061 2.3509886e-038
23.163912 331.12427 -45.011734 2.3509886e-038
27.973032 330.21075 -44.88755 2.3509886e-038
32.804501 329.793 -44.830765 2.3509886e-038
36.644356 330.3096 -44.900986 2.3509886e-038
-47.654861 338.53848 -51.015511 2.3509886e-038
-46.038582 336.91626 -50.771053 2.3509886e-038
-40.65485 333.53821 -50.262001 2.3509886e-038
-35.693745 333.17438 -50.207176 2.3509886e-038
-30.876106 334.24741 -50.368874 2.3509886e-038
-25.994114 334.89908 -50.467075 2.3509886e-038
-21.067726 335.15076 -50.505001 2.3509886e-038
-16.12586 335.23517 -50.517723 2.3509886e-038
-11.182996 335.36438 -50.537189 2.3509886e-038
-6.2356877 335.45963 -50.551544 2.3509886e-038
-1.2836726 335.06 -50.491325 2.3509886e-038
3.6525667 334.29599 -50.376194 2.3509886e-038
8.566288 333.53323 -50.261253 2.3509886e-038
13.468981 333.05441 -50.189098 2.3509886e-038
18.364494 332.70203 -50.135998 2.3509886e-038
23.212471 331.81839 -50.002838 2.3509886e-038
28.016413 330.72284 -49.837746 2.3509886e-038
32.863384 330.38501 -49.786835 2.3509886e-038
36.635471 331.08737 -49.892677 2.3509886e-038
-48.220036 338.15796 -55.948475 2.3509886e-038
-45.931221 336.13058 -55.613045 2.3509886e-038
-40.59779 333.07007 -55.106678 2.3509886e-038
-35.646503 332.7334 -55.050976 2.3509886e-038
-30.844164 333.90161 -55.244259 2.3509886e-038
-25.98086 334.7283 -55.381035 2.3509886e-038
-21.074095 335.25208 -55.46769 2.3509886e-038
-16.15625 335.86697 -55.569427 2.3509886e-038
-11.220913 336.50146 -55.674408 2.3509886e-038
-6.2589741 336.71237 -55.709297 2.3509886e-038
-1.2882096 336.24426 -55.631851 2.3509886e-038
3.6645617 335.39386 -55.49115 2.3509886e-038
8.5918312 334.52777 -55.347855 2.3509886e-038
13.502575 333.88513 -55.241531 2.3509886e-038
18.396255 333.2774 -55.140984 2.3509886e-038
23.227812 332.03772 -54.935875 2.3509886e-038
28.024351 330.81656 -54.733833 2.3509886e-038
32.888962 330.64206 -54.704964 2.3509886e-038
36.761055 331.60339 -54.864017 2.3509886e-038
-50.05714 337.01285 -60.732422 2.3509886e-038
-45.759758 334.87579 -60.347309 2.3509886e-038
-40.593758 333.03699 -60.015938 2.3509886e-038
-35.650963 332.77502 -59.968731 2.3509886e-038
-30.820988 333.65073 -60.126541 2.3509886e-038
-25.959509 334.45322 -60.271156 2.3509886e-038
-21.071587 335.21216 -60.407925 2.3509886e-038
-16.174093 336.23788 -60.592762 2.3509886e-038
-11.246304 337.26288 -60.777477 2.3509886e-038
-6.2772546 337.6958 -60.855495 2.3509886e-038
-1.2924908 337.36172 -60.795292 2.3509886e-038
3.6769593 336.5285 -60.645142 2.3509886e-038
8.6198368 335.61816 -60.481087 2.3509886e-038
13.540462 334.82199 -60.337612 2.3509886e-038
18.427464 333.8428 -60.161156 2.3509886e-038
23.239866 332.21002 -59.866917 2.3509886e-038
28.033003 330.9187 -59.634205 2.3509886e-038
32.934635 331.10126 -59.667107 2.3509886e-038
37.203987 333.12173 -60.031212 2.3509886e-038
-104.58815 317.19287 -61.841621 3.5733111e-043
-104.11836 316.95862 -61.795948 3.5733111e-043
-98.908615 315.26199 -61.465164 3.5733111e-043
-94.400124 315.74335 -61.559013 3.5733111e-043
-90.391037 318.03189 -62.005196 3.5733111e-043
-86.560928 321.23523 -62.629738 3.5733111e-043
-82.706413 324.71399 -63.307972 3.5733111e-043
-78.809952 327.70706 -63.891521 3.5733111e-043
-53.476189 333.61124 -65.042633 2.3509886e-038
-50.517639 333.66061 -65.052254 2.3509886e-038
-45.555271 333.37933 -64.997421 2.3509886e-038
-40.575935 332.89078 -64.902161 2.3509886e-038
-35.655582 332.81818 -64.888016 2.3509886e-038
-30.791548 333.33203 -64.988197 2.3509886e-038
-25.927906 334.04605 -65.127411 2.3509886e-038
-21.055277 334.95273 -65.304176 2.3509886e-038
-16.174004 336.23602 -65.554375 2.3509886e-038
-11.257212 337.59 -65.818352 2.3509886e-038
-6.289969 338.37976 -65.972328 2.3509886e-038
-1.2961087 338.30603 -65.957954 2.3509886e-038
3.6884744 337.5824 -65.816872 2.3509886e-038
8.6471386 336.68115 -65.641159 2.3509886e-038
13.579262 335.7814 -65.465736 2.3509886e-038
18.466486 334.54974 -65.225609 2.3509886e-038
23.27422 332.70108 -64.865189 2.3509886e-038
28.07848 331.45554 -64.622345 2.3509886e-038
33.055069 332.31204 -64.78933 2.3509886e-038
37.918999 336.51923 -65.609581 2.3509886e-038
-104.63659 316.11575 -66.296638 3.5733111e-043
-103.67222 315.60046 -66.188568 3.5733111e-043
-98.483215 313.90604 -65.833214 3.5733111e-043
-94.016205 314.45926 -65.949234 3.5733111e-043
-89.95929 316.51279 -66.379906 3.5733111e-043
-85.995255 319.13599 -66.930046 3.5733111e-043
-82.006927 321.96771 -67.523926 3.5733111e-043
-77.89328 324.62552 -68.081329 3.5733111e-043
-73.566925 326.68707 -68.51368 3.5733111e-043
-69.016327 327.97214 -68.783188 3.5733111e-043
-64.286934 328.53726 -68.901703 3.5733111e-043
-59.572208 329.27576 -69.056587 3.5733111e-043
-54.89922 330.39658 -69.291641 3.5733111e-043
-50.161995 331.31161 -69.483551 2.3509886e-038
-45.35873 331.94101 -69.615547 2.3509886e-038
-40.497532 332.24753 -69.679832 2.3509886e-038
-35.617752 332.46506 -69.725456 2.3509886e-038
-30.750429 332.8869 -69.813919 2.3509886e-038
-25.892866 333.59464 -69.962349 2.3509886e-038
-21.030382 334.55667 -70.164116 2.3509886e-038
-16.162561 335.99814 -70.466423 2.3509886e-038
-11.258928 337.64148 -70.811066 2.3509886e-038
-6.2976823 338.79474 -71.052933 2.3509886e-038
-1.2990278 339.06799 -71.110245 2.3509886e-038
3.6995263 338.5939 -71.010811 2.3509886e-038
8.6744118 337.74307 -70.832375 2.3509886e-038
13.616693 336.707 -70.615082 2.3509886e-038
18.509247 335.32443 -70.325127 2.3509886e-038
23.329117 333.48584 -69.939537 2.3509886e-038
28.157604 332.38956 -69.709618 2.3509886e-038
33.193325 333.70193 -69.984856 2.3509886e-038
38.299091 339.07193 -71.111069 2.3509886e-038
-100.09227 315.08133 -70.729446 3.5733111e-043
-98.782372 314.85956 -70.679665 3.5733111e-043
-94.382111 315.68311 -70.864532 3.5733111e-043
-90.309639 317.74548 -71.327492 3.5733111e-043
-86.127022 319.625 -71.749413 3.5733111e-043
-81.836609 321.29904 -72.125206 3.5733111e-043
-77.506706 323.01443 -72.510269 3.5733111e-043
-73.108788 324.65262 -72.878014 3.5733111e-043
-68.573204 325.86636 -73.150475 3.5733111e-043
-63.922867 326.67673 -73.332382 3.5733111e-043
-59.278637 327.65308 -73.551559 3.5733111e-043
-54.64439 328.86295 -73.823143 3.5733111e-043
-49.944939 329.87796 -74.051003 3.5733111e-043
-45.188805 330.69748 -74.234962 2.3509886e-038
-40.378956 331.27472 -74.36454 2.3509886e-038
-35.538715 331.72726 -74.466125 2.3509886e-038
-30.695417 332.29138 -74.592758 2.3509886e-038
-25.854279 333.09747 -74.773705 2.3509886e-038
-21.00069 334.08435 -74.995247 2.3509886e-038
-16.143917 335.61057 -75.337852 2.3509886e-038
-11.252413 337.44611 -75.749886 2.3509886e-038
-6.2995124 338.89322 -76.074738 2.3509886e-038
-1.30115 339.62189 -76.238312 2.3509886e-038
3.710175 339.56851 -76.226334 2.3509886e-038
8.7026691 338.84329 -76.06353 2.3509886e-038
13.653671 337.62137 -75.789238 2.3509886e-038
18.549095 336.04636 -75.435684 2.3509886e-038
23.388397 334.33325 -75.051117 2.3509886e-038
28.247978 333.45639 -74.854286 2.3509886e-038
33.272682 334.49979 -75.088501 2.3509886e-038
38.02916 338.27542 -75.936058 2.3509886e-038
-92.406151 322.72345 -77.207481 3.5733111e-043
-91.766991 322.87302 -77.243271 3.5733111e-043
-87.181061 323.53659 -77.402016 3.5733111e-043
-82.505127 323.92371 -77.494629 3.5733111e-043
-77.8433 324.41724 -77.612701 3.5733111e-043
-73.204895 325.07941 -77.771118 3.5733111e-043
-68.550049 325.75635 -77.933067 3.5733111e-043
-63.825199 326.17761 -78.033844 3.5733111e-043
-59.134705 326.85751 -78.196503 3.5733111e-043
-54.479141 327.86844 -78.438354 3.5733111e-043
-49.770489 328.7258 -78.643463 3.5733111e-043
-45.017906 329.44681 -78.815964 3.5733111e-043
-40.220795 329.97711 -78.942833 2.3509886e-038
-35.402534 330.45615 -79.057434 2.3509886e-038
-30.58968 331.14673 -79.222641 2.3509886e-038
-25.779758 332.13739 -79.459648 2.3509886e-038
-20.947599 333.23978 -79.723381 2.3509886e-038
-16.108 334.86389 -80.111938 2.3509886e-038
-11.234506 336.90912 -80.601219 2.3509886e-038
-6.2963815 338.72476 -81.035591 2.3509886e-038
-1.3021357 339.87921 -81.311783 2.3509886e-038
3.7167542 340.17068 -81.381516 2.3509886e-038
8.7215805 339.57965 -81.24012 2.3509886e-038
13.681195 338.30197 -80.934448 2.3509886e-038
18.58532 336.70261 -80.551826 2.3509886e-038
23.453203 335.25964 -80.206612 2.3509886e-038
28.369844 334.89496 -80.119362 2.3509886e-038
33.448006 336.26236 -80.446495 2.3509886e-038
38.010143 339.36911 -81.189751 2.3509886e-038
-77.254646 329.35956 -83.655548 3.5733111e-043
-74.057968 328.86761 -83.530602 3.5733111e-043
-69.10817 328.4086 -83.414017 3.5733111e-043
-64.140106 327.7869 -83.256104 3.5733111e-043
-59.242123 327.45126 -83.170853 3.5733111e-043
-54.42968 327.57077 -83.20121 3.5733111e-043
-49.621357 327.74078 -83.2444 3.5733111e-043
-44.821659 328.01065 -83.312935 3.5733111e-043
-40.022953 328.35403 -83.400154 2.3509886e-038
-35.229271 328.83887 -83.523293 2.3509886e-038
-30.451008 329.64554 -83.728195 2.3509886e-038
-25.680803 330.86246 -84.037285 2.3509886e-038
-20.888649 332.30197 -84.402908 2.3509886e-038
-16.074524 334.16797 -84.876854 2.3509886e-038
-11.21862 336.43274 -85.452103 2.3509886e-038
-6.2943611 338.61606 -86.006653 2.3509886e-038
-1.3030658 340.12195 -86.389145 2.3509886e-038
3.7219872 340.64963 -86.523178 2.3509886e-038
8.7371635 340.18637 -86.405502 2.3509886e-038
13.710027 339.01489 -86.107956 2.3509886e-038
18.635485 337.61148 -85.751495 2.3509886e-038
23.543398 336.54898 -85.481628 2.3509886e-038
28.544422 336.95578 -85.584953 2.3509886e-038
33.831413 340.11682 -86.38784 2.3509886e-038
39.492863 347.23553 -88.195961 2.3509886e-038
-67.891502 333.77325 -89.702179 3.5733111e-043
-65.083977 332.61053 -89.389702 3.5733111e-043
-59.791992 330.4906 -88.819962 3.5733111e-043
-54.623642 328.73807 -88.348961 3.5733111e-043
-49.589981 327.53354 -88.025253 3.5733111e-043
-44.670147 326.90189 -87.855492 3.5733111e-043
-39.849239 326.92886 -87.86274 2.3509886e-038
-35.088795 327.52765 -88.023666 2.3509886e-038
-30.348333 328.53403 -88.294136 2.3509886e-038
-25.605165 329.888 -88.658012 2.3509886e-038
-20.846884 331.63754 -89.128204 2.3509886e-038
-16.055593 333.77444 -89.702499 2.3509886e-038
-11.212578 336.2515 -90.368217 2.3509886e-038
-6.2966022 338.73663 -91.036095 2.3509886e-038
-1.3045559 340.51089 -91.512939 2.3509886e-038
3.7280638 341.20578 -91.699692 2.3509886e-038
8.7548342 340.87436 -91.610626 2.3509886e-038
13.74631 339.91208 -91.352005 2.3509886e-038
18.702971 338.83405 -91.062279 2.3509886e-038
23.657286 338.177 -90.885696 2.3509886e-038
28.752029 339.40652 -91.216133 2.3509886e-038
34.325024 345.07925 -92.740685 2.3509886e-038
40.801083 357.19205 -95.996025 2.3509886e-038
43.456387 363.24591 -97.623016 2.3509886e-038
-60.379509 335.82455 -95.209335 3.5733111e-043
-55.164291 331.99182 -94.122726 3.5733111e-043
-49.878323 329.43799 -93.398689 3.5733111e-043
-44.773575 327.65878 -92.894264 2.3509886e-038
-39.853203 326.9614 -92.696556 2.3509886e-038
-35.080189 327.44727 -92.834305 2.3509886e-038
-30.352762 328.582 -93.156006 2.3509886e-038
-25.601242 329.83743 -93.51194 2.3509886e-038
-20.840616 331.53784 -93.994011 2.3509886e-038
-16.054808 333.75812 -94.623482 2.3509886e-038
-11.218144 336.41846 -95.377716 2.3509886e-038
-6.3040509 339.13736 -96.148544 2.3509886e-038
-1.3068767 341.11667 -96.709702 2.3509886e-038
3.7366521 341.99182 -96.957809 2.3509886e-038
8.7805252 341.87466 -96.924599 2.3509886e-038
13.797976 341.18967 -96.730392 2.3509886e-038
18.790827 340.42569 -96.513809 2.3509886e-038
23.793789 340.12827 -96.429482 2.3509886e-038
28.971876 342.00174 -96.960625 2.3509886e-038
34.745514 349.30655 -99.031609 2.3509886e-038
41.43705 362.75961 -102.84567 2.3509886e-038
48.705315 377.60562 -107.05465 2.3509886e-038
49.311047 378.69778 -107.36429 2.3509886e-038
-52.61898 336.23715 -100.28828 2.3509886e-038
-50.778057 335.38062 -100.0328 2.3509886e-038
-45.42347 332.41479 -99.148201 2.3509886e-038
-40.23605 330.10229 -98.45845 2.3509886e-038
-35.306572 329.56042 -98.296837 2.3509886e-038
-30.509262 330.27615 -98.510315 2.3509886e-038
-25.702169 331.13776 -98.767296 2.3509886e-038
-20.898592 332.46014 -99.16172 2.3509886e-038
-16.09124 334.5155 -99.774773 2.3509886e-038
-11.24473 337.21573 -100.58015 2.3509886e-038
-6.3211007 340.05457 -101.42689 2.3509886e-038
-1.3112721 342.26398 -102.08588 2.3509886e-038
3.7533224 343.51755 -102.45977 2.3509886e-038
8.8314505 343.85748 -102.56117 2.3509886e-038
13.892917 343.53732 -102.46568 2.3509886e-038
18.932152 342.98605 -102.30125 2.3509886e-038
23.994179 342.9928 -102.30327 2.3509886e-038
29.24243 345.1955 -102.96025 2.3509886e-038
35.048622 352.35379 -105.09533 2.3509886e-038
41.633999 364.4838 -108.71331 2.3509886e-038
48.594936 376.74988 -112.37187 2.3509886e-038
54.470055 384.17889 -114.58769 2.3509886e-038
-45.589153 341.26855 -106.82519 2.3509886e-038
-41.118675 337.34348 -105.59654 2.3509886e-038
-35.860958 334.73523 -104.78009 2.3509886e-038
-30.876318 334.24969 -104.62811 2.3509886e-038
-25.957321 334.42502 -104.683 2.3509886e-038
-21.074959 335.26581 -104.94618 2.3509886e-038
-16.209089 336.96545 -105.4782 2.3509886e-038
-11.317174 339.38821 -106.2366 2.3509886e-038
-6.3590508 342.09616 -107.08424 2.3509886e-038
-1.3202326 344.60278 -107.86888 2.3509886e-038
3.7867792 346.57962 -108.48766 2.3509886e-038
8.929347 347.66913 -108.82871 2.3509886e-038
14.064355 347.77655 -108.86234 2.3509886e-038
19.176126 347.40604 -108.74636 2.3509886e-038
24.323032 347.69373 -108.83641 2.3509886e-038
29.641413 349.90533 -109.5287 2.3509886e-038
35.37484 355.63336 -111.3217 2.3509886e-038
41.686848 364.94644 -114.23693 2.3509886e-038
48.391865 375.17548 -117.43885 2.3509886e-038
55.094666 383.28873 -119.9785 2.3509886e-038
58.667042 386.54996 -120.99934 2.3509886e-038
-36.361553 342.98669 -112.42456 2.3509886e-038
-31.519136 341.20853 -111.84171 2.3509886e-038
-26.415428 340.32712 -111.5528 2.3509886e-038
-21.421946 340.78577 -111.70314 2.3509886e-038
-16.469414 342.37723 -112.22478 2.3509886e-038
-11.486708 344.47232 -112.91152 2.3509886e-038
-6.4424949 346.58517 -113.60407 2.3509886e-038
-1.3359641 348.70895 -114.30021 2.3509886e-038
3.8364713 351.12762 -115.093 2.3509886e-038
9.0653229 352.96341 -115.69474 2.3509886e-038
14.295769 353.49884 -115.87025 2.3509886e-038
19.502989 353.32764 -115.81413 2.3509886e-038
24.751858 353.8237 -115.97672 2.3509886e-038
30.120264 355.55801 -116.5452 2.3509886e-038
35.723282 359.13632 -117.7181 2.3509886e-038
41.710827 365.1564 -119.69138 2.3509886e-038
48.141193 373.23206 -122.33842 2.3509886e-038
54.780739 381.1048 -124.91895 2.3509886e-038
61.332916 386.9603 -126.83828 2.3509886e-038
61.389622 387.00186 -126.8519 2.3509886e-038
-20.696598 350.34796 -120.00765 2.3509886e-038
-16.92565 351.86179 -120.52618 2.3509886e-038
-11.78356 353.37454 -121.04436 2.3509886e-038
-6.5808444 354.02795 -121.26818 2.3509886e-038
-1.3581811 354.508 -121.43261 2.3509886e-038
3.897491 356.71234 -122.18769 2.3509886e-038
9.2223444 359.07715 -122.99773 2.3509886e-038
14.550883 359.80719 -123.2478 2.3509886e-038
19.847313 359.56564 -123.16505 2.3509886e-038
25.175018 359.87271 -123.27023 2.3509886e-038
30.563391 360.78891 -123.58408 2.3509886e-038
36.05442 362.46539 -124.15833 2.3509886e-038
41.788277 365.83441 -125.31236 2.3509886e-038
47.931301 371.6048 -127.28894 2.3509886e-038
54.366711 378.22443 -129.5564 2.3509886e-038
60.828812 383.77982 -131.45934 2.3509886e-038
61.808609 384.50787 -131.70872 2.3509886e-038
0.14407255 361.35159 -129.10938 2.3509886e-038
3.9658849 362.97202 -129.68837 2.3509886e-038
9.390276 365.61563 -130.6329 2.3509886e-038
14.804601 366.08099 -130.79919 2.3509886e-038
20.164074 365.30426 -130.52165 2.3509886e-038
25.529711 364.94296 -130.39256 2.3509886e-038
30.932152 365.14203 -130.46368 2.3509886e-038
36.396107 365.90039 -130.73465 2.3509886e-038
42.015095 367.8201 -131.42055 2.3509886e-038
47.913254 371.46487 -132.72282 2.3509886e-038
54.024445 375.84329 -134.2872 2.3509886e-038
59.856293 379.86914 -135.72563 2.3509886e-038
15.204183 372.29388 -138.51309 2.3509886e-038
20.468281 370.81549 -137.96304 2.3509886e-038
25.882776 369.98999 -137.65591 2.3509886e-038
31.321146 369.73392 -137.56065 2.3509886e-038
36.792015 369.88062 -137.61522 2.3509886e-038
42.349491 370.74756 -137.93777 2.3509886e-038
48.068054 372.66501 -138.65118 2.3509886e-038
53.912193 375.06238 -139.54312 2.3509886e-038
55.626816 375.87921 -139.84702 2.3509886e-038
28.435061 374.83698 -144.99081 2.3509886e-038
31.709042 374.3129 -144.7881 2.3509886e-038
37.164093 373.62122 -144.52055 2.3509886e-038
42.668705 373.54211 -144.48994 2.3509886e-038
46.384518 374.09119 -144.70233 2.3509886e-038
-104.21862 317.26382 -61.26292 3.5733111e-043
-103.68713 315.64584 -67.602211 3.5733111e-043
-99.592422 317.44156 -58.345379 3.5733111e-043
-98.931496 315.33493 -71.59906 3.5733111e-043
-95.290489 318.72141 -57.700245 3.5733111e-043
-95.326241 318.84097 -74.786438 3.5733111e-043
-91.26339 321.10117 -58.347706 3.5733111e-043
-91.876411 323.258 -77.559074 3.5733111e-043
-87.200043 323.60706 -59.829403 3.5733111e-043
-87.762482 325.69434 -79.513924 3.5733111e-043
-83.040504 326.02567 -61.830303 3.5733111e-043
-83.338203 327.19446 -81.130783 3.5733111e-043
-78.643539 327.75226 -63.968449 3.5733111e-043
-78.878174 328.73013 -82.904114 3.5733111e-043
-74.007111 328.64178 -65.947205 3.5733111e-043
-74.433235 330.53406 -85.158325 3.5733111e-043
-68.517029 325.59943 41.869545 2.3509528e-038
-68.548737 325.75012 23.264633 2.3509528e-038
-69.21125 328.89844 -67.507759 3.5733111e-043
-69.99324 332.61453 -88.061447 3.5733111e-043
-63.522408 324.63016 40.36496 2.3509528e-038
-64.000282 327.07236 9.5196314 2.3509528e-038
-64.35524 328.88635 -68.320602 3.5733111e-043
-65.556114 335.02341 -91.622124 3.5733111e-043
-59.139156 326.88211 34.517078 2.3509528e-038
-60.194515 332.71545 -4.2683024 2.3509528e-038
-59.662556 329.77512 -68.098007 3.5733111e-043
-60.76796 335.88507 -94.988113 3.5733111e-043
-55.054924 331.33365 25.300823 2.3509528e-038
-55.445915 333.68671 -15.674884 2.3509528e-038
-55.197979 332.19458 -66.332909 2.3509886e-038
-55.687019 335.13773 -97.898643 2.3509886e-038
-50.713348 334.95322 15.525391 2.3509528e-038
-51.418583 339.61118 -29.786854 2.3509886e-038
-50.896 336.15958 -62.138847 2.3509886e-038
-51.094433 337.47021 -101.75832 2.3509886e-038
-46.355942 339.23874 4.9069571 2.3509528e-038
-46.572678 340.82483 -106.01451 2.3509886e-038
-41.49395 340.42227 -6.7457862 2.3509528e-038
-41.704784 342.15204 -109.53481 2.3509886e-038
-36.500881 340.7084 -13.981273 2.3509886e-038
-36.736366 342.90643 -112.25447 2.3509886e-038
-30.7292 332.6571 60.498409 2.3418052e-038
-30.87742 334.26166 31.142139 2.3418052e-038
-31.50769 341.08456 -15.270372 2.3509886e-038
-31.812035 344.37924 -114.5344 2.3509886e-038
-25.767096 331.97424 61.260002 2.3418052e-038
-26.829521 345.66214 -116.52599 2.3509886e-038
-20.908484 332.61752 50.81823 2.3418052e-038
-21.938509 349.00342 -119.16272 2.3509886e-038
-16.219923 337.19064 29.084871 2.3418052e-038
-17.055576 354.56274 -122.55262 2.3509886e-038
-11.361832 340.72745 3.9022238 2.3509886e-038
-11.973393 359.06741 -125.51136 2.3509886e-038
-6.3710942 342.74408 -3.1075528 2.3509886e-038
-6.7059026 360.75565 -127.35859 2.3509886e-038
-1.2741928 332.58563 20.625713 9.1476764e-041
-1.3825277 360.86288 -128.56354 2.3509886e-038
3.6332736 332.53024 53.256752 9.1476764e-041
3.9802151 364.2836 -131.22285 2.3509886e-038
8.519846 331.72498 52.179543 9.1476764e-041
9.489356 369.47336 -135.03351 2.3509886e-038
13.447943 332.53421 19.787453 9.1476764e-041
13.517999 334.26654 7.3399458 9.1476764e-041
13.479367 333.31125 -13.662921 2.3509886e-038
15.054216 372.25339 -138.42944 2.3509886e-038
18.327255 332.02737 -16.914707 2.3509886e-038
20.60108 373.22134 -141.31931 2.3509886e-038
23.035089 329.28278 -16.109344 2.3418409e-038
26.192972 374.42419 -144.07188 2.3509886e-038
27.593491 325.73041 -12.503708 2.3418409e-038
31.775661 375.0993 -146.04826 2.3509886e-038
32.06163 322.32471 -6.8232226 2.3418409e-038
37.26899 374.67575 -146.63358 2.3509886e-038
36.73484 321.59424 -0.14065495 2.3418409e-038
37.54351 328.67371 -36.421558 2.3418409e-038
39.861832 348.96939 -89.336464 2.3509886e-038
42.729706 374.07614 -145.79338 2.3509886e-038
40.930511 317.32864 7.1907735 2.3418409e-038
41.960724 325.3157 -22.198284 2.3418409e-038
48.70171 377.57767 -106.46621 2.3509886e-038
48.265911 374.19897 -143.98264 2.3509886e-038
45.243572 314.75555 14.967413 2.3418409e-038
46.378613 322.65192 -10.770984 2.3418409e-038
55.299656 384.71484 -115.75079 2.3509886e-038
53.927246 375.16711 -141.05898 2.3509886e-038
50.217609 316.83185 19.573803 2.3418409e-038
50.619164 319.36533 -1.1072046 2.3418409e-038
61.344097 387.03088 -126.70162 2.3509886e-038
60.332859 380.65079 -135.15829 2.3509886e-038
55.121223 318.14798 18.934351 2.3418409e-038
55.04129 317.68661 10.310945 2.3418409e-038
