# .PCD v0.7 - Point Cloud Data file format
VERSION 0.7
FIELDS x y z rgb
SIZE 4 4 4 4
TYPE F F F F
COUNT 1 1 1 1
WIDTH 702
HEIGHT 1
VIEWPOINT 0 0 0 1 0 0 0
POINTS 702
DATA ascii
0 0 0 2.3418052e-038
-109.43911 286.87506 56.746208 9.1476764e-041
-84.876137 254.38515 -31.867121 3.5733111e-043
-12.355422 262.33896 39.53735 2.3509528e-038
-74.537308 282.61221 75.868332 2.3418409e-038
-78.278145 281.45163 76.860855 2.3418409e-038
-77.914719 281.60562 76.902901 2.3418409e-038
-74.007507 283.89999 77.529457 2.3418409e-038
-70.062714 286.3407 78.195999 2.3418409e-038
-69.790527 286.51065 78.242401 2.3418409e-038
-78.049843 281.89047 72.470833 2.3418409e-038
-77.997559 281.90506 72.474586 2.3418409e-038
-73.973656 283.77014 72.954079 2.3418409e-038
-69.951126 285.88467 73.497696 2.3418409e-038
-67.72184 287.2565 73.850388 2.3418409e-038
-77.246094 283.30698 68.30249 2.3418409e-038
-74.13372 284.38419 68.562195 2.3418409e-038
-69.963783 285.9364 68.936424 2.3418409e-038
-65.926949 287.5563 69.32695 2.3418409e-038
-76.201401 284.23407 63.978642 2.3418409e-038
-74.227913 284.74551 64.093765 2.3418409e-038
-69.968307 285.9549 64.365982 2.3418409e-038
-65.751007 287.51852 64.717949 2.3418409e-038
-64.21936 288.28979 64.891556 2.3418409e-038
-112.57216 285.19733 59.632702 9.1476764e-041
-110.8969 285.3237 59.65913 9.1476764e-041
-106.69343 286.29321 59.861847 9.1476764e-041
-105.10429 286.8533 59.978962 9.1476764e-041
-74.273216 280.71936 58.696396 2.3418409e-038
-73.187996 280.75629 58.704121 2.3418409e-038
-68.994408 281.97467 58.958874 2.3418409e-038
-65.296318 285.53024 59.702316 2.3418409e-038
-62.569134 289.75592 60.585876 2.3418409e-038
-112.5233 285.62195 55.151943 9.1476764e-041
-111.04689 285.70959 55.168869 9.1476764e-041
-106.83154 286.66379 55.353119 9.1476764e-041
-102.78256 288.17007 55.64397 9.1476764e-041
-101.86675 288.70959 55.74815 9.1476764e-041
-70.075348 266.80359 51.518227 2.3418409e-038
-69.48806 266.56296 51.471767 2.3418409e-038
-65.485588 267.6344 51.67865 2.3418409e-038
-62.776669 274.51224 53.006725 2.3418409e-038
-60.017868 282.19031 54.489319 2.3418409e-038
-59.210369 283.58707 54.759022 2.3418409e-038
-111.48219 286.62921 50.760761 9.1476764e-041
-111.40715 286.63651 50.762054 9.1476764e-041
-107.19804 287.64722 50.941048 9.1476764e-041
-103.14192 289.17758 51.21207 9.1476764e-041
-99.806602 291.86789 51.688507 9.1476764e-041
-66.309631 253.51608 44.896572 2.3509886e-038
-66.028763 253.29277 44.857025 2.3509886e-038
-61.896587 252.96643 44.799232 2.3509886e-038
-59.336681 259.46973 45.950935 2.3509886e-038
-56.694626 266.56522 47.207516 2.3418409e-038
-53.683578 268.59351 47.566719 2.3418409e-038
-110.13233 288.12872 46.416668 9.1476764e-041
-107.56828 288.64072 46.499146 9.1476764e-041
-103.50784 290.20355 46.750916 9.1476764e-041
-99.856598 293.11426 47.219818 9.1476764e-041
-97.903618 295.15344 47.548328 9.1476764e-041
-64.379318 248.58443 40.046196 2.3509886e-038
-60.785069 248.42374 40.020313 2.3509886e-038
-57.702202 252.3224 40.648376 2.3509886e-038
-54.636555 256.88861 41.38398 2.3509886e-038
-51.16156 260.11639 41.903965 2.3509886e-038
-49.227104 262.42401 42.275715 2.3509886e-038
-14.992923 262.03522 42.213081 2.3509528e-038
-13.826496 262.36407 42.266056 2.3509528e-038
-9.7500734 265.66168 42.797295 2.3509528e-038
-8.554081 267.05475 43.021709 2.3509528e-038
-108.54759 289.44995 41.998718 9.1476764e-041
-107.89923 289.52875 42.010151 9.1476764e-041
-103.80597 291.03937 42.22934 9.1476764e-041
-100.07898 293.767 42.625114 9.1476764e-041
-96.167427 296.19501 42.977413 9.1476764e-041
-95.321358 296.70346 43.051189 9.1476764e-041
-65.766251 258.55838 37.516403 2.3509886e-038
-63.085556 257.82565 37.41008 2.3509886e-038
-58.992729 257.9657 37.430401 2.3509886e-038
-55.084797 258.99615 37.579922 2.3509886e-038
-51.512749 261.90192 38.001541 2.3509886e-038
-48.239979 266.97861 38.738167 2.3509886e-038
-46.538078 270.27649 39.216679 2.3509886e-038
-17.055618 263.91846 38.29414 2.3509528e-038
-13.857162 262.94598 38.153034 2.3509528e-038
-9.7659225 266.09354 38.609737 2.3509528e-038
-7.2066197 269.77374 39.143734 2.3509528e-038
-107.14354 291.354 37.613728 9.1476764e-041
-104.14001 291.97595 37.694019 9.1476764e-041
-100.15303 293.98438 37.953308 9.1476764e-041
-96.011467 295.71466 38.176685 9.1476764e-041
-92.354958 297.3548 38.388428 9.1476764e-041
-68.812271 276.1973 35.657001 2.3509886e-038
-67.221733 274.72989 35.467556 2.3509886e-038
-61.940025 270.85373 34.967148 2.3509886e-038
-57.029839 268.1413 34.616974 2.3509886e-038
-52.641415 267.64029 34.552292 2.3509886e-038
-48.78775 270.01019 34.85825 2.3509886e-038
-45.129879 274.02939 35.377121 2.3509886e-038
-43.382706 276.31192 35.671799 2.3509886e-038
-17.930021 265.91046 34.328972 2.3509528e-038
-13.930621 264.3399 34.126209 2.3509528e-038
-9.801465 267.06195 34.477631 2.3509528e-038
-6.8176594 271.1937 35.011036 2.3509528e-038
-105.93343 293.70868 33.218777 9.1476764e-041
-104.73238 293.63678 33.210644 9.1476764e-041
-100.29352 294.39676 33.296597 9.1476764e-041
-96.115219 296.03418 33.481792 9.1476764e-041
-92.21431 298.74002 33.787827 9.1476764e-041
-90.265617 300.67276 34.00642 2.3509886e-038
-70.034248 286.32745 32.383949 2.3509886e-038
-64.612831 282.54144 31.95575 2.3509886e-038
-59.418568 279.37253 31.597342 2.3509886e-038
-54.167164 275.39755 31.147764 2.3509886e-038
-49.459408 273.72742 30.958872 2.3509886e-038
-45.463345 276.05417 31.222031 2.3509886e-038
-41.716339 280.55667 31.73127 2.3509886e-038
-41.131107 281.37659 31.824003 2.3509886e-038
-18.368317 268.26566 30.341143 2.3509528e-038
-14.064896 266.88782 30.185307 2.3509528e-038
-9.8947392 269.60339 30.492441 2.3509528e-038
-6.7822585 273.95731 30.984875 2.3509528e-038
-104.3065 294.87656 28.633251 9.1476764e-041
-100.5046 295.01636 28.646828 9.1476764e-041
-96.349876 296.75696 28.815845 9.1476764e-041
-92.562363 299.86761 29.117895 9.1476764e-041
-88.9897 304.05237 29.524248 2.3509886e-038
-88.480988 304.55368 29.572926 2.3509886e-038
-69.954315 290.09671 28.169117 2.3509886e-038
-66.001076 288.61203 28.024952 2.3509886e-038
-61.173676 287.62466 27.929075 2.3509886e-038
-55.754383 283.46729 27.525385 2.3509886e-038
-50.44775 279.19727 27.110756 2.3509886e-038
-45.980701 279.19559 27.110592 2.3509886e-038
-42.046215 282.77521 27.458179 2.3509886e-038
-39.782688 285.33023 27.706282 2.3509886e-038
-18.745817 270.12424 26.22974 2.3509528e-038
-18.547934 269.99121 26.216824 2.3509528e-038
-14.178604 269.04547 26.12499 2.3509528e-038
-9.9718409 271.70422 26.383162 2.3509528e-038
-6.8389163 276.25232 26.824795 2.3509528e-038
-102.36853 295.47449 23.964136 9.1476764e-041
-100.73887 295.70401 23.98275 9.1476764e-041
-96.58461 297.47992 24.126785 9.1476764e-041
-92.626801 300.07635 24.337366 9.1476764e-041
-88.908394 303.7746 24.637306 9.1476764e-041
-86.248299 306.45563 24.85475 2.3509886e-038
-69.524689 291.67892 23.656301 2.3509886e-038
-66.619156 291.31482 23.626768 2.3509886e-038
-62.051144 291.75031 23.66209 2.3509886e-038
-56.787239 288.71854 23.416203 2.3509886e-038
-51.323097 284.04178 23.0369 2.3509886e-038
-46.584408 282.8613 22.941154 2.3509886e-038
-42.54776 286.14825 23.207741 2.3509886e-038
-39.095024 290.04852 23.524067 2.3509886e-038
-19.404398 272.42194 22.094482 2.3509528e-038
-18.688807 272.04184 22.063654 2.3509528e-038
-14.310206 271.54269 22.023172 2.3509528e-038
-10.066591 274.28589 22.245657 2.3509528e-038
-6.9995794 278.95404 22.624262 2.3509528e-038
-100.44173 296.68784 19.315943 9.1476764e-041
-96.766808 298.04108 19.404047 9.1476764e-041
-92.516106 299.71771 19.513205 9.1476764e-041
-88.519798 302.44687 19.690886 9.1476764e-041
-84.902603 306.86182 19.978323 2.3509886e-038
-83.838066 307.80225 20.039551 2.3509886e-038
-69.898827 294.67145 19.184666 2.3509886e-038
-67.206131 293.88156 19.13324 2.3509886e-038
-62.439194 293.57483 19.11327 2.3509886e-038
-57.262085 291.13278 18.954279 2.3509886e-038
-51.850166 286.95877 18.682529 2.3509886e-038
-47.009808 285.44431 18.583931 2.3509886e-038
-42.899746 288.51547 18.783878 2.3509886e-038
-38.846596 292.75598 19.059959 2.3509886e-038
-38.301895 293.38666 19.101021 2.3509886e-038
-20.476831 274.97623 17.902403 2.3509528e-038
-18.849178 274.37628 17.863342 2.3509528e-038
-14.456774 274.32388 17.859932 2.3509528e-038
-10.164824 276.96243 18.031715 2.3509528e-038
-7.3366446 281.0589 18.298418 2.3509528e-038
-98.481781 298.41443 14.65414 9.1476764e-041
-96.989197 298.72604 14.669443 9.1476764e-041
-92.535133 299.77939 14.721169 9.1476764e-041
-88.274384 301.60837 14.810984 9.1476764e-041
-84.429329 305.15128 14.984965 9.1476764e-041
-79.864624 306.25742 15.039285 2.3509886e-038
-72.348579 300.0018 14.732092 2.3509886e-038
-67.987923 297.30023 14.599425 2.3509886e-038
-62.841007 295.46408 14.509259 2.3509886e-038
-57.698303 293.35062 14.405473 2.3509886e-038
-52.388893 289.94031 14.238005 2.3509886e-038
-47.412956 287.89224 14.137432 2.3509886e-038
-43.038181 289.4465 14.213756 2.3509886e-038
-38.738552 291.94174 14.336288 2.3509886e-038
-36.840343 292.8212 14.379477 2.3509886e-038
-21.947861 277.35654 13.620057 2.3509528e-038
-19.012218 276.74951 13.590249 2.3509528e-038
-14.596158 276.96875 13.601014 2.3509528e-038
-10.241386 279.04855 13.703147 2.3509528e-038
-7.9473157 281.80231 13.838374 2.3509528e-038
-96.528168 300.05521 9.9342508 9.1476764e-041
-92.759743 300.50705 9.9492102 9.1476764e-041
-88.240295 301.49188 9.9818163 9.1476764e-041
-83.916306 303.29706 10.041583 2.3509886e-038
-79.37059 304.4733 10.080525 2.3509886e-038
-74.150711 303.04803 10.033339 2.3509886e-038
-68.67968 300.32516 9.9431887 2.3509886e-038
-63.403248 298.1076 9.8697691 2.3509886e-038
-58.289017 296.35394 9.8117094 2.3509886e-038
-53.058025 293.64352 9.7219734 2.3509886e-038
-47.909611 290.90793 9.631402 2.3509886e-038
-43.1623 290.28128 9.6106548 2.3509886e-038
-38.599468 290.89355 9.6309271 2.3509886e-038
-34.427563 290.72308 9.6252823 2.3509886e-038
-24.380383 280.37473 9.2826691 2.3509886e-038
-23.721197 280.07178 9.2726374 2.3509528e-038
-19.195656 279.41971 9.25105 2.3509528e-038
-14.748523 279.85995 9.265625 2.3509528e-038
-10.330939 281.48862 9.3195477 2.3509528e-038
-8.7280722 283.08301 9.3723345 2.3509528e-038
-94.75145 301.27676 5.1546783 9.1476764e-041
-92.962311 301.1633 5.1527362 9.1476764e-041
-88.235413 301.47522 5.1580739 9.1476764e-041
-83.563263 302.02109 5.1674132 2.3509886e-038
-78.859802 302.51385 5.1758442 2.3509886e-038
-74.033302 302.56824 5.176774 2.3509886e-038
-69.027512 301.84619 5.1644201 2.3509886e-038
-63.892826 300.40948 5.1398392 2.3509886e-038
-58.752346 298.70959 5.110755 2.3509886e-038
-53.506363 296.12482 5.0665312 2.3509886e-038
-48.242172 292.92728 5.0118227 2.3509886e-038
-43.257347 290.9205 4.977488 2.3509886e-038
-38.55867 290.58609 4.9717665 2.3509886e-038
-33.801949 289.66284 4.9559703 2.3509886e-038
-28.744421 285.45889 4.8840432 2.3509886e-038
-23.916538 282.37814 4.8313332 2.3509528e-038
-19.39192 282.27664 4.829596 2.3509528e-038
-14.918272 283.08102 4.843359 2.3509528e-038
-10.44875 284.69861 4.8710351 2.3509528e-038
-9.3892984 285.65143 4.8873367 2.3509528e-038
-93.153542 301.3754 0.3347818 9.1476764e-041
-93.021027 301.35352 0.33475751 9.1476764e-041
-88.311874 301.73645 0.33518288 2.3509886e-038
-83.622833 302.23642 0.33573827 2.3509886e-038
-78.864349 302.53134 0.33606589 2.3509886e-038
-74.088539 302.79395 0.33635759 2.3509886e-038
-69.19986 302.59982 0.33614197 2.3509886e-038
-64.136986 301.5575 0.33498406 2.3509886e-038
-59.002636 299.98209 0.33323407 2.3509886e-038
-53.729881 297.36185 0.33032337 2.3509886e-038
-48.378635 293.75586 0.32631767 2.3509886e-038
-43.243477 290.82718 0.32306436 2.3509886e-038
-38.418125 289.52695 0.32161999 2.3509886e-038
-33.614529 288.05676 0.31998688 2.3509886e-038
-28.755186 285.5658 0.31721976 2.3509886e-038
-24.069561 284.18484 0.31568575 2.3509528e-038
-19.54775 284.54495 0.31608576 2.3509528e-038
-15.043249 285.45251 0.31709394 2.3509528e-038
-10.52953 286.89963 0.31870148 2.3509528e-038
-9.913661 287.302 0.31914845 2.3509528e-038
-92.178085 301.90128 -4.4946313 2.3509886e-038
-88.57225 302.62607 -4.5054216 2.3509886e-038
-83.937683 303.37436 -4.516562 2.3509886e-038
-79.166969 303.69223 -4.5212941 2.3509886e-038
-74.313095 303.7117 -4.5215845 2.3509886e-038
-69.362061 303.30908 -4.5155902 2.3509886e-038
-64.316368 302.40088 -4.502069 2.3509886e-038
-59.225742 301.11642 -4.4829464 2.3509886e-038
-54.009823 298.91116 -4.4501147 2.3509886e-038
-48.66663 295.50458 -4.3993983 2.3509886e-038
-43.435295 292.11725 -4.3489685 2.3509886e-038
-38.496197 290.1153 -4.3191643 2.3509886e-038
-33.652466 288.38184 -4.2933569 2.3509886e-038
-28.865561 286.66193 -4.2677512 2.3509886e-038
-24.21484 285.90012 -4.2564096 2.3509886e-038
-19.662943 286.22174 -4.261198 2.3509528e-038
-15.131049 287.11856 -4.2745495 2.3509528e-038
-10.600429 288.83145 -4.3000503 2.3509528e-038
-10.374764 288.96683 -4.3020663 2.3509528e-038
-91.743256 303.26794 -9.3668509 2.3509886e-038
-88.910385 303.7814 -9.3827085 2.3509886e-038
-84.236931 304.4559 -9.4035425 2.3509886e-038
-79.441772 304.74637 -9.4125128 2.3509886e-038
-74.54377 304.65445 -9.4096746 2.3509886e-038
-69.569336 304.21545 -9.3961163 2.3509886e-038
-64.548111 303.49048 -9.373724 2.3509886e-038
-59.48912 302.45551 -9.3417578 2.3509886e-038
-54.323483 300.64709 -9.285902 2.3509886e-038
-49.027241 297.69421 -9.1946983 2.3509886e-038
-43.768326 294.35696 -9.0916233 2.3509886e-038
-38.742626 291.97247 -9.0179739 2.3509886e-038
-33.856621 290.13132 -8.9611082 2.3509886e-038
-29.050741 288.50095 -8.9107513 2.3509886e-038
-24.359844 287.61218 -8.8832998 2.3509886e-038
-19.773281 287.82785 -8.8899622 2.3509886e-038
-15.231897 289.0322 -8.9271603 2.3509528e-038
-10.683687 291.10001 -8.9910259 2.3509528e-038
-10.519555 291.19797 -8.9940519 2.3509528e-038
-91.140282 303.89627 -14.248183 2.3509886e-038
-89.032249 304.19775 -14.262319 2.3509886e-038
-84.322319 304.7645 -14.28889 2.3509886e-038
-79.561409 305.20532 -14.309558 2.3509886e-038
-74.687096 305.2402 -14.311193 2.3509886e-038
-69.737473 304.95071 -14.297621 2.3509886e-038
-64.738594 304.38611 -14.27115 2.3509886e-038
-59.683414 303.44333 -14.226948 2.3509886e-038
-54.525806 301.76682 -14.148343 2.3509886e-038
-49.26392 299.13135 -14.024779 2.3509886e-038
-44.026745 296.09491 -13.882417 2.3509886e-038
-38.972542 293.70514 -13.770371 2.3509886e-038
-34.069855 291.95862 -13.688486 2.3509886e-038
-29.234352 290.32437 -13.611863 2.3509886e-038
-24.483749 289.07507 -13.55329 2.3509886e-038
-19.858397 289.06683 -13.552904 2.3509886e-038
-15.30972 290.50891 -13.620517 2.3509886e-038
-10.741933 292.68704 -13.722638 2.3509886e-038
-10.30078 292.95117 -13.735022 2.3509886e-038
-90.099113 302.65549 -19.032059 2.3509886e-038
-88.821861 303.47891 -19.083841 2.3509886e-038
-84.17231 304.22235 -19.130589 2.3509886e-038
-79.498741 304.9649 -19.177284 2.3509886e-038
-74.687698 305.24268 -19.194752 2.3509886e-038
-69.768143 305.08484 -19.184826 2.3509886e-038
-64.788322 304.6199 -19.15559 2.3509886e-038
-59.74654 303.76428 -19.101786 2.3509886e-038
-54.598148 302.16718 -19.001354 2.3509886e-038
-49.368553 299.76666 -18.850401 2.3509886e-038
-44.187653 297.17709 -18.687559 2.3509886e-038
-39.168781 295.18405 -18.562229 2.3509886e-038
-34.279255 293.75305 -18.472242 2.3509886e-038
-29.410221 292.07089 -18.366463 2.3509886e-038
-24.594398 290.3815 -18.260227 2.3509886e-038
-19.917253 289.92358 -18.231432 2.3509886e-038
-15.342475 291.13046 -18.307325 2.3509886e-038
-10.761693 293.22543 -18.439066 2.3509886e-038
-9.9900188 293.75586 -18.47242 2.3509886e-038
-93.98761 243.62947 -19.218033 2.3509886e-038
-90.797165 243.63834 -19.218731 2.3509886e-038
-87.693436 245.8649 -19.394367 3.5733111e-043
-87.307938 246.52209 -19.446209 3.5733111e-043
-89.023438 299.65079 -23.637117 2.3509886e-038
-88.197266 301.34488 -23.770752 2.3509886e-038
-83.809998 302.91284 -23.894436 2.3509886e-038
-79.244858 303.991 -23.979483 2.3509886e-038
-74.537575 304.62915 -24.029823 2.3509886e-038
-69.673759 304.67212 -24.033213 2.3509886e-038
-64.731033 304.35052 -24.007843 2.3509886e-038
-59.734924 303.70523 -23.956944 2.3509886e-038
-54.633324 302.36185 -23.850973 2.3509886e-038
-49.459499 300.31888 -23.689817 2.3509886e-038
-44.35038 298.27148 -23.528315 2.3509886e-038
-39.385227 296.81519 -23.413441 2.3509886e-038
-34.502781 295.66858 -23.322992 2.3509886e-038
-29.582539 293.78217 -23.174189 2.3509886e-038
-24.703611 291.67096 -23.007652 2.3509886e-038
-19.973885 290.74796 -22.934843 2.3509886e-038
-15.364886 291.55573 -22.998562 2.3509886e-038
-10.779617 293.71381 -23.168797 2.3509886e-038
-9.6022654 294.75339 -23.250799 2.3509886e-038
-96.424828 245.93718 -23.334728 2.3509886e-038
-95.458153 245.60173 -23.3029 2.3509886e-038
-91.084557 244.4095 -23.189781 3.5733111e-043
-87.44735 245.17496 -23.262407 3.5733111e-043
-85.294968 250.37074 -23.755388 3.5733111e-043
-84.964821 261.69104 -24.829468 3.5733111e-043
-85.05265 262.93298 -24.947304 3.5733111e-043
-87.864159 292.61981 -27.764017 2.3509886e-038
-87.058975 297.45566 -28.222845 2.3509886e-038
-83.240669 300.85513 -28.545391 2.3509886e-038
-78.849625 302.47482 -28.699068 2.3509886e-038
-74.28997 303.61722 -28.807459 2.3509886e-038
-69.533653 304.05945 -28.849419 2.3509886e-038
-64.661598 304.02411 -28.846066 2.3509886e-038
-59.733246 303.69669 -28.814999 2.3509886e-038
-54.709518 302.78354 -28.728361 2.3509886e-038
-49.602337 301.18622 -28.576803 2.3509886e-038
-44.529964 299.47925 -28.414845 2.3509886e-038
-39.575115 298.24625 -28.297857 2.3509886e-038
-34.669357 297.09604 -28.188725 2.3509886e-038
-29.703081 294.97928 -27.987885 2.3509886e-038
-24.78558 292.63876 -27.765812 2.3509886e-038
-20.026796 291.51813 -27.659487 2.3509886e-038
-15.405519 292.32675 -27.73621 2.3509886e-038
-10.826557 294.99277 -27.989166 2.3509886e-038
-9.0770664 296.95132 -28.174995 2.3509886e-038
-95.7686 249.17448 -27.628321 3.5733111e-043
-92.176598 247.33981 -27.424894 3.5733111e-043
-88.04023 246.8372 -27.369164 3.5733111e-043
-85.619766 251.32411 -27.866671 3.5733111e-043
-85.012215 261.83701 -29.032333 3.5733111e-043
-86.226532 279.34189 -30.973263 3.5733111e-043
-85.813553 293.20041 -32.509888 3.5733111e-043
-82.625412 298.63144 -33.11208 3.5733111e-043
-78.427299 300.85477 -33.358601 2.3509886e-038
-73.986885 302.37854 -33.527554 2.3509886e-038
-69.350815 303.25992 -33.625282 2.3509886e-038
-64.601852 303.74319 -33.678867 2.3509886e-038
-59.781284 303.94092 -33.70079 2.3509886e-038
-54.838604 303.49796 -33.651676 2.3509886e-038
-49.767262 302.18762 -33.506386 2.3509886e-038
-44.674252 300.44965 -33.313679 2.3509886e-038
-39.669071 298.95432 -33.147881 2.3509886e-038
-34.72121 297.54037 -32.9911 2.3509886e-038
-29.730289 295.24948 -32.737091 2.3509886e-038
-24.813114 292.96384 -32.483658 2.3509886e-038
-20.065979 292.08847 -32.3866 2.3509886e-038
-15.463272 293.42264 -32.534527 2.3509886e-038
-10.901623 297.03812 -32.93541 2.3509886e-038
-8.3690453 300.6824 -33.339489 2.3509886e-038
-94.283386 252.27425 -32.008068 3.5733111e-043
-93.927696 252.03857 -31.978165 3.5733111e-043
-89.457237 250.81003 -31.822287 3.5733111e-043
-86.692894 254.47414 -32.287186 3.5733111e-043
-85.672981 263.87216 -33.479588 3.5733111e-043
-85.891998 278.25812 -35.304848 3.5733111e-043
-85.058189 290.61954 -36.873245 3.5733111e-043
-82.124931 296.82254 -37.660267 3.5733111e-043
-78.012894 299.26505 -37.970165 3.5733111e-043
-73.611534 300.84448 -38.170567 3.5733111e-043
-69.089912 302.11902 -38.332272 2.3509886e-038
-64.489799 303.21631 -38.471493 2.3509886e-038
-59.809925 304.08658 -38.581913 2.3509886e-038
-54.945412 304.08908 -38.58223 2.3509886e-038
-49.879532 302.86932 -38.427467 2.3509886e-038
-44.750725 300.96393 -38.185719 2.3509886e-038
-39.68932 299.10693 -37.950108 2.3509886e-038
-34.700474 297.36264 -37.728794 2.3509886e-038
-29.701286 294.96146 -37.424137 2.3509886e-038
-24.793205 292.72879 -37.140858 2.3509886e-038
-20.07077 292.15823 -37.068466 2.3509886e-038
-15.512963 294.36557 -37.348526 2.3509886e-038
-10.994893 299.57947 -38.010059 2.3509886e-038
-7.4464269 306.55157 -38.894669 2.3509886e-038
-93.224586 256.51584 -36.650131 3.5733111e-043
-91.462273 256.43152 -36.638084 3.5733111e-043
-88.259079 259.07144 -37.015266 3.5733111e-043
-86.490822 266.39111 -38.061081 3.5733111e-043
-85.753899 277.8107 -39.692669 3.5733111e-043
-84.433884 288.48648 -41.217991 3.5733111e-043
-81.512886 294.61044 -42.092964 3.5733111e-043
-77.44091 297.07086 -42.4445 3.5733111e-043
-73.094498 298.73138 -42.681751 3.5733111e-043
-68.735031 300.5672 -42.944046 3.5733111e-043
-64.324814 302.44058 -43.211708 2.3509886e-038
-59.811562 304.09488 -43.448067 2.3509886e-038
-55.038857 304.60623 -43.52113 2.3509886e-038
-49.992031 303.55243 -43.370564 2.3509886e-038
-44.850422 301.63443 -43.096527 2.3509886e-038
-39.743572 299.51578 -42.793823 2.3509886e-038
-34.685471 297.2341 -42.467823 2.3509886e-038
-29.666634 294.61734 -42.093948 2.3509886e-038
-24.777752 292.5463 -41.798042 2.3509886e-038
-20.078012 292.26367 -41.757664 2.3509886e-038
-15.539278 294.8649 -42.129318 2.3509886e-038
-11.047054 301.0007 -43.005985 2.3509886e-038
-6.4748626 312.75818 -44.685852 2.3509886e-038
-6.1665936 313.95587 -44.856972 2.3509886e-038
-92.977615 263.3157 -41.834347 3.5733111e-043
-90.127762 264.55667 -42.031506 3.5733111e-043
-87.434006 269.29614 -42.784489 3.5733111e-043
-85.596725 277.30151 -44.056343 3.5733111e-043
-83.616737 285.69455 -45.38979 3.5733111e-043
-80.559868 291.16595 -46.25906 3.5733111e-043
-76.5476 293.64404 -46.652767 3.5733111e-043
-72.32811 295.59924 -46.963402 3.5733111e-043
-68.170494 298.09857 -47.360481 3.5733111e-043
-63.993423 300.88248 -47.80278 2.3509886e-038
-59.675499 303.40311 -48.203239 2.3509886e-038
-55.036167 304.59137 -48.392025 2.3509886e-038
-50.073265 304.04568 -48.305328 2.3509886e-038
-44.972305 302.45413 -48.052475 2.3509886e-038
-39.85022 300.31949 -47.713333 2.3509886e-038
-34.731922 297.63217 -47.286381 2.3509886e-038
-29.694963 294.89865 -46.852097 2.3509886e-038
-24.820753 293.05402 -46.559029 2.3509886e-038
-20.122118 292.9057 -46.535461 2.3509886e-038
-15.575105 295.54471 -46.954735 2.3509886e-038
-11.112856 302.79361 -48.106411 2.3509886e-038
-6.5991316 318.76077 -50.6432 2.3509886e-038
-4.3398061 332.30988 -52.795811 2.3509886e-038
-92.61306 270.31323 -47.270721 3.5733111e-043
-92.123184 270.41394 -47.288334 3.5733111e-043
-88.492363 272.55585 -47.662899 3.5733111e-043
-85.542885 277.12711 -48.462296 3.5733111e-043
-82.766777 282.79047 -49.452663 3.5733111e-043
-79.430702 287.08484 -50.20364 3.5733111e-043
-75.457748 289.46329 -50.619564 3.5733111e-043
-71.365097 291.66348 -51.004322 3.5733111e-043
-67.378136 294.6337 -51.523735 3.5733111e-043
-63.41423 298.15924 -52.140263 2.3509886e-038
-59.307953 301.53442 -52.730488 2.3509886e-038
-54.869473 303.66879 -53.103737 2.3509886e-038
-50.073872 304.04938 -53.170288 2.3509886e-038
-45.064529 303.0744 -52.99979 2.3509886e-038
-39.962299 301.16415 -52.665741 2.3509886e-038
-34.832714 298.49588 -52.199131 2.3509886e-038
-29.799961 295.94138 -51.752415 2.3509886e-038
-24.927784 294.31772 -51.468479 2.3509886e-038
-20.214273 294.24713 -51.456135 2.3509886e-038
-15.664538 297.24176 -51.979816 2.3509886e-038
-11.253686 306.63083 -53.621719 2.3509886e-038
-6.7880821 327.88776 -57.339001 2.3509886e-038
-1.8326325 363.61716 -63.587135 2.3509886e-038
-91.595078 276.02246 -52.685101 3.5733111e-043
-89.552208 275.82016 -52.646484 3.5733111e-043
-85.671089 277.54245 -52.975224 3.5733111e-043
-82.177856 280.77826 -53.59285 3.5733111e-043
-78.521385 283.79834 -54.1693 3.5733111e-043
-74.520401 285.86752 -54.564247 3.5733111e-043
-70.470055 288.00552 -54.972336 3.5733111e-043
-66.562622 291.0676 -55.556801 2.3509886e-038
-62.716209 294.87729 -56.283966 2.3509886e-038
-58.78492 298.87521 -57.047062 2.3509886e-038
-54.577568 302.05328 -57.653664 2.3509886e-038
-49.988819 303.5329 -57.936085 2.3509886e-038
-45.087715 303.23032 -57.87833 2.3509886e-038
-40.027306 301.65405 -57.577461 2.3509886e-038
-34.927753 299.3103 -57.130104 2.3509886e-038
-29.919724 297.13074 -56.714088 2.3509886e-038
-25.060696 295.88699 -56.476688 2.3509886e-038
-20.347984 296.19348 -56.535191 2.3509886e-038
-15.804326 299.89432 -57.241577 2.3509886e-038
-11.421916 311.21463 -59.402317 2.3509886e-038
-6.9335394 334.91382 -63.925838 2.3509886e-038
-1.7342014 368.67911 -70.370705 2.3509886e-038
0.8373273 381.27759 -72.775406 2.3509886e-038
-89.268326 278.63287 -57.641087 3.5733111e-043
-86.011444 278.64508 -57.643608 3.5733111e-043
-82.017441 280.23019 -57.971523 3.5733111e-043
-78.075691 282.18747 -58.376423 3.5733111e-043
-73.995918 283.85556 -58.721504 3.5733111e-043
-69.920662 285.76016 -59.115513 2.3509886e-038
-66.000244 288.6084 -59.704731 2.3509886e-038
-62.160255 292.26334 -60.460827 2.3509886e-038
-58.301567 296.41776 -61.320255 2.3509886e-038
-54.254395 300.26471 -62.116085 2.3509886e-038
-49.833752 302.59134 -62.597401 2.3509886e-038
-45.028431 302.83163 -62.647102 2.3509886e-038
-40.025288 301.63882 -62.400345 2.3509886e-038
-34.986374 299.81268 -62.022572 2.3509886e-038
-30.0212 298.13849 -61.676235 2.3509886e-038
-25.202929 297.56628 -61.557858 2.3509886e-038
-20.512278 298.58499 -61.7686 2.3509886e-038
-15.961591 302.87848 -62.656799 2.3509886e-038
-11.55962 314.96664 -65.157486 2.3509886e-038
-7.0060077 338.41431 -70.008133 2.3509886e-038
-1.7258343 366.9003 -75.901062 2.3509886e-038
2.7017512 382.58438 -79.145645 2.3509886e-038
-86.240387 281.16708 -62.663631 2.3509886e-038
-82.434105 281.65378 -62.772095 2.3509886e-038
-78.179787 282.56369 -62.974884 2.3509886e-038
-73.956223 283.70328 -63.228867 2.3509886e-038
-69.830345 285.39105 -63.605026 2.3509886e-038
-65.853142 287.96515 -64.178703 2.3509886e-038
-61.928844 291.17529 -64.894157 2.3509886e-038
-58.038059 295.078 -65.763947 2.3509886e-038
-54.05719 299.17331 -66.676666 2.3509886e-038
-49.74802 302.07077 -67.322426 2.3509886e-038
-45.023556 302.79883 -67.484695 2.3509886e-038
-40.067982 301.9606 -67.297867 2.3509886e-038
-35.084084 300.64996 -67.005768 2.3509886e-038
-30.168953 299.6058 -66.773064 2.3509886e-038
-25.393555 299.81699 -66.820129 2.3509886e-038
-20.717165 301.56741 -67.210243 2.3509886e-038
-16.145695 306.37192 -68.281021 2.3509886e-038
-11.70285 318.86929 -71.066307 2.3509886e-038
-7.0704627 341.52771 -76.11618 2.3509886e-038
-1.7174587 365.11972 -81.374123 2.3509886e-038
3.3053763 378.97992 -84.463142 2.3509886e-038
-82.381859 285.26328 -68.140366 2.3509886e-038
-78.818283 284.8714 -68.046753 2.3509886e-038
-74.397499 285.39603 -68.172073 2.3509886e-038
-70.155655 286.72061 -68.488472 2.3509886e-038
-66.040215 288.78323 -68.981171 2.3509886e-038
-61.979374 291.41287 -69.609306 2.3509886e-038
-58.0098 294.93433 -70.450478 2.3509886e-038
-54.04842 299.12479 -71.451439 2.3509886e-038
-49.840576 302.63278 -72.289391 2.3509886e-038
-45.218437 304.1095 -72.642128 2.3509886e-038
-40.294079 303.66449 -72.535828 2.3509886e-038
-35.298653 302.48871 -72.254974 2.3509886e-038
-30.387087 301.77209 -72.083801 2.3509886e-038
-25.62672 302.56992 -72.274376 2.3509886e-038
-20.947269 304.91693 -72.834999 2.3509886e-038
-16.344061 310.13602 -74.081673 2.3509886e-038
-11.845835 322.7652 -77.098381 2.3509886e-038
-7.133018 344.54935 -82.301933 2.3509886e-038
-1.71613 364.83725 -87.148071 2.3509886e-038
2.5832858 375.15091 -89.611679 2.3509886e-038
-77.326859 289.40958 -73.760948 2.3509886e-038
-75.461853 289.479 -73.778641 2.3509886e-038
-70.977829 290.08072 -73.931999 2.3509886e-038
-66.57682 291.1297 -74.199348 2.3509886e-038
-62.359695 293.20105 -74.727264 2.3509886e-038
-58.326015 296.54205 -75.578781 2.3509886e-038
-54.337852 300.72659 -76.645279 2.3509886e-038
-50.163792 304.59534 -77.631302 2.3509886e-038
-45.615139 306.77744 -78.187447 2.3509886e-038
-40.712063 306.81451 -78.196892 2.3509886e-038
-35.681583 305.7702 -77.930725 2.3509886e-038
-30.735537 305.23251 -77.793694 2.3509886e-038
-25.944363 306.32028 -78.070923 2.3509886e-038
-21.228416 309.0094 -78.756294 2.3509886e-038
-16.573982 314.49887 -80.15538 2.3509886e-038
-12.002359 327.03003 -83.349159 2.3509886e-038
-7.2025499 347.90796 -88.670258 2.3509886e-038
-1.7213976 365.95712 -93.270386 2.3509886e-038
0.10149509 370.1994 -94.351608 2.3509886e-038
-70.106796 296.1185 -80.208298 2.3509886e-038
-67.720001 296.12863 -80.211037 2.3509886e-038
-63.412659 298.15186 -80.759056 2.3509886e-038
-59.321419 301.60287 -81.693817 2.3509886e-038
-55.16922 305.32773 -82.702759 2.3509886e-038
-50.872173 308.89667 -83.669464 2.3509886e-038
-46.326164 311.55933 -84.390678 2.3509886e-038
-41.455547 312.41757 -84.623154 2.3509886e-038
-36.443108 312.29599 -84.590218 2.3509886e-038
-31.488634 312.71152 -84.702766 2.3509886e-038
-26.632643 314.44666 -85.17276 2.3509886e-038
-21.782404 317.07346 -85.88427 2.3509886e-038
-16.973448 322.07892 -87.240074 2.3509886e-038
-12.257422 333.9798 -90.463608 2.3509886e-038
-7.3123083 353.20972 -95.672333 2.3509886e-038
-7.0161519 354.27682 -95.961388 2.3509886e-038
-60.806992 312.51801 -89.650215 2.3509886e-038
-56.742359 314.03409 -90.085121 2.3509886e-038
-52.044147 316.01288 -90.652771 2.3509886e-038
-47.423462 318.93903 -91.492172 2.3509886e-038
-42.649162 321.4129 -92.201836 2.3509886e-038
-37.782528 323.77408 -92.879173 2.3509886e-038
-32.915878 326.88535 -93.77169 2.3509886e-038
-28.004917 330.64883 -94.851303 2.3509886e-038
-22.90357 333.39365 -95.638687 2.3509886e-038
-20.943367 334.18146 -95.864685 2.3509886e-038
-110.95053 285.46167 62.142868 9.1476764e-041
-111.42747 286.68878 50.577099 9.1476764e-041
-94.790344 243.88356 -19.710836 2.3509886e-038
-96.242546 247.61989 -25.626467 3.5733111e-043
-106.80368 286.58902 61.389488 9.1476764e-041
-108.04276 289.91388 40.577408 9.1476764e-041
-90.820656 243.70137 -18.602026 2.3509886e-038
-94.141663 252.61272 -32.458618 3.5733111e-043
-102.69704 287.9303 57.060524 9.1476764e-041
-105.05008 294.52747 30.587128 9.1476764e-041
-87.723488 245.94914 -19.212297 3.5733111e-043
-93.027405 260.81967 -40.003334 3.5733111e-043
-99.573967 292.28464 51.177013 9.1476764e-041
-100.93136 296.26907 20.534002 9.1476764e-041
-85.620552 251.32645 -21.191519 3.5733111e-043
-92.507446 271.5419 -48.281181 3.5733111e-043
-96.26709 296.50195 44.559029 9.1476764e-041
-97.221756 299.44232 11.683814 9.1476764e-041
-84.994522 261.78253 -24.636457 3.5733111e-043
-90.215317 277.86255 -55.864719 3.5733111e-043
-91.908043 297.74786 37.583569 9.1476764e-041
-93.031044 301.38593 -0.12852433 2.3509886e-038
-86.746788 281.02731 -28.533442 2.3509886e-038
-86.663223 280.75659 -62.024548 2.3509886e-038
-88.920059 303.81445 30.623417 2.3509886e-038
-83.260681 284.47794 -67.050217 2.3509886e-038
-77.978561 281.8364 78.55574 2.3418409e-038
-78.010719 281.95264 72.254326 2.3418409e-038
-85.030067 307.32251 22.313059 2.3509886e-038
-79.492828 287.30942 -71.305161 2.3509886e-038
-74.257118 284.85754 82.094742 2.3418409e-038
-65.153488 249.93512 42.388336 2.3509886e-038
-79.829536 306.23389 15.010609 2.3509886e-038
-75.907364 291.18802 -75.431824 2.3509886e-038
-70.081787 286.41867 78.714928 2.3418409e-038
-70.024437 286.18433 32.469013 2.3509886e-038
-73.850143 301.81964 13.727201 2.3509886e-038
-72.130814 294.79288 -78.885284 2.3509886e-038
-65.766464 287.58612 68.915993 2.3418409e-038
-68.060272 297.61658 -81.487839 2.3509886e-038
-61.297565 288.20718 58.107998 2.3418409e-038
-64.484825 303.19293 -84.775719 2.3509886e-038
-52.107437 264.92545 45.690838 2.3509886e-038
-61.262794 311.47324 -89.084465 2.3509886e-038
-47.974976 265.51199 40.780933 2.3509886e-038
-57.422043 317.79568 -92.838768 2.3509886e-038
-45.006599 273.28079 37.605976 2.3509886e-038
-52.899555 321.20697 -95.259392 2.3509886e-038
-41.635403 280.01233 32.936684 2.3509886e-038
-48.293373 324.78949 -96.75602 2.3509886e-038
-38.773479 292.20496 21.374144 2.3509886e-038
-43.538609 328.11594 -97.416656 2.3509886e-038
-33.883598 290.36255 8.9997787 2.3509886e-038
-38.619778 330.94879 -97.602379 2.3509886e-038
-28.721077 285.22705 6.6153517 2.3509886e-038
-33.661198 334.28708 -98.093315 2.3509886e-038
-23.675892 279.53687 10.298301 2.3509886e-038
-28.570988 337.33234 -98.487137 2.3509886e-038
-18.470762 268.86789 29.099352 2.3509528e-038
-23.073503 335.86722 -96.967384 2.3509886e-038
-13.822588 262.28992 43.509525 2.3509528e-038
-17.506573 332.19522 -94.023872 2.3509886e-038
-9.7436466 265.48657 44.248852 2.3509528e-038
-12.399779 337.85861 -93.592651 2.3509886e-038
-6.4612927 312.10269 -43.551758 2.3509886e-038
-7.3157806 353.37741 -95.851212 2.3509886e-038
-1.7158478 364.77725 -64.03363 2.3509886e-038
-1.7255106 366.83148 -95.700218 2.3509886e-038
