# .PCD v0.7 - Point Cloud Data file format
VERSION 0.7
FIELDS x y z rgb
SIZE 4 4 4 4
TYPE F F F F
COUNT 1 1 1 1
WIDTH 719
HEIGHT 1
VIEWPOINT 0 0 0 1 0 0 0
POINTS 719
DATA ascii
-103.15173 246.08876 -35.929256 2.3418052e-038
-90.532242 291.24908 61.726528 9.1476764e-041
0 0 0 3.5733111e-043
7.8870244 279.10474 40.74963 2.3509528e-038
-52.821144 287.57321 77.200134 2.3418409e-038
-59.018162 296.06592 83.056976 2.3418409e-038
-58.588367 295.70267 82.955078 2.3418409e-038
-52.727943 290.26022 81.428276 2.3418409e-038
-47.959869 284.65854 79.856804 2.3418409e-038
-60.319927 296.59512 78.31897 2.3418409e-038
-58.380245 294.65225 77.805939 2.3418409e-038
-51.770893 284.99176 75.254982 2.3418409e-038
-45.073708 272.8725 72.054764 2.3509886e-038
-41.326797 267.52832 70.643585 2.3509886e-038
-60.307446 296.86115 73.498367 2.3418409e-038
-58.335648 294.42715 72.895752 2.3418409e-038
-51.135586 281.49451 69.693817 2.3418409e-038
-44.202751 267.59982 66.253708 2.3509886e-038
-38.966301 262.034 64.875694 2.3509886e-038
-37.087738 261.45236 64.731689 2.3509886e-038
-94.53656 293.30643 67.785995 9.1476764e-041
-91.596741 292.21268 67.533211 9.1476764e-041
-89.549606 291.6279 67.398071 9.1476764e-041
-59.814167 297.84216 68.834244 2.3418409e-038
-58.694603 296.23886 68.463707 2.3418409e-038
-51.307301 282.43976 65.274597 2.3418409e-038
-44.345036 268.46121 62.044014 2.3509886e-038
-39.131073 263.14203 60.814697 2.3509886e-038
-34.828423 262.13123 60.581093 2.3509886e-038
-96.488457 293.96976 63.096077 9.1476764e-041
-91.453766 291.75656 62.621056 9.1476764e-041
-86.084808 289.86346 62.214729 9.1476764e-041
-83.983658 289.46964 62.130199 9.1476764e-041
-59.056362 298.14288 63.991779 2.3418409e-038
-51.958851 286.02649 61.391178 2.3418409e-038
-45.080139 272.91147 58.576241 2.3418409e-038
-39.634029 266.52423 57.205318 2.3509886e-038
-35.004246 264.71866 56.81778 2.3509886e-038
-33.411472 264.66953 56.80724 2.3509886e-038
-96.035812 293.90277 58.23959 9.1476764e-041
-91.448944 291.74115 57.811245 9.1476764e-041
-85.971115 289.48065 57.363304 9.1476764e-041
-81.068649 288.79437 57.22731 9.1476764e-041
-58.224586 297.72018 58.996044 2.3418409e-038
-52.682735 290.01135 57.468468 2.3418409e-038
-46.015892 278.57645 55.20253 2.3418409e-038
-40.236603 270.57629 53.617229 2.3509886e-038
-35.395512 267.67758 53.042816 2.3509886e-038
-32.18737 267.13947 52.936188 2.3509886e-038
-95.161522 294.54614 53.51437 9.1476764e-041
-91.840584 292.9906 53.231747 9.1476764e-041
-86.307961 290.61484 52.80011 9.1476764e-041
-81.284157 289.77405 52.647354 9.1476764e-041
-79.305267 290.26605 52.736736 9.1476764e-041
-57.423195 297.87015 54.118286 2.3418409e-038
-53.400055 293.96008 53.40789 2.3418409e-038
-47.006901 284.5759 51.70293 2.3418409e-038
-40.876751 274.88107 49.941532 2.3509886e-038
-35.780407 270.58835 49.161613 2.3509886e-038
-31.18928 269.43835 48.952679 2.3509886e-038
-30.976597 269.45993 48.9566 2.3509886e-038
-94.113312 295.69653 48.851715 9.1476764e-041
-92.452057 294.94131 48.726944 9.1476764e-041
-86.907715 292.63434 48.34581 9.1476764e-041
-81.695755 291.24136 48.115681 9.1476764e-041
-77.385956 291.1691 48.103741 9.1476764e-041
-56.982113 299.72577 49.517384 2.3418409e-038
-54.100643 297.81674 49.201996 2.3418409e-038
-47.977028 290.44897 47.984768 2.3418409e-038
-41.643963 280.04025 46.26516 2.3418409e-038
-36.268581 274.28012 45.313534 2.3509886e-038
-31.591146 272.91 45.087173 2.3509886e-038
-29.86487 273.30057 45.151699 2.3509886e-038
6.7973466 282.64264 46.695095 2.3509528e-038
9.183938 282.40634 46.656052 2.3509528e-038
10.801034 282.29095 46.636993 2.3509528e-038
-92.461502 295.70697 43.981598 2.3509886e-038
-87.228638 293.71497 43.685322 9.1476764e-041
-81.940117 292.11249 43.44698 9.1476764e-041
-76.930801 291.36749 43.33617 9.1476764e-041
-75.07402 291.51096 43.35751 9.1476764e-041
-56.849041 301.81866 44.890614 2.3418409e-038
-54.61335 300.63913 44.715172 2.3418409e-038
-48.77055 295.2529 43.914063 2.3418409e-038
-42.515099 285.89835 42.522724 2.3418409e-038
-36.859146 278.74628 41.458973 2.3509886e-038
-32.018681 276.60336 41.140247 2.3509886e-038
-28.657825 277.41635 41.261166 2.3509886e-038
3.1413894 282.53101 42.021885 2.3509528e-038
4.5194073 281.66974 41.893787 2.3509528e-038
9.1216068 280.48965 41.718269 2.3509528e-038
12.598654 280.32681 41.69405 2.3509528e-038
-90.59375 294.80191 38.990074 2.3509886e-038
-87.261833 293.82672 38.861095 9.1476764e-041
-82.060432 292.54144 38.691109 9.1476764e-041
-77.028992 291.73941 38.58503 9.1476764e-041
-72.655365 292.16434 38.641228 9.1476764e-041
-56.595875 303.07916 40.084808 2.3418409e-038
-54.921124 302.33337 39.986176 2.3418409e-038
-49.316303 298.55682 39.486694 2.3418409e-038
-43.28606 291.08276 38.498184 2.3418409e-038
-37.445469 283.18033 37.453018 2.3418409e-038
-32.421329 280.08179 37.043209 2.3509886e-038
-27.823009 280.2439 37.064651 2.3509886e-038
-27.299757 280.42569 37.088696 2.3509886e-038
1.411687 282.81018 37.404064 2.3509528e-038
4.4955964 280.18573 37.056957 2.3509528e-038
9.061388 278.63791 36.852249 2.3509528e-038
12.704287 278.64093 36.852642 2.3509528e-038
-89.46463 295.82825 34.251972 2.3509886e-038
-87.71328 295.34683 34.196232 2.3509886e-038
-82.479507 294.0354 34.044392 9.1476764e-041
-77.37645 293.05536 33.930916 9.1476764e-041
-72.542358 293.03137 33.928143 9.1476764e-041
-70.674294 293.94849 34.034328 9.1476764e-041
-56.45422 305.76138 35.402061 2.3509886e-038
-55.418736 305.07266 35.322319 2.3418409e-038
-49.767128 301.2861 34.8839 2.3418409e-038
-43.915714 295.31696 34.192776 2.3418409e-038
-37.982895 287.2446 33.258129 2.3418409e-038
-32.787666 283.24652 32.795216 2.3509886e-038
-28.06403 282.67154 32.728645 2.3509886e-038
-26.033701 283.01013 32.767849 2.3509886e-038
0.36026171 283.80121 32.85944 2.3509528e-038
4.4841032 279.46942 32.357895 2.3509528e-038
9.0239353 277.48627 32.128277 2.3509528e-038
12.332135 277.56784 32.137722 2.3509528e-038
-88.833878 298.70294 29.663624 2.3509886e-038
-88.695717 298.65488 29.65885 2.3509886e-038
-83.37616 297.23193 29.51754 9.1476764e-041
-78.115974 295.85623 29.38092 9.1476764e-041
-73.047089 295.07019 29.302862 9.1476764e-041
-69.518059 297.42697 29.536909 9.1476764e-041
-56.499432 310.19189 30.804569 2.3509886e-038
-56.318085 310.02347 30.787842 2.3509886e-038
-50.337349 304.73816 30.26297 2.3418409e-038
-44.433006 298.79556 29.672821 2.3418409e-038
-38.401047 290.40686 28.839754 2.3418409e-038
-33.067978 285.66806 28.369154 2.3418409e-038
-28.266058 284.70645 28.273657 2.3509886e-038
-25.069685 285.7262 28.374926 2.3509886e-038
-0.67518526 284.94617 28.297464 2.3509528e-038
-0.12224914 284.18051 28.221428 2.3509528e-038
4.4816418 279.31601 27.738342 2.3509528e-038
9.0099068 277.05487 27.513794 2.3509528e-038
11.600475 276.9119 27.499594 2.3509528e-038
-88.277069 302.49783 25.056772 2.3509886e-038
-84.462692 301.10538 24.941429 9.1476764e-041
-78.834152 298.57626 24.731936 9.1476764e-041
-73.43338 296.63058 24.57077 9.1476764e-041
-68.98288 298.51978 24.727255 9.1476764e-041
-68.4487 299.45822 24.804993 9.1476764e-041
-56.526794 313.65054 25.980583 2.3509886e-038
-50.766949 307.33893 25.457773 2.3509886e-038
-44.75111 300.93469 24.927292 2.3418409e-038
-38.701523 292.6792 24.243465 2.3418409e-038
-33.263672 287.35864 23.802748 2.3509886e-038
-28.387661 285.93127 23.684517 2.3509886e-038
-24.189489 288.1008 23.864225 2.3509886e-038
-2.1166801 287.13504 23.784225 2.3509528e-038
-0.12239823 284.52707 23.568199 2.3509528e-038
4.4891057 279.78119 23.175087 2.3509528e-038
9.0191002 277.33755 22.972673 2.3509528e-038
10.68664 277.1601 22.957975 2.3509528e-038
-87.359131 305.96655 20.303223 2.3509886e-038
-85.509087 304.83569 20.228184 2.3509886e-038
-79.410522 300.75919 19.957676 9.1476764e-041
-73.714355 297.76559 19.759027 9.1476764e-041
-68.873833 298.04788 19.777758 9.1476764e-041
-66.932465 300.00769 19.907808 9.1476764e-041
-56.534695 313.53885 20.805704 2.3509886e-038
-50.765934 307.33279 20.393885 2.3509886e-038
-44.896744 301.91403 20.034307 2.3418409e-038
-39.029797 295.16174 19.586243 2.3418409e-038
-33.563435 289.94821 19.240284 2.3509886e-038
-28.55761 287.64307 19.08732 2.3509886e-038
-23.903046 288.66238 19.154959 2.3509886e-038
-23.069309 289.51486 19.211529 2.3509886e-038
-3.8687356 289.28073 19.195993 2.3509528e-038
-0.12259696 284.98904 18.911207 2.3509528e-038
4.4987402 280.38168 18.605471 2.3509528e-038
9.0383139 277.92838 18.442675 2.3509528e-038
9.6745644 277.90958 18.441429 2.3509528e-038
-85.796921 308.12338 15.369961 2.3509886e-038
-80.10022 303.37134 15.132918 9.1476764e-041
-74.081154 299.24725 14.927199 9.1476764e-041
-68.947372 298.36612 14.883245 9.1476764e-041
-64.594994 300.99072 15.014167 9.1476764e-041
-64.299362 301.34186 15.031682 9.1476764e-041
-57.370094 310.24149 15.475617 2.3509886e-038
-56.280445 309.81628 15.454407 2.3509886e-038
-50.451939 305.43188 15.235703 2.3509886e-038
-44.919098 302.06436 15.067722 2.3509886e-038
-39.376499 297.78369 14.854193 2.3509886e-038
-33.981697 293.56152 14.643579 2.3509886e-038
-28.834055 290.42752 14.487248 2.3509886e-038
-23.976719 289.55209 14.443579 2.3509886e-038
-21.711102 290.50424 14.491076 2.3509886e-038
-5.8662419 290.7341 14.502542 2.3509528e-038
-4.9009018 289.9024 14.461055 2.3509528e-038
-0.12274555 285.33447 14.233193 2.3509528e-038
4.5096331 281.06055 14.02 2.3509528e-038
8.3503637 279.10291 13.922348 2.3509886e-038
-83.799347 308.71707 10.313389 2.3509886e-038
-80.759995 305.87021 10.218283 2.3509886e-038
-74.513817 300.99496 10.055414 9.1476764e-041
-69.116135 299.09647 9.991991 9.1476764e-041
-64.37542 299.96762 10.021094 9.1476764e-041
-60.059425 303.12729 10.12665 2.3509886e-038
-55.343548 304.65878 10.177813 2.3509886e-038
-50.039852 302.93716 10.120297 2.3509886e-038
-44.798191 301.25128 10.063978 2.3509886e-038
-39.557076 299.14929 9.9937563 2.3509886e-038
-34.2813 296.14972 9.893549 2.3509886e-038
-29.072472 292.82895 9.7826109 2.3509886e-038
-24.104713 291.09781 9.7247782 2.3509886e-038
-19.86549 292.26938 9.763917 2.3509528e-038
-8.3056011 291.24344 9.7296429 2.3509528e-038
-4.8892803 289.215 9.6618786 2.3509528e-038
-0.12296357 285.84125 9.5491705 2.3509528e-038
4.5303531 282.3519 9.4326019 2.3509528e-038
6.7660475 281.02121 9.3881464 2.3509528e-038
-81.730927 307.43692 5.2055359 2.3509886e-038
-81.0149 306.83563 5.1953549 2.3509886e-038
-74.92128 302.64093 5.12433 2.3509886e-038
-69.422035 300.42023 5.0867295 2.3509886e-038
-64.353981 299.86768 5.0773735 2.3509886e-038
-59.519192 300.40063 5.0863976 2.3509886e-038
-54.652355 300.85385 5.0940714 2.3509886e-038
-49.644623 300.54446 5.0888329 2.3509886e-038
-44.601227 299.92679 5.0783744 2.3509886e-038
-39.545963 299.06528 5.0637865 2.3509886e-038
-34.366745 296.88788 5.0269194 2.3509886e-038
-29.168528 293.79648 4.9745755 2.3509886e-038
-24.165947 291.83728 4.941402 2.3509528e-038
-19.370268 292.02435 4.9445696 2.3509528e-038
-14.544816 291.73752 4.939713 2.3509528e-038
-9.6649637 289.53845 4.9024782 2.3509528e-038
-4.8623505 287.62201 4.870029 2.3509528e-038
-0.12309829 286.15445 4.84518 2.3509528e-038
4.5645638 284.4841 4.8168979 2.3509528e-038
5.2711601 284.2327 4.8126411 2.3509528e-038
-80.371269 306.47098 0.14000914 2.3509886e-038
-75.214928 303.82709 0.13880129 2.3509886e-038
-69.692894 301.59235 0.13778037 2.3509886e-038
-64.445526 300.29428 0.13718735 2.3509886e-038
-59.429024 299.94556 0.13702805 2.3509886e-038
-54.47784 299.89316 0.13700411 2.3509886e-038
-49.485657 299.58209 0.13686199 2.3509886e-038
-44.490005 299.17886 0.13667779 2.3509886e-038
-39.509644 298.79059 0.1365004 2.3509886e-038
-34.395569 297.13687 0.13574493 2.3509886e-038
-29.224781 294.36307 0.13447772 2.3509886e-038
-24.206425 292.32608 0.13354714 2.3509528e-038
-19.346733 291.66956 0.1332472 2.3509528e-038
-14.498855 290.81564 0.13285711 2.3509528e-038
-9.6451283 288.94421 0.13200216 2.3509528e-038
-4.8587432 287.40866 0.13130066 2.3509528e-038
-0.12343455 286.93613 0.13108478 2.3509528e-038
4.1024384 287.2149 0.13121213 2.3509528e-038
-79.627647 305.5946 -4.8951354 2.3509886e-038
-75.30024 304.17169 -4.8723426 2.3509886e-038
-69.837517 302.21817 -4.8410506 2.3509886e-038
-64.516518 300.62506 -4.8155313 2.3509886e-038
-59.456638 300.08496 -4.8068795 2.3509886e-038
-54.490379 299.96219 -4.8049135 2.3509886e-038
-49.471474 299.49625 -4.7974491 2.3509886e-038
-44.459064 298.97079 -4.7890325 2.3509886e-038
-39.483398 298.5921 -4.7829661 2.3509886e-038
-34.437775 297.5015 -4.7654972 2.3509886e-038
-29.322647 295.34882 -4.7310143 2.3509886e-038
-24.286659 293.29504 -4.6981163 2.3509886e-038
-19.372339 292.05557 -4.6782618 2.3509528e-038
-14.504752 290.93393 -4.660295 2.3509528e-038
-9.6592302 289.36667 -4.6351895 2.3509528e-038
-4.8702383 288.08859 -4.6147175 2.3509528e-038
-0.12388372 287.98022 -4.6129813 2.3509528e-038
3.3970008 289.04807 -4.6300864 2.3509528e-038
-79.480141 305.67877 -9.9326048 2.3509886e-038
-75.391235 304.53928 -9.8955784 2.3509886e-038
-69.99662 302.90668 -9.8425303 2.3509886e-038
-64.649002 301.2424 -9.7884512 2.3509886e-038
-59.52174 300.41351 -9.7615175 2.3509886e-038
-54.509773 300.06894 -9.7503204 2.3509886e-038
-49.471447 299.49606 -9.7317057 2.3509886e-038
-44.458687 298.96826 -9.7145557 2.3509886e-038
-39.474991 298.52853 -9.7002678 2.3509886e-038
-34.476635 297.83719 -9.677803 2.3509886e-038
-29.430401 296.43417 -9.6322136 2.3509886e-038
-24.404345 294.71628 -9.5763931 2.3509886e-038
-19.462307 293.4119 -9.5340099 2.3509528e-038
-14.574063 292.32416 -9.4986649 2.3509528e-038
-9.7067299 290.78964 -9.4488029 2.3509528e-038
-4.8880239 289.14069 -9.3952217 2.3509528e-038
-0.12415406 288.60867 -9.3779354 2.3509528e-038
3.0856469 289.64301 -9.4115458 2.3509528e-038
-79.613785 306.29791 -14.999042 2.3509886e-038
-75.398026 304.56671 -14.914268 2.3509886e-038
-70.030632 303.05386 -14.840185 2.3509886e-038
-64.7173 301.56064 -14.767064 2.3509886e-038
-59.554367 300.57822 -14.718955 2.3509886e-038
-54.504463 300.0397 -14.692585 2.3509886e-038
-49.449718 299.36453 -14.659523 2.3509886e-038
-44.443634 298.867 -14.63516 2.3509886e-038
-39.482708 298.58688 -14.621442 2.3509886e-038
-34.521523 298.22498 -14.603721 2.3509886e-038
-29.520973 297.34644 -14.560699 2.3509886e-038
-24.505735 295.9407 -14.491861 2.3509886e-038
-19.551125 294.75092 -14.4336 2.3509886e-038
-14.64867 293.82062 -14.388044 2.3509886e-038
-9.7577028 292.31668 -14.314398 2.3509528e-038
-4.9082184 290.33524 -14.217369 2.3509528e-038
-0.12447845 289.36276 -14.169748 2.3509886e-038
3.0208421 289.97598 -14.199777 2.3509886e-038
-79.385521 305.30682 -19.980513 2.3509886e-038
-75.110695 303.40604 -19.856117 2.3509886e-038
-69.77388 301.94281 -19.760357 2.3509886e-038
-64.511345 300.60095 -19.672541 2.3509886e-038
-59.389645 299.74683 -19.616644 2.3509886e-038
-54.374699 299.32538 -19.589064 2.3509886e-038
-49.357193 298.80441 -19.55497 2.3509886e-038
-44.397747 298.55844 -19.538872 2.3509886e-038
-39.489288 298.63666 -19.543991 2.3509886e-038
-34.576931 298.70364 -19.548376 2.3509886e-038
-29.607607 298.21906 -19.516663 2.3509886e-038
-24.589169 296.94824 -19.433495 2.3509886e-038
-19.616131 295.73099 -19.35383 2.3509886e-038
-14.698801 294.82611 -19.294615 2.3509886e-038
-9.794919 293.43155 -19.203348 2.3509886e-038
-4.9286838 291.54584 -19.079939 2.3509886e-038
-0.12495127 290.46188 -19.009001 2.3509886e-038
3.0178266 290.5946 -19.017687 2.3509886e-038
-78.88752 302.59692 -24.788502 2.3509886e-038
-74.540375 301.10226 -24.666059 2.3509886e-038
-69.289185 299.84531 -24.563093 2.3509886e-038
-64.07299 298.55838 -24.457668 2.3509886e-038
-59.038795 297.97604 -24.409966 2.3509886e-038
-54.144192 298.05649 -24.416553 2.3509886e-038
-49.24881 298.14825 -24.42407 2.3509886e-038
-44.383797 298.46466 -24.449991 2.3509886e-038
-39.514046 298.82385 -24.479418 2.3509886e-038
-34.628151 299.14615 -24.505817 2.3509886e-038
-29.68432 298.99173 -24.49317 2.3509886e-038
-24.675083 297.98578 -24.410763 2.3509886e-038
-19.68483 296.76666 -24.310892 2.3509886e-038
-14.74058 295.66412 -24.220575 2.3509886e-038
-9.82131 294.22217 -24.102449 2.3509886e-038
-4.9458795 292.56299 -23.96653 2.3509886e-038
-0.12542504 291.5632 -23.88463 2.3509886e-038
3.0256553 291.42508 -23.873314 2.3509886e-038
-78.957718 299.90506 -29.508995 2.3509886e-038
-73.867691 298.38498 -29.359428 2.3509886e-038
-68.733337 297.43988 -29.266434 2.3509886e-038
-63.606964 296.38687 -29.162825 2.3509886e-038
-58.679554 296.1629 -29.140787 2.3509886e-038
-53.930809 296.88184 -29.211525 2.3509886e-038
-49.180405 297.7341 -29.295385 2.3509886e-038
-44.410915 298.647 -29.385208 2.3509886e-038
-39.562786 299.19247 -29.438881 2.3509886e-038
-34.672031 299.52521 -29.471619 2.3509886e-038
-29.739428 299.54681 -29.473743 2.3509886e-038
-24.755161 298.95285 -29.415302 2.3509886e-038
-19.761364 297.92047 -29.313721 2.3509886e-038
-14.783128 296.51755 -29.175682 2.3509886e-038
-9.8373699 294.70331 -28.997169 2.3509886e-038
-4.9537983 293.03143 -28.832666 2.3509886e-038
-0.12567212 292.13757 -28.744717 2.3509886e-038
3.0355296 291.92758 -28.724054 2.3509886e-038
-80.305412 296.85641 -34.099781 2.3509886e-038
-78.271774 296.44632 -34.052677 2.3509886e-038
-73.081993 295.21118 -33.910797 2.3509886e-038
-68.084389 294.63159 -33.844219 2.3509886e-038
-63.142635 294.22324 -33.797314 2.3509886e-038
-58.363297 294.56671 -33.836765 2.3509886e-038
-53.719299 295.7175 -33.968956 2.3509886e-038
-49.063099 297.02396 -34.11903 2.3509886e-038
-44.372932 298.39157 -34.276127 2.3509886e-038
-39.582096 299.3385 -34.384899 2.3509886e-038
-34.714451 299.89163 -34.448437 2.3509886e-038
-29.786366 300.01956 -34.463135 2.3509886e-038
-24.811213 299.62976 -34.418354 2.3509886e-038
-19.818621 298.78369 -34.321167 2.3509886e-038
-14.817155 297.20004 -34.139256 2.3509886e-038
-9.8451204 294.93549 -33.879128 2.3509886e-038
-4.9534402 293.01022 -33.65797 2.3509886e-038
-0.12564455 292.07349 -33.550369 2.3509886e-038
3.0764146 291.84366 -33.523968 2.3509886e-038
-108.37238 247.77702 -32.544235 2.3418052e-038
-105.97179 247.14398 -32.46109 2.3418052e-038
-102.09171 247.60883 -32.522144 2.3418052e-038
-98.66127 249.24834 -32.737488 2.3418052e-038
-95.484444 251.69873 -33.059334 2.3418052e-038
-92.460129 254.79195 -33.465614 2.3418052e-038
-89.902824 259.5275 -34.087601 2.3418052e-038
-89.116592 261.68005 -34.370331 2.3418052e-038
-82.460526 286.1756 -37.587696 2.3418052e-038
-81.025955 288.85358 -37.939434 2.3418052e-038
-76.84922 291.05853 -38.229042 2.3418052e-038
-72.01796 290.91309 -38.209934 2.3418052e-038
-67.247139 291.00845 -38.222462 2.3509886e-038
-62.590816 291.65195 -38.30698 2.3509886e-038
-58.021698 292.84262 -38.463371 2.3509886e-038
-53.469379 294.34171 -38.660271 2.3509886e-038
-48.87748 295.90024 -38.864975 2.3509886e-038
-44.259274 297.62726 -39.091812 2.3509886e-038
-39.555748 299.13922 -39.290398 2.3509886e-038
-34.737682 300.09235 -39.415585 2.3509886e-038
-29.818754 300.34579 -39.448875 2.3509886e-038
-24.840599 299.98462 -39.40144 2.3509886e-038
-19.844391 299.17218 -39.294727 2.3509886e-038
-14.835396 297.56595 -39.083755 2.3509886e-038
-9.8551865 295.23703 -38.777866 2.3509886e-038
-4.9581738 293.29022 -38.522163 2.3509886e-038
-0.12578124 292.39124 -38.404083 2.3509886e-038
3.3944769 292.65765 -38.439075 2.3509886e-038
-111.22926 248.27917 -36.700649 2.3418052e-038
-110.25738 247.62424 -36.60384 2.3418052e-038
-105.22699 245.40698 -36.276085 2.3418052e-038
-101.27442 245.62663 -36.308552 2.3418052e-038
-97.830414 247.14935 -36.533642 2.3418052e-038
-94.657326 249.51843 -36.883842 2.3418052e-038
-91.644035 252.54303 -37.330936 2.3418052e-038
-89.131836 257.30188 -38.034386 2.3418052e-038
-86.92865 263.47253 -38.946537 2.3418052e-038
-84.679398 270.1449 -39.932846 2.3418052e-038
-82.237183 276.90781 -40.932541 2.3418052e-038
-79.277206 282.61938 -41.776825 2.3418052e-038
-75.416443 285.63205 -42.222157 2.3418052e-038
-70.981125 286.72482 -42.383694 2.3418052e-038
-66.479187 287.68515 -42.52565 2.3509886e-038
-62.078583 289.26514 -42.759197 2.3509886e-038
-57.69754 291.20657 -43.046185 2.3509886e-038
-53.230354 293.02591 -43.315121 2.3509886e-038
-48.703812 294.84885 -43.584587 2.3509886e-038
-44.164654 296.991 -43.901237 2.3509886e-038
-39.521034 298.87674 -44.179989 2.3509886e-038
-34.727718 300.00626 -44.346958 2.3509886e-038
-29.830776 300.46689 -44.415047 2.3509886e-038
-24.863926 300.26636 -44.385403 2.3509886e-038
-19.858215 299.38062 -44.254471 2.3509886e-038
-14.847075 297.80017 -44.020855 2.3509886e-038
-9.8739328 295.79861 -43.724983 2.3509886e-038
-4.9719129 294.10297 -43.474331 2.3509886e-038
-0.12636778 293.7547 -43.422848 2.3509886e-038
4.6689448 299.32855 -44.246777 2.3509886e-038
-108.89847 247.41927 -40.649815 2.3418052e-038
-105.70268 246.51637 -40.501476 2.3418052e-038
-101.58835 246.38799 -40.480381 2.3418052e-038
-97.885605 247.28877 -40.628376 2.3418052e-038
-94.61689 249.41185 -40.977188 2.3418052e-038
-91.566216 252.32857 -41.45639 2.3418052e-038
-88.897247 256.62466 -42.16222 2.3418052e-038
-86.373756 261.79068 -43.010971 2.3418052e-038
-83.750511 267.18158 -43.896667 2.3418052e-038
-80.952515 272.58209 -44.783947 2.3418052e-038
-77.788895 277.31363 -45.561317 2.3418052e-038
-74.111465 280.68961 -46.115971 2.3418052e-038
-69.993965 282.73724 -46.452396 2.3509886e-038
-65.738838 284.48138 -46.738945 2.3509886e-038
-61.521137 286.6676 -47.098133 2.3509886e-038
-57.272701 289.06235 -47.491577 2.3509886e-038
-52.909069 291.25729 -47.852196 2.3509886e-038
-48.500401 293.61743 -48.239952 2.3509886e-038
-44.078171 296.40942 -48.698666 2.3509886e-038
-39.494427 298.67548 -49.070969 2.3509886e-038
-34.727131 300.00116 -49.288776 2.3509886e-038
-29.858438 300.74551 -49.411064 2.3509886e-038
-24.903788 300.74771 -49.411427 2.3509886e-038
-19.881933 299.73819 -49.245571 2.3509886e-038
-14.864002 298.13971 -48.982948 2.3509886e-038
-9.896841 296.48489 -48.711063 2.3509886e-038
-4.9888201 295.10309 -48.484039 2.3509886e-038
-0.12734266 296.0209 -48.634834 2.3509886e-038
4.954855 308.80878 -50.735821 2.3509886e-038
9.7440844 340.89911 -56.00811 2.3509886e-038
-101.80833 250.59697 -45.300541 2.3418052e-038
-99.287987 250.8316 -45.342957 2.3418052e-038
-95.935654 252.88811 -45.71471 2.3418052e-038
-92.812057 255.76178 -46.234184 2.3418052e-038
-89.850471 259.37637 -46.8876 2.3418052e-038
-86.92527 263.46228 -47.626209 2.3418052e-038
-83.859322 267.52872 -48.361301 2.3418052e-038
-80.552124 271.23389 -49.031086 2.3418052e-038
-76.969246 274.3916 -49.601906 2.3418052e-038
-73.162933 277.09711 -50.090984 2.3509886e-038
-69.105751 279.14935 -50.461971 2.3509886e-038
-65.004364 281.30295 -50.851276 2.3509886e-038
-60.882221 283.69049 -51.282871 2.3509886e-038
-56.695583 286.14957 -51.727398 2.3509886e-038
-52.442669 288.68982 -52.186604 2.3509886e-038
-48.185902 291.71347 -52.733189 2.3509886e-038
-43.911098 295.28595 -53.378986 2.3509886e-038
-39.443886 298.29327 -53.922623 2.3509886e-038
-34.739929 300.11176 -54.25135 2.3509886e-038
-29.90209 301.18518 -54.445396 2.3509886e-038
-24.954466 301.35974 -54.476952 2.3509886e-038
-19.916653 300.26163 -54.278446 2.3509886e-038
-14.885721 298.57535 -53.973614 2.3509886e-038
-9.9188614 297.14456 -53.714973 2.3509886e-038
-5.00739 296.20154 -53.544498 2.3509886e-038
-0.12842722 298.54211 -53.967606 2.3509886e-038
5.0670147 315.79907 -57.087162 2.3509886e-038
11.83297 363.86414 -65.775902 2.3509886e-038
17.840765 395.25949 -71.451263 2.3509886e-038
-92.144394 266.77472 -52.620159 2.3509886e-038
-89.030754 269.84381 -53.225525 2.3509886e-038
-85.49456 272.74545 -53.797863 2.3509886e-038
-81.473701 274.33704 -54.11179 2.3509886e-038
-77.230659 275.32355 -54.306377 2.3509886e-038
-72.999657 276.4787 -54.534229 2.3509886e-038
-68.709213 277.54758 -54.745056 2.3509886e-038
-64.544373 279.31238 -55.093159 2.3509886e-038
-60.367493 281.29202 -55.483635 2.3509886e-038
-56.135624 283.32336 -55.884308 2.3509886e-038
-51.915863 285.78983 -56.370808 2.3509886e-038
-47.761604 289.14481 -57.032562 2.3509886e-038
-43.63242 293.4119 -57.874229 2.3509886e-038
-39.330566 297.43634 -58.66803 2.3509886e-038
-34.732529 300.04782 -59.183132 2.3509886e-038
-29.928722 301.45343 -59.460388 2.3509886e-038
-24.998581 301.89249 -59.546989 2.3509886e-038
-19.962063 300.9462 -59.360336 2.3509886e-038
-14.918378 299.23038 -59.021893 2.3509886e-038
-9.9453382 297.93777 -58.766937 2.3509886e-038
-5.0293207 297.49878 -58.680347 2.3509886e-038
-0.12957603 301.21262 -59.41288 2.3509886e-038
5.1482644 320.86295 -63.28883 2.3509886e-038
11.84919 364.36288 -71.869003 2.3509886e-038
19.341127 394.75342 -77.863403 2.3509886e-038
20.775892 397.6488 -78.434502 2.3509886e-038
-86.381508 281.17621 -60.093239 2.3509886e-038
-83.2854 280.43735 -59.935329 2.3509886e-038
-78.503036 279.8595 -59.811829 2.3509886e-038
-73.809311 279.5452 -59.744652 2.3509886e-038
-69.09874 279.12103 -59.654003 2.3509886e-038
-64.667152 279.84369 -59.808449 2.3509886e-038
-60.273815 280.8555 -60.024696 2.3509886e-038
-55.865223 281.95865 -60.26046 2.3509886e-038
-51.565266 283.85986 -60.66679 2.3509886e-038
-47.430428 287.13989 -61.367802 2.3509886e-038
-43.389889 291.78101 -62.359707 2.3509886e-038
-39.207985 296.50931 -63.370235 2.3509886e-038
-34.712429 299.87418 -64.089386 2.3509886e-038
-29.942078 301.58798 -64.455658 2.3509886e-038
-25.038706 302.37704 -64.624306 2.3509886e-038
-20.022484 301.85712 -64.513176 2.3509886e-038
-14.974288 300.35181 -64.19146 2.3509886e-038
-9.9853535 299.13651 -63.931732 2.3509886e-038
-5.053853 298.94995 -63.891857 2.3509886e-038
-0.13072392 303.88101 -64.945724 2.3509886e-038
5.2193341 325.29233 -69.521767 2.3509886e-038
11.801653 362.90112 -77.559563 2.3509886e-038
19.010204 387.99927 -82.923561 2.3509886e-038
21.362888 392.06696 -83.792908 2.3509886e-038
-80.678513 287.49319 -66.179825 2.3509886e-038
-80.642372 287.48611 -66.178192 2.3509886e-038
-75.51799 286.01663 -65.839928 2.3509886e-038
-70.390869 284.34055 -65.454094 2.3509886e-038
-65.56665 283.73624 -65.314987 2.3509886e-038
-60.757942 283.11139 -65.17115 2.3509886e-038
-56.040077 282.84116 -65.10894 2.3509886e-038
-51.591469 284.00406 -65.37664 2.3509886e-038
-47.396164 286.93246 -66.050743 2.3509886e-038
-43.32618 291.35257 -67.068245 2.3509886e-038
-39.142448 296.01367 -68.141205 2.3509886e-038
-34.704567 299.80624 -69.014244 2.3509886e-038
-29.972301 301.8924 -69.494469 2.3509886e-038
-25.090345 303.0007 -69.749596 2.3509886e-038
-20.091728 302.90103 -69.726654 2.3509886e-038
-15.04502 301.77054 -69.466415 2.3509886e-038
-10.038311 300.72299 -69.225273 2.3509886e-038
-5.0863891 300.87454 -69.260155 2.3509886e-038
-0.13215393 307.2052 -70.717453 2.3509886e-038
5.2916861 329.80161 -75.91906 2.3509886e-038
11.769258 361.90497 -83.309128 2.3509886e-038
18.741632 382.5177 -88.0541 2.3509886e-038
20.957829 386.06479 -88.870628 2.3509886e-038
-74.826698 294.2937 -72.593819 2.3509886e-038
-72.61412 293.32123 -72.353928 2.3509886e-038
-67.238281 290.97012 -71.773987 2.3509886e-038
-61.830975 288.11136 -71.06881 2.3509886e-038
-56.75164 286.43246 -70.654678 2.3509886e-038
-52.098667 286.79611 -70.744377 2.3509886e-038
-47.716988 288.87473 -71.257111 2.3509886e-038
-43.477463 292.3699 -72.119263 2.3509886e-038
-39.191162 296.38208 -73.108955 2.3509886e-038
-34.761337 300.29666 -74.074577 2.3509886e-038
-30.060808 302.78387 -74.688103 2.3509886e-038
-25.178429 304.06439 -75.003967 2.3509886e-038
-20.173265 304.13025 -75.02021 2.3509886e-038
-15.12055 303.28552 -74.811836 2.3509886e-038
-10.101648 302.62042 -74.647774 2.3509886e-038
-5.1363468 303.82971 -74.946075 2.3509886e-038
-0.13429306 312.1778 -77.00531 2.3509886e-038
5.3793468 335.26501 -82.700256 2.3509886e-038
11.789642 362.5318 -89.426201 2.3509886e-038
18.592882 379.48169 -93.607254 2.3509886e-038
19.290277 380.57742 -93.877533 2.3509886e-038
-67.910934 298.93613 -78.664009 2.3509886e-038
-63.524471 296.00247 -77.892029 2.3509886e-038
-58.249092 293.99033 -77.362534 2.3509886e-038
-53.326733 293.55649 -77.248375 2.3509886e-038
-48.613907 294.30457 -77.445229 2.3509886e-038
-44.075993 296.39478 -77.995262 2.3509886e-038
-39.587433 299.37888 -78.780518 2.3509886e-038
-35.063763 302.90927 -79.709534 2.3509886e-038
-30.323511 305.4299 -80.372826 2.3509886e-038
-25.389492 306.61328 -80.684227 2.3509886e-038
-20.342079 306.67532 -80.700554 2.3509886e-038
-15.257441 306.03122 -80.531059 2.3509886e-038
-10.206053 305.74814 -80.456573 2.3509886e-038
-5.2091269 308.13486 -81.084625 2.3509886e-038
-0.13682294 318.05878 -83.696075 2.3509886e-038
5.4562488 340.05792 -89.485062 2.3509886e-038
11.817225 363.37994 -95.622185 2.3509886e-038
15.441202 372.6813 -98.069794 2.3509886e-038
-58.922195 306.19763 -85.619507 2.3509886e-038
-55.582134 305.97217 -85.556465 2.3509886e-038
-50.547882 306.01273 -85.567802 2.3509886e-038
-45.587437 306.55865 -85.720467 2.3509886e-038
-40.654945 307.4519 -85.97023 2.3509886e-038
-35.823643 309.47375 -86.535583 2.3509886e-038
-30.946957 311.7095 -87.160744 2.3509886e-038
-25.930597 313.14786 -87.56295 2.3509886e-038
-20.778614 313.25644 -87.5933 2.3509886e-038
-15.584938 312.60013 -87.40979 2.3509886e-038
-10.436069 312.63882 -87.420609 2.3509886e-038
-5.3391042 315.82336 -88.311073 2.3509886e-038
-0.14030917 326.16287 -91.202225 2.3509886e-038
5.5369496 345.08755 -96.493973 2.3509886e-038
6.616993 348.74582 -97.516907 2.3509886e-038
-48.906166 324.38837 -96.050415 2.3509886e-038
-48.205097 324.16147 -95.983231 2.3509886e-038
-42.560692 321.86407 -95.302979 2.3509886e-038
-37.186703 321.24896 -95.12085 2.3509886e-038
-32.127304 323.59842 -95.816513 2.3509886e-038
-27.079075 327.01733 -96.82885 2.3509886e-038
-21.736767 327.70148 -97.031425 2.3509886e-038
-16.254648 326.03305 -96.537407 2.3509886e-038
-10.876535 325.83414 -96.4785 2.3509886e-038
-10.653016 325.89963 -96.497894 2.3509886e-038
-110.45623 248.07083 -34.800213 2.3418052e-038
-110.28724 247.6913 -39.177338 2.3418052e-038
-106.44679 248.25177 -31.255941 2.3418052e-038
-106.37787 248.09103 -42.699295 2.3418052e-038
-102.98749 249.78143 -30.024921 2.3418052e-038
-103.05239 249.93883 -44.699921 2.3418052e-038
-99.452286 251.24669 -29.947006 2.3418052e-038
-99.773941 252.05928 -46.33345 2.3418052e-038
-96.083923 253.27898 -30.717112 2.3418052e-038
-97.102249 255.9633 -48.162033 2.3509886e-038
-92.824173 255.79515 -31.998604 2.3418052e-038
-94.637222 260.79135 -50.17852 2.3509886e-038
-89.982193 259.75662 -33.690182 2.3418052e-038
-92.281761 266.39493 -52.46434 2.3509886e-038
-87.657845 265.68268 -35.601261 2.3418052e-038
-90.110992 273.11792 -55.340843 2.3509886e-038
-91.612755 292.26376 68.209785 9.1476764e-041
-92.7239 295.80856 44.664108 2.3509886e-038
-85.455742 272.62164 -37.218609 2.3418052e-038
-87.613968 279.50681 -58.772171 2.3509886e-038
-86.253769 290.4324 64.83181 9.1476764e-041
-88.79174 298.97821 29.304266 2.3509886e-038
-83.415443 280.87521 -37.853367 2.3418052e-038
-84.110214 283.21466 -62.248264 2.3509886e-038
-81.013489 288.80911 57.107403 9.1476764e-041
-86.286102 307.60574 16.783768 2.3509886e-038
-81.641632 291.0484 -36.780632 2.3418052e-038
-80.655136 287.53162 -66.210579 2.3509886e-038
-76.892113 291.22098 47.068512 9.1476764e-041
-81.051682 306.97495 3.0257468 2.3509886e-038
-79.080978 299.51108 -30.275084 2.3509886e-038
-77.133644 292.13574 -70.292999 2.3509886e-038
-72.359718 292.29361 38.050365 9.1476764e-041
-73.292824 296.06284 -74.262756 2.3509886e-038
-69.050575 298.81271 27.284796 9.1476764e-041
-69.040993 298.77127 -77.949417 2.3509886e-038
-64.624176 301.12671 15.419469 9.1476764e-041
-64.418022 300.16614 -81.005653 2.3509886e-038
-58.588497 295.70331 83.556244 2.3418409e-038
-59.072464 298.14597 64.091217 2.3418409e-038
-60.428158 304.98831 12.481483 2.3509886e-038
-60.308819 304.38599 -84.4114 2.3509886e-038
-53.000824 291.76239 84.680382 2.3418409e-038
-56.506256 311.05933 29.868891 2.3509886e-038
-56.722351 312.24887 18.238394 2.3509886e-038
-56.317841 310.02213 -87.98806 2.3509886e-038
-46.381245 280.78824 77.734444 2.3418409e-038
-52.453007 317.5462 -92.184273 2.3509886e-038
-39.156467 263.31277 67.655418 2.3509886e-038
-48.339382 325.06451 -96.494293 2.3509886e-038
-34.68185 262.28052 60.260654 2.3509886e-038
-43.308445 327.51892 -98.909416 2.3509886e-038
-31.142765 269.03653 49.513252 2.3509886e-038
-37.964211 327.9657 -99.89415 2.3509886e-038
-27.750458 279.51315 38.484135 2.3509886e-038
-32.833496 330.71143 -100.62304 2.3509886e-038
-23.899532 288.61996 22.553158 2.3509886e-038
-27.709892 334.63531 -101.40154 2.3509886e-038
-19.39994 292.47171 8.9593468 2.3509528e-038
-22.176544 334.33154 -100.86901 2.3509886e-038
-14.547191 291.78516 5.0826268 2.3509528e-038
-16.435926 329.66913 -98.737228 2.3509886e-038
-9.7095451 290.87396 7.7316523 2.3509528e-038
-10.881902 325.99487 -96.578201 2.3509886e-038
-4.903327 290.04593 16.683849 2.3509528e-038
-5.5063062 325.71384 -95.185699 2.3509886e-038
-0.12232298 284.35214 30.567829 2.3509528e-038
-0.14254938 331.37048 -95.220703 2.3509886e-038
4.5331616 282.52695 44.329746 2.3509528e-038
4.5884695 285.974 2.306771 2.3509528e-038
4.8164563 300.18314 -44.637131 2.3509886e-038
5.5450773 345.59412 -97.088684 2.3509886e-038
9.1905909 282.61093 47.347607 2.3509528e-038
9.0551138 278.44498 16.140011 2.3509886e-038
11.614361 357.14188 -59.879654 2.3509886e-038
11.82657 363.6673 -98.639595 2.3509886e-038
19.534939 398.70908 -74.723969 2.3509886e-038
18.572544 379.06662 -95.022675 2.3509886e-038
