# .PCD v0.7 - Point Cloud Data file format
VERSION 0.7
FIELDS x y z rgb
SIZE 4 4 4 4
TYPE F F F F
COUNT 1 1 1 1
WIDTH 729
HEIGHT 1
VIEWPOINT 0 0 0 1 0 0 0
POINTS 729
DATA ascii
17.242575 281.62036 70.296654 2.3418052e-038
-56.585938 293.04202 60.726372 9.1476764e-041
-71.743652 245.69542 -37.028984 3.5733111e-043
59.569832 274.96271 32.374908 2.3509528e-038
-13.97904 296.81277 78.282623 2.3418409e-038
-16.351685 295.71164 83.797005 2.3418409e-038
-13.757818 295.85812 83.838516 2.3418409e-038
-12.838678 296.07492 83.899963 2.3418409e-038
-19.291309 296.31665 79.042656 2.3418409e-038
-18.697399 296.19724 79.010803 2.3418409e-038
-13.791548 296.58347 79.113823 2.3418409e-038
-9.0266447 299.04416 79.770226 2.3418409e-038
-19.882923 297.97144 74.530769 2.3418409e-038
-18.788633 297.64252 74.448509 2.3418409e-038
-13.854042 297.92737 74.51976 2.3418409e-038
-8.9744349 300.36954 75.130608 2.3418409e-038
-7.6382842 301.42908 75.395622 2.3418409e-038
12.47971 281.12814 70.31781 2.3418052e-038
14.965675 281.10324 70.311584 2.3418052e-038
19.722946 282.31094 70.613663 2.3418052e-038
21.095764 282.89368 70.759422 2.3418052e-038
-19.63476 299.79547 70.003387 2.3418409e-038
-18.904507 299.47815 69.929291 2.3418409e-038
-13.932479 299.61414 69.961052 2.3418409e-038
-9.0229235 301.9924 70.51638 2.3418409e-038
-6.8760304 303.35724 70.835075 2.3418409e-038
11.797922 282.44342 65.951622 2.3418052e-038
15.04733 282.63696 65.996819 2.3418052e-038
19.895144 284.77576 66.496231 2.3418052e-038
22.059801 286.29105 66.850052 2.3418052e-038
-60.963875 292.04941 63.33979 9.1476764e-041
-57.404682 292.71365 63.483856 9.1476764e-041
-53.703152 294.80377 63.937164 9.1476764e-041
-18.923586 300.06732 65.078728 2.3418409e-038
-13.95335 300.06299 65.077782 2.3418409e-038
-9.0288839 302.19189 65.539505 2.3418409e-038
-6.194324 303.65009 65.855759 2.3418409e-038
11.563548 283.29831 61.441853 2.3418052e-038
15.096389 283.55847 61.498272 2.3418052e-038
19.977303 285.95175 62.017338 2.3418052e-038
22.337919 287.88586 62.43681 2.3418052e-038
-61.876377 292.82047 58.639351 9.1476764e-041
-57.443176 292.90991 58.657265 9.1476764e-041
-52.926529 294.8739 59.050568 9.1476764e-041
-51.006512 296.25522 59.32719 9.1476764e-041
-18.17362 299.07077 59.891022 2.3418409e-038
-13.913165 299.19879 59.91666 2.3418409e-038
-8.9896784 300.87973 60.253273 2.3418409e-038
-5.3779807 302.45016 60.567768 2.3418409e-038
11.181164 283.37006 56.746841 2.3418052e-038
15.093509 283.50436 56.773743 2.3418052e-038
19.955984 285.64658 57.202736 2.3418052e-038
22.334532 287.6347 57.600868 2.3418052e-038
-61.530987 293.74384 53.941238 9.1476764e-041
-57.558746 293.49924 53.89632 9.1476764e-041
-52.857231 294.48779 54.077854 9.1476764e-041
-48.571083 296.05304 54.365284 9.1476764e-041
-17.694136 298.38351 54.793236 2.3418409e-038
-13.887983 298.65729 54.843513 2.3418409e-038
-8.967885 300.1503 55.117683 2.3418409e-038
-4.4136233 301.86899 55.433285 2.3418409e-038
10.503265 283.30817 52.024902 2.3418052e-038
15.085756 283.35876 52.034187 2.3418052e-038
19.963102 285.7485 52.473026 2.3418052e-038
22.386967 288.28836 52.939426 2.3418052e-038
-60.322128 294.11737 49.12059 9.1476764e-041
-57.647461 293.9516 49.092907 9.1476764e-041
-52.82383 294.30173 49.151379 9.1476764e-041
-48.068001 295.13968 49.291328 9.1476764e-041
-46.196083 296.1915 49.466991 9.1476764e-041
-17.559301 298.68552 49.883522 2.3418409e-038
-13.895477 298.81845 49.90572 2.3418409e-038
-8.9671888 300.12701 50.12426 2.3418409e-038
-4.0028267 301.99625 50.436447 2.3418409e-038
-3.403604 302.12274 50.457569 2.3418409e-038
9.6990099 283.74536 47.388359 2.3418052e-038
10.385332 283.63043 47.369167 2.3418052e-038
15.106425 283.74698 47.388634 2.3418052e-038
20.016407 286.51151 47.850338 2.3418052e-038
22.488543 289.59668 48.365593 2.3418052e-038
-58.918594 294.80469 44.334717 9.1476764e-041
-57.783482 294.6452 44.31073 9.1476764e-041
-52.871738 294.56863 44.299213 9.1476764e-041
-48.1371 295.56393 44.448898 9.1476764e-041
-44.176651 299.16318 44.990173 9.1476764e-041
-17.572147 299.26181 45.005005 2.3418409e-038
-13.901488 298.94769 44.957767 2.3418409e-038
-8.9563055 299.76276 45.080341 2.3418409e-038
-3.999121 301.71667 45.374187 2.3418409e-038
-2.476752 302.02576 45.42067 2.3418409e-038
9.0111351 284.81079 42.831764 2.3418052e-038
10.413755 284.40668 42.770992 2.3418052e-038
15.145687 284.48444 42.782688 2.3418052e-038
20.059822 287.1329 43.180984 2.3418052e-038
22.521408 290.02316 43.615635 2.3418052e-038
-57.571926 295.6658 39.549252 9.1476764e-041
-52.902958 294.74258 39.425758 9.1476764e-041
-48.134727 295.54938 39.53368 9.1476764e-041
-43.733513 299.04913 40.001816 9.1476764e-041
-41.910374 301.41275 40.317982 9.1476764e-041
-17.606407 300.0079 40.130062 2.3509886e-038
-13.908573 299.10007 40.008629 2.3418409e-038
-8.9404087 299.23068 40.026104 2.3418409e-038
-3.9893584 300.98013 40.260109 2.3418409e-038
-1.7785014 301.27899 40.300087 2.3418409e-038
8.2569523 285.53467 38.19408 2.3418052e-038
10.42485 284.70969 38.083725 2.3418052e-038
15.161605 284.78342 38.093586 2.3418052e-038
20.083281 287.46869 38.452778 2.3418052e-038
22.518293 290.06516 38.800091 2.3418052e-038
59.370571 274.86243 36.766521 2.3509528e-038
60.490822 275.61819 36.867615 2.3509528e-038
63.771374 278.44418 37.245628 2.3509528e-038
-56.317944 297.01379 34.792183 9.1476764e-041
-53.055969 295.59506 34.625992 9.1476764e-041
-48.126629 295.49966 34.614819 9.1476764e-041
-43.553619 297.81906 34.886513 9.1476764e-041
-39.226524 301.2305 35.286129 9.1476764e-041
-17.609224 300.80957 35.23682 2.3509886e-038
-13.914761 299.23312 35.052155 2.3418409e-038
-8.9300699 298.88467 35.011341 2.3418409e-038
-3.9856703 300.70187 35.224205 2.3418409e-038
-1.3899451 301.10025 35.270874 2.3418409e-038
7.4862237 286.59424 33.57164 2.3418052e-038
10.435568 285.00241 33.385174 2.3418052e-038
15.162527 284.80078 33.361549 2.3418052e-038
20.067329 287.24039 33.647327 2.3418052e-038
22.424164 289.47943 33.909611 2.3509886e-038
54.199848 273.05362 31.985491 2.3509528e-038
55.404629 273.13129 31.994589 2.3509528e-038
60.463257 275.49261 32.271194 2.3509528e-038
64.887253 279.45563 32.735424 2.3509528e-038
-54.84832 298.00415 29.954348 9.1476764e-041
-53.337791 297.16519 29.870016 9.1476764e-041
-48.24612 296.23334 29.77635 9.1476764e-041
-43.501492 297.46262 29.899914 9.1476764e-041
-38.847691 299.70804 30.125616 9.1476764e-041
-36.643444 301.4581 30.301525 9.1476764e-041
-17.437984 301.18994 30.27457 2.3509886e-038
-13.920105 299.34805 30.089432 2.3418409e-038
-8.9356365 299.07098 30.061583 2.3418409e-038
-3.9937818 301.31384 30.287025 2.3418409e-038
-1.2506858 301.93744 30.349707 2.3418409e-038
6.9593563 287.99881 28.948645 2.3418052e-038
10.463185 285.75668 28.723274 2.3418052e-038
15.197609 285.45969 28.693422 2.3418052e-038
20.08054 287.42947 28.891418 2.3418052e-038
22.165636 289.17703 29.067076 2.3418052e-038
51.176773 273.16562 27.457664 2.3509528e-038
55.631153 274.24799 27.56646 2.3509528e-038
60.906498 277.51221 27.894566 2.3509528e-038
64.098999 280.46698 28.19157 2.3509528e-038
-53.19326 299.21408 25.102003 9.1476764e-041
-48.487267 297.71399 24.976152 9.1476764e-041
-43.569695 297.92896 24.994186 9.1476764e-041
-38.807274 299.39621 25.117279 9.1476764e-041
-34.47366 303.60443 25.47032 9.1476764e-041
-17.136581 300.93378 25.246271 2.3509886e-038
-13.911375 299.16031 25.097488 2.3509886e-038
-8.9361639 299.08862 25.091476 2.3418409e-038
-3.9951541 301.41739 25.286842 2.3418409e-038
-1.0930792 301.98273 25.33427 2.3418409e-038
6.5813003 289.2785 24.268475 2.3418052e-038
10.504158 286.87567 24.066893 2.3418052e-038
15.277898 286.96777 24.074621 2.3418052e-038
20.188513 288.97498 24.24301 2.3418052e-038
21.717497 290.1239 24.339397 2.3418052e-038
48.485672 274.27972 23.01018 2.3509528e-038
51.042961 274.09091 22.994339 2.3509528e-038
55.902035 275.58334 23.119547 2.3509528e-038
61.371391 279.6304 23.459064 2.3509528e-038
62.306194 280.62283 23.542324 2.3509528e-038
-51.410141 300.23981 20.197037 9.1476764e-041
-48.718052 299.13101 20.12245 9.1476764e-041
-43.64452 298.44064 20.076008 9.1476764e-041
-38.833241 299.59656 20.153767 9.1476764e-041
-34.40992 304.52591 20.485363 9.1476764e-041
-32.709297 308.13113 20.727886 9.1476764e-041
-17.300201 302.20374 20.329153 2.3509886e-038
-13.924906 299.45129 20.143995 2.3509886e-038
-8.9343977 299.02948 20.11562 2.3509886e-038
-3.9846258 300.62308 20.222822 2.3418409e-038
-0.32446319 300.3143 20.202049 2.3418409e-038
5.8667688 290.96851 19.57336 2.3418052e-038
10.554396 288.24768 19.390331 2.3418052e-038
15.378385 288.85526 19.431204 2.3418052e-038
20.40032 292.00677 19.643204 2.3509886e-038
21.199505 292.83774 19.699104 2.3509886e-038
45.336403 275.9408 18.562452 2.3509528e-038
46.752354 275.65762 18.543404 2.3509528e-038
51.400742 276.01212 18.567249 2.3509528e-038
56.37101 277.89529 18.693932 2.3509528e-038
59.765171 280.15894 18.846205 2.3509528e-038
-49.540249 300.77911 15.233338 9.1476764e-041
-48.929752 300.43088 15.215702 9.1476764e-041
-43.717438 298.93924 15.140156 9.1476764e-041
-38.858124 299.78851 15.183168 9.1476764e-041
-34.319324 303.72421 15.382498 9.1476764e-041
-29.922375 309.67966 15.684118 9.1476764e-041
-19.041248 305.5423 15.474577 2.3509886e-038
-13.962565 300.26114 15.207107 2.3509886e-038
-8.9365044 299.09998 15.148298 2.3509886e-038
-3.9677463 299.34958 15.160938 2.3509886e-038
1.0019653 297.41904 15.063165 2.3509886e-038
5.8405542 292.14032 14.795816 2.3418052e-038
10.617551 289.97247 14.686024 2.3418052e-038
15.466295 290.50647 14.713069 2.3509886e-038
20.556162 294.23743 14.902028 2.3509886e-038
20.752783 294.47284 14.91395 2.3509886e-038
41.321899 276.74374 14.016038 2.3509528e-038
42.308807 276.56512 14.006992 2.3509528e-038
46.877304 276.39435 13.998342 2.3509528e-038
51.79108 278.10815 14.08514 2.3509528e-038
57.13879 281.68027 14.266054 2.3509528e-038
57.414375 281.93454 14.278932 2.3509528e-038
-47.821495 302.03055 10.275948 9.1476764e-041
-43.935246 300.42859 10.221446 9.1476764e-041
-38.903751 300.14053 10.211645 9.1476764e-041
-34.074448 301.55704 10.259839 9.1476764e-041
-29.239132 303.39987 10.322536 9.1476764e-041
-24.268747 304.31726 10.353749 2.3509886e-038
-19.116674 302.83923 10.303462 2.3509886e-038
-13.972012 300.46426 10.222659 2.3509886e-038
-8.9308996 298.91241 10.169861 2.3509886e-038
-3.947963 297.85703 10.133953 2.3509886e-038
0.9971773 295.9978 10.070698 2.3509886e-038
5.8629241 293.25925 9.9775229 2.3509886e-038
10.676067 291.57062 9.9200706 2.3509886e-038
15.508789 291.30466 9.9110231 2.3509886e-038
20.496958 293.39001 9.9819717 2.3509528e-038
20.895361 293.66992 9.9914961 2.3509528e-038
36.84536 279.15222 9.4975624 2.3509528e-038
37.99905 278.6749 9.4813223 2.3509528e-038
42.486427 277.72623 9.4490461 2.3509528e-038
47.11367 277.78802 9.451148 2.3509528e-038
52.073799 279.62631 9.5136919 2.3509528e-038
54.455902 281.22748 9.5681677 2.3509528e-038
-46.605152 305.29163 5.3119078 2.3509886e-038
-44.422153 303.75806 5.2852244 2.3509886e-038
-39.027069 301.09192 5.2388349 9.1476764e-041
-33.925861 300.24203 5.2240477 9.1476764e-041
-28.939205 300.28766 5.2248416 2.3509886e-038
-23.996569 300.90427 5.23557 2.3509886e-038
-19.001606 301.01636 5.2375207 2.3509886e-038
-13.956135 300.12286 5.2219739 2.3509886e-038
-8.9231501 298.65305 5.1964002 2.3509886e-038
-3.9369805 297.02841 5.1681323 2.3509886e-038
0.99501133 295.35486 5.1390133 2.3509886e-038
5.8726902 293.74771 5.1110501 2.3509886e-038
10.69969 292.21573 5.0843945 2.3509886e-038
15.490012 290.95197 5.0624056 2.3509528e-038
20.308256 290.68896 5.0578294 2.3509528e-038
23.098715 290.26453 5.0504441 2.3509528e-038
30.962019 284.30392 4.9467335 2.3509528e-038
33.80418 282.33023 4.9123921 2.3509528e-038
38.349102 281.2421 4.8934593 2.3509528e-038
42.972614 280.90433 4.8875818 2.3509528e-038
47.611412 280.72275 4.8844223 2.3509528e-038
51.548038 281.34726 4.8952885 2.3509528e-038
-45.756367 309.09158 0.23987532 2.3509886e-038
-45.078339 308.24503 0.23921832 2.3509886e-038
-39.210194 302.50473 0.23476346 2.3509886e-038
-33.929649 300.2756 0.23303351 2.3509886e-038
-28.901464 299.89606 0.23273897 2.3509886e-038
-23.95628 300.39908 0.23312934 2.3509886e-038
-18.977015 300.62677 0.23330607 2.3509886e-038
-13.948401 299.95657 0.23278593 2.3509886e-038
-8.9232988 298.65802 0.23177816 2.3509886e-038
-3.9410748 297.33731 0.23075323 2.3509886e-038
0.99748743 296.08984 0.22978511 2.3509886e-038
5.887435 294.48523 0.22853982 2.3509886e-038
10.708524 292.457 0.22696579 2.3509886e-038
15.449632 290.19351 0.22520915 2.3509528e-038
20.144476 288.34467 0.22377431 2.3509528e-038
24.767706 286.37851 0.22224846 2.3509528e-038
29.359682 284.74316 0.22097933 2.3509528e-038
34.012951 284.07385 0.22045991 2.3509528e-038
38.780987 284.40942 0.22072034 2.3509528e-038
43.689209 285.58859 0.22163545 2.3509528e-038
48.590298 286.49438 0.22233839 2.3509528e-038
49.50938 286.53897 0.22237298 2.3509528e-038
-44.773285 310.08112 -4.9139667 2.3509886e-038
-39.360935 303.66769 -4.8123307 2.3509886e-038
-34.003742 300.9313 -4.7689662 2.3509886e-038
-28.949495 300.39444 -4.7604585 2.3509886e-038
-23.97579 300.64371 -4.7644086 2.3509886e-038
-18.988693 300.8118 -4.7670722 2.3509886e-038
-13.960821 300.22366 -4.7577519 2.3509886e-038
-8.9342651 299.02505 -4.7387576 2.3509886e-038
-3.9496076 297.98111 -4.7222137 2.3509886e-038
1.0009472 297.11685 -4.7085176 2.3509886e-038
5.908998 295.56381 -4.6839056 2.3509886e-038
10.735529 293.19452 -4.646359 2.3509886e-038
15.466318 290.50693 -4.6037679 2.3509886e-038
20.128559 288.11682 -4.5658903 2.3509528e-038
24.766773 286.36771 -4.5381718 2.3509528e-038
29.460278 285.71881 -4.5278883 2.3509528e-038
34.237572 285.94989 -4.5315509 2.3509528e-038
39.10614 286.79404 -4.5449281 2.3509528e-038
44.23185 289.13571 -4.5820374 2.3509886e-038
47.606441 291.98441 -4.6271815 2.3509886e-038
-43.749737 308.29303 -10.010516 2.3509886e-038
-39.394569 303.92715 -9.8687534 2.3509886e-038
-34.066856 301.48984 -9.7896109 2.3509886e-038
-29.005909 300.97983 -9.7730513 2.3509886e-038
-24.011194 301.08768 -9.7765532 2.3509886e-038
-19.017859 301.27383 -9.7825975 2.3509886e-038
-13.990601 300.86404 -9.7692919 2.3509886e-038
-8.9541044 299.68906 -9.7311392 2.3509886e-038
-3.9554346 298.42072 -9.6899548 2.3509886e-038
1.0021067 297.46103 -9.6587934 2.3509886e-038
5.9214501 296.18665 -9.6174135 2.3509886e-038
10.765512 294.01337 -9.5468454 2.3509886e-038
15.521948 291.55182 -9.4669161 2.3509886e-038
20.213913 289.33856 -9.39505 2.3509886e-038
24.886061 287.74698 -9.3433695 2.3509528e-038
29.616234 287.23132 -9.3266268 2.3509528e-038
34.442345 287.66016 -9.3405504 2.3509528e-038
39.328102 288.42184 -9.365284 2.3509886e-038
44.42807 290.4184 -9.4301128 2.3509886e-038
45.060349 290.94095 -9.4470806 2.3509886e-038
-43.207478 306.7074 -15.057556 2.3509886e-038
-39.332016 303.44458 -14.897371 2.3509886e-038
-34.065594 301.47867 -14.800856 2.3509886e-038
-29.027452 301.20337 -14.78734 2.3509886e-038
-24.023462 301.24149 -14.789212 2.3509886e-038
-19.021471 301.33105 -14.793609 2.3509886e-038
-13.99873 301.03885 -14.779264 2.3509886e-038
-8.9623451 299.96487 -14.726539 2.3509886e-038
-3.9563253 298.48792 -14.654027 2.3509886e-038
1.0015441 297.29398 -14.595412 2.3509886e-038
5.9220629 296.21729 -14.542554 2.3509886e-038
10.780091 294.41156 -14.453903 2.3509886e-038
15.566051 292.38025 -14.354177 2.3509886e-038
20.290192 290.43039 -14.25845 2.3509886e-038
24.987095 288.91519 -14.184062 2.3509886e-038
29.744623 288.4765 -14.162524 2.3509886e-038
34.620686 289.14963 -14.195573 2.3509886e-038
39.552341 290.06638 -14.240578 2.3509886e-038
43.320591 291.43668 -14.307853 2.3509886e-038
-43.019714 305.82184 -20.097887 2.3509886e-038
-39.213718 302.53189 -19.88168 2.3509886e-038
-33.968731 300.62146 -19.756128 2.3509886e-038
-28.968904 300.59586 -19.754448 2.3509886e-038
-23.990431 300.8273 -19.769657 2.3509886e-038
-18.999313 300.98007 -19.779697 2.3509886e-038
-13.987395 300.7951 -19.767542 2.3509886e-038
-8.9617281 299.94421 -19.711622 2.3509886e-038
-3.958282 298.63553 -19.625622 2.3509886e-038
1.0020912 297.45642 -19.548132 2.3509886e-038
5.9259577 296.41211 -19.479502 2.3509886e-038
10.79359 294.78021 -19.372259 2.3509886e-038
15.599192 293.00272 -19.255444 2.3509886e-038
20.349516 291.27954 -19.1422 2.3509886e-038
25.073174 289.91049 -19.052229 2.3509886e-038
29.87377 289.72903 -19.040306 2.3509886e-038
34.817829 290.79617 -19.110434 2.3509886e-038
39.826355 292.0759 -19.194536 2.3509886e-038
42.259109 293.38272 -19.280418 2.3509886e-038
-42.996437 304.23431 -25.050955 2.3509886e-038
-38.98558 300.77182 -24.76585 2.3509886e-038
-33.798264 299.11279 -24.629242 2.3509886e-038
-28.851982 299.3826 -24.651459 2.3509886e-038
-23.926813 300.02957 -24.704731 2.3509886e-038
-18.968784 300.49643 -24.743172 2.3509886e-038
-13.975959 300.54919 -24.747515 2.3509886e-038
-8.9650154 300.05426 -24.706762 2.3509886e-038
-3.9652972 299.16479 -24.633526 2.3509886e-038
1.0044626 298.16031 -24.550814 2.3509886e-038
5.9372482 296.97687 -24.453367 2.3509886e-038
10.81276 295.3038 -24.315605 2.3509886e-038
15.637435 293.72104 -24.185282 2.3509886e-038
20.434153 292.49103 -24.083998 2.3509886e-038
25.212109 291.51694 -24.00379 2.3509886e-038
30.049412 291.43246 -23.996838 2.3509886e-038
35.018318 292.47064 -24.082319 2.3509886e-038
40.068039 293.84833 -24.195763 2.3509886e-038
41.625473 294.79239 -24.273497 2.3509886e-038
-43.439255 301.69867 -29.857433 2.3509886e-038
-38.644535 298.14069 -29.505316 2.3509886e-038
-33.591091 297.27936 -29.420076 2.3509886e-038
-28.721872 298.03253 -29.494612 2.3509886e-038
-23.850815 299.0766 -29.597939 2.3509886e-038
-18.932667 299.92426 -29.681826 2.3509886e-038
-13.966922 300.35483 -29.72444 2.3509886e-038
-8.9702988 300.23111 -29.712193 2.3509886e-038
-3.9721327 299.68051 -29.657703 2.3509886e-038
1.0065948 298.79321 -29.569895 2.3509886e-038
5.9459505 297.41214 -29.433214 2.3509886e-038
10.829252 295.75418 -29.269138 2.3509886e-038
15.678531 294.49292 -29.14432 2.3509886e-038
20.525591 293.79987 -29.075731 2.3509886e-038
25.353209 293.14841 -29.011257 2.3509886e-038
30.204451 292.93613 -28.99025 2.3509886e-038
35.142178 293.50507 -29.046556 2.3509886e-038
40.155987 294.49332 -29.144356 2.3509886e-038
41.351913 295.16156 -29.210487 2.3509886e-038
-45.038685 297.96017 -34.440571 2.3509886e-038
-43.441902 297.05511 -34.33596 2.3509886e-038
-38.245712 295.06378 -34.105785 2.3509886e-038
-33.353588 295.17749 -34.118927 2.3509886e-038
-28.585615 296.61865 -34.285507 2.3509886e-038
-23.770193 298.06564 -34.452763 2.3509886e-038
-18.891373 299.27005 -34.59198 2.3509886e-038
-13.954661 300.09119 -34.68689 2.3509886e-038
-8.9719849 300.28751 -34.709583 2.3509886e-038
-3.9757016 299.94977 -34.670547 2.3509886e-038
1.0076584 299.10892 -34.573353 2.3509886e-038
5.9504304 297.63623 -34.40313 2.3509886e-038
10.844887 296.18118 -34.23494 2.3509886e-038
15.718382 295.24149 -34.126324 2.3509886e-038
20.578859 294.56235 -34.047825 2.3509886e-038
25.398851 293.67618 -33.945393 2.3509886e-038
30.245657 293.33572 -33.906044 2.3509886e-038
35.175312 293.78186 -33.957607 2.3509886e-038
40.158638 294.51276 -34.042091 2.3509886e-038
41.368103 295.15433 -34.116249 2.3509886e-038
-76.039124 245.95781 -32.518391 3.5733111e-043
-72.683121 245.67345 -32.480797 3.5733111e-043
-69.267738 248.06769 -32.79734 3.5733111e-043
-66.22274 252.17548 -33.340435 3.5733111e-043
-63.355156 257.55975 -34.052296 3.5733111e-043
-61.097397 266.38336 -35.218876 2.3509886e-038
-59.18782 278.2226 -36.784157 2.3509886e-038
-59.166874 278.34903 -36.800877 2.3509886e-038
-49.337147 291.69907 -38.565895 2.3509886e-038
-47.451515 291.35443 -38.520332 2.3509886e-038
-42.586132 291.20337 -38.500366 2.3509886e-038
-37.790039 291.54828 -38.545963 2.3509886e-038
-33.102654 292.9567 -38.732174 2.3509886e-038
-28.447901 295.18964 -39.027393 2.3509886e-038
-23.687979 297.0347 -39.271332 2.3509886e-038
-18.836426 298.39963 -39.45179 2.3509886e-038
-13.927542 299.50797 -39.598324 2.3509886e-038
-8.9712124 300.26169 -39.697971 2.3509886e-038
-3.9816861 300.40131 -39.716434 2.3509886e-038
1.0094974 299.65485 -39.617744 2.3509886e-038
5.9604998 298.13989 -39.41745 2.3509886e-038
10.866283 296.76553 -39.235744 2.3509886e-038
15.753089 295.89337 -39.120434 2.3509886e-038
20.597149 294.82413 -38.979069 2.3509886e-038
25.378035 293.43549 -38.795471 2.3509886e-038
30.215981 293.04794 -38.744232 2.3509886e-038
35.203503 294.01727 -38.872395 2.3509886e-038
40.291348 295.48599 -39.066574 2.3509886e-038
41.537395 296.27228 -39.170528 2.3509886e-038
-78.455933 246.25861 -36.651825 3.5733111e-043
-76.512238 244.858 -36.443363 3.5733111e-043
-72.220215 244.1088 -36.33186 3.5733111e-043
-68.764519 246.26553 -36.652855 3.5733111e-043
-65.631905 249.92557 -37.197594 3.5733111e-043
-62.625237 254.59239 -37.892178 3.5733111e-043
-59.99427 261.57373 -38.931248 3.5733111e-043
-57.556442 270.55402 -40.267822 3.5733111e-043
-54.691036 278.87643 -41.506489 2.3509886e-038
-50.951683 283.87128 -42.249893 2.3509886e-038
-46.587341 286.04834 -42.573917 2.3509886e-038
-42.035625 287.43903 -42.780899 2.3509886e-038
-37.436337 288.81949 -42.986359 2.3509886e-038
-32.855625 290.77054 -43.276741 2.3509886e-038
-28.274267 293.38794 -43.666302 2.3509886e-038
-23.573181 295.59518 -43.994823 2.3509886e-038
-18.756226 297.12912 -44.223122 2.3509886e-038
-13.886091 298.61658 -44.444508 2.3509886e-038
-8.9679222 300.15152 -44.672958 2.3509886e-038
-3.989315 300.97684 -44.795795 2.3509886e-038
1.0124967 300.54514 -44.731541 2.3509886e-038
5.9819698 299.21381 -44.533394 2.3509886e-038
10.900587 297.70239 -44.308445 2.3509886e-038
15.776605 296.33508 -44.104939 2.3509886e-038
20.592793 294.76178 -43.870777 2.3509886e-038
25.364996 293.28473 -43.65094 2.3509886e-038
30.245884 293.33795 -43.658859 2.3509886e-038
35.326042 295.04074 -43.912296 2.3509886e-038
40.518082 297.14883 -44.226055 2.3509886e-038
41.339912 297.66794 -44.303318 2.3509886e-038
-76.344284 245.07335 -40.549374 3.5733111e-043
-72.397903 244.70938 -40.489151 3.5733111e-043
-68.870766 246.64604 -40.809589 3.5733111e-043
-65.565636 249.67323 -41.310463 3.5733111e-043
-62.365433 253.53619 -41.949619 3.5733111e-043
-59.363346 258.82291 -42.824348 3.5733111e-043
-56.475555 265.47308 -43.924679 3.5733111e-043
-53.359325 272.08588 -45.018814 3.5733111e-043
-49.820011 277.56628 -45.925594 3.5733111e-043
-45.852154 281.53427 -46.582134 3.5733111e-043
-41.550423 284.12122 -47.010162 2.3509886e-038
-37.070385 285.99619 -47.320393 2.3509886e-038
-32.545734 288.02802 -47.65657 2.3509886e-038
-28.020815 290.758 -48.108269 2.3509886e-038
-23.391409 293.31589 -48.531494 2.3509886e-038
-18.633904 295.19135 -48.841805 2.3509886e-038
-13.826738 297.34021 -49.19735 2.3509886e-038
-8.959259 299.86157 -49.614529 2.3509886e-038
-3.9962153 301.49747 -49.885201 2.3509886e-038
1.0159447 301.56866 -49.89698 2.3509886e-038
6.0083785 300.53476 -49.725914 2.3509886e-038
10.941695 298.82507 -49.443035 2.3509886e-038
15.80638 296.89438 -49.123581 2.3509886e-038
20.605318 294.94107 -48.800392 2.3509886e-038
25.389559 293.56873 -48.573326 2.3509886e-038
30.330812 294.16162 -48.671425 2.3509886e-038
35.525608 296.70749 -49.092663 2.3509886e-038
40.883354 299.82764 -49.608917 2.3509886e-038
40.948864 299.87393 -49.616573 2.3509886e-038
-70.443558 250.77019 -45.660618 3.5733111e-043
-70.055786 250.88992 -45.682423 3.5733111e-043
-66.326309 252.56989 -45.988316 3.5733111e-043
-62.824814 255.40373 -46.504303 3.5733111e-043
-59.507603 259.45187 -47.241394 3.5733111e-043
-56.265079 264.48373 -48.157604 3.5733111e-043
-52.866756 269.57419 -49.084484 3.5733111e-043
-49.190502 274.05905 -49.901093 3.5733111e-043
-45.233864 277.73795 -50.57095 3.5733111e-043
-41.030327 280.56479 -51.085667 3.5733111e-043
-36.649033 282.74551 -51.482738 2.3509886e-038
-32.18861 284.86746 -51.869106 2.3509886e-038
-27.703823 287.46872 -52.342747 2.3509886e-038
-23.141844 290.18646 -52.837597 2.3509886e-038
-18.467636 292.5574 -53.269306 2.3509886e-038
-13.740029 295.47559 -53.800648 2.3509886e-038
-8.933897 299.01276 -54.444702 2.3509886e-038
-3.9981697 301.6449 -54.923965 2.3509886e-038
1.0185417 302.33954 -55.050446 2.3509886e-038
6.0265622 301.44431 -54.88744 2.3509886e-038
10.966128 299.4924 -54.532032 2.3509886e-038
15.837336 297.47583 -54.164852 2.3509886e-038
20.653938 295.63702 -53.830044 2.3509886e-038
25.460018 294.38339 -53.601784 2.3509886e-038
30.442005 295.24002 -53.757755 2.3509886e-038
35.767738 298.72974 -54.393173 2.3509886e-038
40.658012 303.11261 -55.191208 2.3509886e-038
-60.494495 264.97864 -52.652554 3.5733111e-043
-57.021706 268.04037 -53.260933 3.5733111e-043
-53.221214 271.38162 -53.92485 3.5733111e-043
-49.172005 273.95599 -54.436398 3.5733111e-043
-44.953983 276.01944 -54.846413 3.5733111e-043
-40.653442 277.98767 -55.237507 3.5733111e-043
-36.283257 279.92355 -55.622181 2.3509886e-038
-31.851553 281.88452 -56.011829 2.3509886e-038
-27.378021 284.08804 -56.44968 2.3509886e-038
-22.87735 286.86984 -57.002441 2.3509886e-038
-18.294025 289.80713 -57.586094 2.3509886e-038
-13.641397 293.35452 -58.290974 2.3509886e-038
-8.8933706 297.65637 -59.145771 2.3509886e-038
-3.9923913 301.20895 -59.851688 2.3509886e-038
1.0191904 302.53207 -60.114601 2.3509886e-038
6.0335736 301.79501 -59.96814 2.3509886e-038
10.978545 299.83148 -59.57798 2.3509886e-038
15.875712 298.19666 -59.253132 2.3509886e-038
20.732201 296.75723 -58.96711 2.3509886e-038
25.579859 295.76907 -58.770756 2.3509886e-038
30.615402 296.92169 -58.99979 2.3509886e-038
36.051849 301.10263 -59.830566 2.3509886e-038
40.604588 306.25089 -60.853546 2.3509886e-038
-52.373161 277.95374 -59.851307 3.5733111e-043
-49.87603 277.87842 -59.835087 3.5733111e-043
-45.250412 277.83954 -59.826717 3.5733111e-043
-40.657471 278.01523 -59.864548 3.5733111e-043
-36.136303 278.78983 -60.031338 2.3509886e-038
-31.65324 280.12949 -60.319809 2.3509886e-038
-27.172235 281.9527 -60.712402 2.3509886e-038
-22.713345 284.81332 -61.328369 2.3509886e-038
-18.186394 288.10208 -62.036537 2.3509886e-038
-13.57218 291.866 -62.847012 2.3509886e-038
-8.8531675 296.31076 -63.804089 2.3509886e-038
-3.9789467 300.19458 -64.640396 2.3509886e-038
1.0175203 302.03635 -65.036972 2.3509886e-038
6.0348659 301.85965 -64.998924 2.3509886e-038
10.998347 300.37228 -64.678658 2.3509886e-038
15.92806 299.1799 -64.421906 2.3509886e-038
20.82424 298.07471 -64.183922 2.3509886e-038
25.728394 297.48651 -64.057266 2.3509886e-038
30.867094 299.36273 -64.461266 2.3509886e-038
36.454689 304.4671 -65.560387 2.3509886e-038
40.655346 309.52045 -66.648514 2.3509886e-038
-44.625175 282.84485 -65.606346 3.5733111e-043
-41.15456 281.41431 -65.274536 3.5733111e-043
-36.31744 280.18729 -64.989922 2.3509886e-038
-31.695656 280.50485 -65.063591 2.3509886e-038
-27.175304 281.98453 -65.406799 2.3509886e-038
-22.704342 284.70041 -66.036751 2.3509886e-038
-18.167242 287.79868 -66.755402 2.3509886e-038
-13.542751 291.23315 -67.552032 2.3509886e-038
-8.8229094 295.29803 -68.494896 2.3509886e-038
-3.9647608 299.12433 -69.382408 2.3509886e-038
1.015628 301.47461 -69.927559 2.3509886e-038
6.0396428 302.09857 -70.072289 2.3509886e-038
11.032967 301.31778 -69.891174 2.3509886e-038
15.995834 300.45291 -69.690567 2.3509886e-038
20.935452 299.66656 -69.508171 2.3509886e-038
25.913015 299.62122 -69.497658 2.3509886e-038
31.223711 302.82135 -70.239929 2.3509886e-038
37.179375 310.51959 -72.025558 2.3509886e-038
40.776295 316.16895 -73.33593 2.3509886e-038
-37.903908 284.5314 -70.727448 2.3509886e-038
-36.810909 283.99435 -70.593941 2.3509886e-038
-32.035477 283.51227 -70.474113 2.3509886e-038
-27.417227 284.49487 -70.718361 2.3509886e-038
-22.840185 286.40384 -71.192886 2.3509886e-038
-18.224829 288.71091 -71.766373 2.3509886e-038
-13.554318 291.4819 -72.45517 2.3509886e-038
-8.8170919 295.1033 -73.355354 2.3509886e-038
-3.9632642 299.01144 -74.32682 2.3509886e-038
1.017089 301.90829 -75.046906 2.3509886e-038
6.0595493 303.09427 -75.341705 2.3509886e-038
11.088793 302.84244 -75.279106 2.3509886e-038
16.093233 302.28238 -75.139893 2.3509886e-038
21.095741 301.96091 -75.05999 2.3509886e-038
26.182402 302.73602 -75.252655 2.3509886e-038
31.70336 307.47321 -76.430199 2.3509886e-038
38.142921 318.56711 -79.187866 2.3509886e-038
40.096165 322.7262 -80.22171 2.3509886e-038
-32.319473 290.091 -76.931725 2.3509886e-038
-27.967426 290.20401 -76.961693 2.3509886e-038
-23.171221 290.55481 -77.054733 2.3509886e-038
-18.415285 291.72809 -77.365875 2.3509886e-038
-13.664822 293.85825 -77.930794 2.3509886e-038
-8.8750257 297.04233 -78.775215 2.3509886e-038
-3.9881957 300.89243 -79.796242 2.3509886e-038
1.0244726 304.10004 -80.646904 2.3509886e-038
6.1092801 305.58179 -81.039856 2.3509886e-038
11.193216 305.69427 -81.069695 2.3509886e-038
16.262676 305.46506 -81.008904 2.3509886e-038
21.359951 305.74274 -81.082542 2.3509886e-038
26.588837 307.43546 -81.531448 2.3509886e-038
32.279217 313.05811 -83.022568 2.3509886e-038
37.73806 322.83951 -85.616585 2.3509886e-038
-26.134481 298.65967 -84.168869 2.3509886e-038
-23.767733 298.03479 -83.99276 2.3509886e-038
-18.836403 298.39926 -84.095474 2.3509886e-038
-13.963831 300.28836 -84.627861 2.3509886e-038
-9.0491619 302.87061 -85.355598 2.3509886e-038
-4.0573001 306.10602 -86.26741 2.3509886e-038
1.0418416 309.25574 -87.155075 2.3509886e-038
6.2157974 310.9097 -87.621193 2.3509886e-038
11.406015 311.50601 -87.789246 2.3509886e-038
16.609154 311.97302 -87.920868 2.3509886e-038
21.881817 313.21268 -88.270218 2.3509886e-038
27.274828 315.36728 -88.877441 2.3509886e-038
33.027668 320.31693 -90.272354 2.3509886e-038
34.346485 322.10709 -90.776863 2.3509886e-038
-16.869572 312.41168 -93.237823 2.3509886e-038
-14.556733 313.03854 -93.424911 2.3509886e-038
-9.3955288 314.46329 -93.850113 2.3509886e-038
-4.2004933 316.90936 -94.580139 2.3509886e-038
1.0769213 319.66867 -95.403641 2.3509886e-038
6.4141874 320.83304 -95.751129 2.3509886e-038
11.794428 322.1138 -96.133377 2.3509886e-038
17.260056 324.19904 -96.755707 2.3509886e-038
22.876076 327.44431 -97.724243 2.3509886e-038
28.538162 329.97467 -98.479424 2.3509886e-038
29.39728 330.27094 -98.567833 2.3509886e-038
-76.885719 246.05324 -33.303928 3.5733111e-043
-76.591713 245.11234 -40.314953 3.5733111e-043
-72.929031 246.50465 -31.088036 3.5733111e-043
-73.029518 246.8443 -43.429054 3.5733111e-043
-69.616173 249.31558 -30.860777 3.5733111e-043
-70.138062 251.18459 -45.888935 3.5733111e-043
-66.63459 253.7438 -31.324587 3.5733111e-043
-66.913506 254.80592 -47.937061 3.5733111e-043
-63.767353 259.23547 -32.301136 2.3509886e-038
-63.720398 259.04459 -50.043369 3.5733111e-043
-61.417648 267.77963 -34.15184 2.3509886e-038
-60.687412 264.59579 -52.482925 3.5733111e-043
-59.192699 278.24551 -36.773594 2.3509886e-038
-57.575645 270.64429 -55.289116 3.5733111e-043
-57.462521 293.00858 66.429146 9.1476764e-041
-57.929558 295.39005 40.855686 9.1476764e-041
-56.171959 286.42783 -38.999889 2.3509886e-038
-54.110901 275.91824 -58.382828 3.5733111e-043
-52.996185 295.26199 62.955193 9.1476764e-041
-53.641369 298.85654 26.390575 9.1476764e-041
-52.146828 290.52988 -39.411789 2.3509886e-038
-50.218338 279.78552 -61.507698 3.5733111e-043
-48.206043 295.98724 53.621967 9.1476764e-041
-49.019485 300.98181 13.820227 9.1476764e-041
-47.73349 293.08575 -37.556175 2.3509886e-038
-45.964142 282.22189 -64.612335 3.5733111e-043
-43.836327 299.75217 44.243332 9.1476764e-041
-45.330891 309.97198 -2.1172895 2.3509886e-038
-43.935669 300.43149 -31.892792 2.3509886e-038
-41.542728 284.06857 -68.007774 2.3509886e-038
-39.041718 301.20493 34.941586 9.1476764e-041
-36.921768 284.84964 -71.57045 2.3509886e-038
-34.338188 303.89111 25.115946 9.1476764e-041
-32.704628 289.4342 -76.406448 2.3509886e-038
-29.839321 309.62775 15.572547 9.1476764e-041
-28.529995 296.0415 -81.750656 2.3509886e-038
-24.463171 306.75522 12.228631 2.3509886e-038
-23.974211 300.6239 -86.034912 2.3509886e-038
-18.69075 296.09189 80.806694 2.3418409e-038
-18.942553 300.08084 65.197662 2.3418409e-038
-19.301874 305.7731 15.128021 2.3509886e-038
-19.396358 307.2699 -90.430214 2.3509886e-038
-13.757083 295.84229 84.108986 2.3418409e-038
-14.712585 316.39014 -95.460121 2.3509886e-038
-8.9391012 299.18692 79.5625 2.3418409e-038
-9.6628189 323.40939 -99.584122 2.3509886e-038
-4.0022149 301.9501 53.409012 2.3418409e-038
-4.3745513 330.04129 -102.91739 2.3509886e-038
1.0041035 298.05377 17.135517 2.3509886e-038
1.1255174 334.09372 -104.75314 2.3509886e-038
5.8189049 291.0574 19.422173 2.3418052e-038
6.6745186 333.85461 -104.79254 2.3509886e-038
10.37424 283.32748 51.287926 2.3418052e-038
12.238816 334.25034 -104.78572 2.3509886e-038
14.922295 280.28842 74.219574 2.3418052e-038
17.899782 336.21515 -104.83112 2.3509886e-038
19.651222 281.2843 73.373779 2.3418052e-038
23.567186 337.33676 -103.81329 2.3509886e-038
24.936319 288.32813 3.9157016 2.3509528e-038
28.700891 331.85626 -99.590576 2.3509886e-038
29.421955 285.34714 4.2407432 2.3509528e-038
33.267597 322.64389 -92.308563 2.3509886e-038
33.748974 281.86914 6.7643833 2.3509528e-038
38.704834 323.26016 -83.901367 2.3509886e-038
37.948101 278.30127 10.57734 2.3509528e-038
40.919453 300.09238 -50.035557 2.3509886e-038
42.3064 276.54941 15.053123 2.3509528e-038
44.48032 290.75992 -10.816846 2.3509886e-038
46.710987 275.41373 20.375042 2.3509528e-038
48.988564 288.84259 -1.2738078 2.3509886e-038
50.875504 273.19168 26.962198 2.3509528e-038
52.309586 280.89243 6.2194939 2.3509528e-038
55.380589 273.01276 33.462326 2.3509528e-038
57.208347 282.02316 13.903486 2.3509528e-038
60.530548 275.79922 37.29221 2.3509528e-038
61.536594 280.38315 22.059111 2.3509528e-038
