# .PCD v0.7 - Point Cloud Data file format
VERSION 0.7
FIELDS x y z rgb
SIZE 4 4 4 4
TYPE F F F F
COUNT 1 1 1 1
WIDTH 748
HEIGHT 1
VIEWPOINT 0 0 0 1 0 0 0
POINTS 748
DATA ascii
18.634962 282.62183 69.215569 2.3418052e-038
-56.545811 292.83423 59.304146 9.1476764e-041
-72.743301 245.16458 -36.948982 3.5733111e-043
61.097912 276.01566 33.798843 2.3509528e-038
-12.584719 296.89728 79.703217 2.3418409e-038
-16.467571 295.09552 83.685051 2.3418409e-038
-13.115277 295.55792 83.81617 2.3418409e-038
-9.7751665 296.80539 84.169937 2.3418409e-038
-19.245939 297.19379 79.335922 2.3418409e-038
-18.090734 296.51697 79.155235 2.3418409e-038
-13.150607 296.3541 79.111763 2.3418409e-038
-8.2768831 298.39047 79.65538 2.3418409e-038
-7.4687486 298.92661 79.798492 2.3418409e-038
-19.567024 298.26184 74.659111 2.3418409e-038
-18.149218 297.47556 74.462288 2.3418409e-038
-13.205607 297.59354 74.491821 2.3418409e-038
-8.3182058 299.88022 75.064201 2.3418409e-038
-6.3932638 301.23141 75.402428 2.3418409e-038
13.144996 282.02576 70.594986 2.3418052e-038
15.608678 281.52942 70.470749 2.3418052e-038
20.35474 282.39651 70.68779 2.3418052e-038
23.610395 284.33292 71.172508 2.3418052e-038
-19.651377 299.16324 69.907799 2.3418409e-038
-18.207911 298.43756 69.738228 2.3418409e-038
-13.270184 299.04877 69.88105 2.3418409e-038
-8.3616152 301.44516 70.441032 2.3418409e-038
-5.5649323 303.43765 70.906631 2.3418409e-038
12.379278 282.48444 66.01033 2.3418052e-038
15.66449 282.5361 66.0224 2.3418052e-038
20.515482 284.62662 66.51091 2.3418052e-038
25.25618 289.33713 67.611656 2.3418052e-038
-61.181541 292.53906 63.493149 9.1476764e-041
-56.813652 292.7027 63.528664 9.1476764e-041
-52.874989 294.44196 63.906155 9.1476764e-041
-19.705456 300.00256 65.113037 2.3418409e-038
-18.249332 299.11649 64.920723 2.3418409e-038
-13.291278 299.52417 65.009201 2.3418409e-038
-8.3622799 301.46912 65.431343 2.3418409e-038
-4.6840134 303.49951 65.872025 2.3418409e-038
12.001824 282.98837 61.420246 2.3418052e-038
15.708949 283.33801 61.496136 2.3418052e-038
20.613159 285.98178 62.069942 2.3418052e-038
25.556217 291.59641 63.288555 2.3418052e-038
-62.016899 292.52609 58.623814 9.1476764e-041
-61.619431 292.40054 58.598652 9.1476764e-041
-56.789963 292.58066 58.63475 9.1476764e-041
-52.178463 294.02277 58.923756 9.1476764e-041
-49.488258 295.12396 59.14444 9.1476764e-041
-19.730398 300.59641 60.24115 2.3418409e-038
-18.268255 299.42664 60.006721 2.3418409e-038
-13.266326 298.96185 59.913574 2.3418409e-038
-8.322937 300.05075 60.131798 2.3418409e-038
-3.8339064 301.38153 60.398495 2.3418409e-038
11.448647 283.64603 56.844196 2.3418052e-038
15.720842 283.55252 56.825462 2.3418052e-038
20.622046 286.10504 57.337002 2.3418052e-038
24.99004 291.05988 58.329979 2.3418052e-038
-61.36853 292.79645 53.80698 9.1476764e-041
-56.864414 292.96423 53.837814 9.1476764e-041
-52.131107 293.75592 53.983299 9.1476764e-041
-47.450314 295.03793 54.218895 9.1476764e-041
-47.096794 295.27698 54.262825 9.1476764e-041
-19.662739 301.08591 55.330334 2.3418409e-038
-18.293352 299.83801 55.101002 2.3418409e-038
-13.252524 298.65082 54.882835 2.3418409e-038
-8.3015251 299.27887 54.998249 2.3418409e-038
-3.3375664 300.61975 55.244663 2.3509886e-038
-3.015039 300.65182 55.250557 2.3509886e-038
10.678545 284.50705 52.283642 2.3509886e-038
11.03392 284.33383 52.251812 2.3509886e-038
15.731868 283.75137 52.144772 2.3418052e-038
20.681992 286.93674 52.730148 2.3418052e-038
24.32576 291.76764 53.617916 2.3418052e-038
-60.125568 293.45822 49.046574 9.1476764e-041
-56.935772 293.33185 49.025455 9.1476764e-041
-52.141689 293.81555 49.106293 9.1476764e-041
-47.462315 295.11255 49.323063 9.1476764e-041
-45.134979 296.74374 49.595692 9.1476764e-041
-19.310389 301.18103 50.337307 2.3418409e-038
-18.320843 300.28857 50.188148 2.3418409e-038
-13.257648 298.76633 49.933727 2.3418409e-038
-8.3052797 299.41418 50.042011 2.3418409e-038
-3.3467562 301.44751 50.381847 2.3418409e-038
-2.1649625 301.63895 50.413845 2.3509886e-038
9.766098 285.3121 47.685085 2.3418052e-038
11.044853 284.61554 47.568668 2.3418052e-038
15.759541 284.25049 47.507656 2.3418052e-038
20.776815 288.25229 48.176491 2.3418052e-038
23.85767 292.86996 48.948254 2.3418052e-038
-58.815224 294.53528 44.326653 9.1476764e-041
-57.091877 294.13611 44.266579 9.1476764e-041
-52.195309 294.11768 44.263805 9.1476764e-041
-47.543579 295.61783 44.489571 9.1476764e-041
-43.262356 300.03369 45.154144 9.1476764e-041
-43.258099 300.04077 45.155212 9.1476764e-041
-18.571474 300.92355 45.288067 2.3418409e-038
-18.348097 300.73526 45.259727 2.3418409e-038
-13.260742 298.83603 44.9739 2.3418409e-038
-8.2992277 299.19604 45.02808 2.3418409e-038
-3.3422101 301.03802 45.305294 2.3509886e-038
-1.3949898 301.05417 45.307724 2.3509886e-038
8.8403711 285.72961 43.001423 2.3509886e-038
11.046065 284.64679 42.838463 2.3418052e-038
15.780417 284.62704 42.835491 2.3418052e-038
20.780659 288.3056 43.389103 2.3418052e-038
23.624603 292.04758 43.952259 2.3418052e-038
-57.46051 295.57956 39.566498 9.1476764e-041
-57.361801 295.52673 39.559429 9.1476764e-041
-52.247589 294.41229 39.410244 9.1476764e-041
-47.503643 295.36951 39.53838 9.1476764e-041
-43.0532 298.58316 39.968563 9.1476764e-041
-40.848419 300.81628 40.26749 9.1476764e-041
-17.502666 300.61273 40.240238 2.3418409e-038
-13.265167 298.93573 40.015759 2.3418409e-038
-8.2859259 298.71646 39.986404 2.3418409e-038
-3.3274026 299.70428 40.118633 2.3418409e-038
-0.86799723 299.17358 40.047596 2.3509886e-038
8.0574923 285.9422 38.276436 2.3509886e-038
11.044422 284.60443 38.097359 2.3418052e-038
15.78645 284.73587 38.114948 2.3418052e-038
20.753853 287.93372 38.543018 2.3418052e-038
23.649343 291.15973 38.974854 2.3418052e-038
57.629944 273.30814 36.585228 2.3509528e-038
61.227951 276.04507 36.951599 2.3509528e-038
67.331459 282.73889 37.847637 2.3509528e-038
-55.982033 296.70996 34.781693 9.1476764e-041
-52.391045 295.22064 34.607109 9.1476764e-041
-47.469616 295.15793 34.599758 9.1476764e-041
-42.84359 297.12949 34.830872 9.1476764e-041
-38.403591 300.07523 35.176186 9.1476764e-041
-16.294312 299.76715 35.140068 2.3418409e-038
-13.257381 298.76028 35.022041 2.3418409e-038
-8.2770939 298.39807 34.979584 2.3418409e-038
-3.3219397 299.21225 35.07502 2.3418409e-038
-0.64570457 298.51556 34.993355 2.3418409e-038
7.5142822 286.39981 33.57309 2.3509886e-038
11.050322 284.75644 33.380447 2.3418052e-038
15.790509 284.80908 33.38662 2.3418052e-038
20.742464 287.77573 33.734383 2.3418052e-038
23.618864 290.84445 34.094109 2.3418052e-038
53.570789 272.66586 31.963133 2.3509528e-038
55.988838 272.8927 31.989727 2.3509528e-038
61.217453 275.99777 32.353714 2.3509528e-038
67.371689 282.55157 33.121983 2.3509528e-038
67.393867 282.58142 33.125481 2.3509528e-038
-54.184563 297.81375 29.95661 9.1476764e-041
-52.699989 296.96155 29.870888 9.1476764e-041
-47.5802 295.84555 29.758631 9.1476764e-041
-42.804062 296.85532 29.860205 9.1476764e-041
-38.169483 299.23822 30.099894 9.1476764e-041
-36.311207 300.84909 30.261929 9.1476764e-041
-15.238943 298.98026 30.073948 2.3418409e-038
-13.24991 298.59192 30.034883 2.3418409e-038
-8.2825184 298.5936 30.035055 2.3418409e-038
-3.3296642 299.90802 30.167269 2.3418409e-038
-0.58805865 299.36612 30.112761 2.3509886e-038
7.1735306 287.15302 28.884262 2.3509886e-038
11.072457 285.3269 28.700577 2.3418052e-038
15.8283 285.49069 28.717052 2.3418052e-038
20.801868 288.59988 29.029802 2.3418052e-038
23.539661 291.99496 29.371305 2.3418052e-038
50.780029 273.75085 27.53616 2.3509528e-038
51.587742 273.62885 27.523886 2.3509528e-038
56.280022 274.31195 27.592602 2.3509528e-038
61.565945 277.56891 27.920212 2.3509528e-038
65.856163 282.0484 28.3708 2.3509528e-038
-52.239311 299.13 25.112617 9.1476764e-041
-47.818432 297.32684 24.961239 9.1476764e-041
-42.87093 297.31909 24.960588 9.1476764e-041
-38.141895 299.02191 25.103542 9.1476764e-041
-34.299873 302.65717 25.40873 9.1476764e-041
-14.624615 298.82748 25.087223 2.3418409e-038
-13.250211 298.59866 25.068012 2.3418409e-038
-8.2892437 298.83612 25.087946 2.3418409e-038
-3.3376241 300.62497 25.238125 2.3509886e-038
-0.43252257 300.16351 25.199383 2.3509886e-038
6.6461992 288.43478 24.214729 2.3509886e-038
11.111104 286.32278 24.037422 2.3418052e-038
15.901774 286.81595 24.078825 2.3418052e-038
20.901577 289.98322 24.344725 2.3418052e-038
23.275648 292.96149 24.594757 2.3418052e-038
47.825256 275.00873 23.087585 2.3509528e-038
51.693691 274.19083 23.018919 2.3509528e-038
56.463936 275.20834 23.104343 2.3509528e-038
61.778072 278.5253 23.382807 2.3509528e-038
63.131584 279.81952 23.491461 2.3509528e-038
-50.200012 299.58408 20.166817 9.1476764e-041
-48.023952 298.60474 20.100889 9.1476764e-041
-42.954399 297.89798 20.053314 9.1476764e-041
-38.178001 299.30496 20.148027 9.1476764e-041
-33.735909 304.14804 20.474045 9.1476764e-041
-32.167282 306.66687 20.643602 9.1476764e-041
-14.70335 299.44128 20.157204 2.3418409e-038
-13.268725 299.0159 20.128569 2.3418409e-038
-8.2964821 299.09705 20.134029 2.3509886e-038
-3.3380573 300.66397 20.239511 2.3509886e-038
0.32509425 299.56339 20.165422 2.3509886e-038
5.2455258 291.6954 19.635784 2.3509886e-038
6.4328775 290.16037 19.532448 2.3509886e-038
11.168825 287.81021 19.374247 2.3509886e-038
15.990734 288.42047 19.415327 2.3418052e-038
21.00564 291.42697 19.61771 2.3418052e-038
22.716568 293.17719 19.735531 2.3418052e-038
44.628113 276.73807 18.628914 2.3509528e-038
47.373486 275.59454 18.551935 2.3509528e-038
51.97139 275.66376 18.556595 2.3509528e-038
56.849449 277.0874 18.652428 2.3509528e-038
60.152912 278.91187 18.775244 2.3509528e-038
-48.298111 300.09045 15.208543 9.1476764e-041
-48.25964 300.07016 15.207515 9.1476764e-041
-43.069546 298.69653 15.137898 9.1476764e-041
-38.2234 299.66089 15.186772 9.1476764e-041
-33.657101 303.43753 15.378173 9.1476764e-041
-29.025761 307.85736 15.602169 2.3509886e-038
-28.638668 308.07788 15.613344 2.3509886e-038
-16.077484 301.19989 15.26477 2.3509886e-038
-13.305701 299.84918 15.196315 2.3509886e-038
-8.3049107 299.40091 15.173596 2.3509886e-038
-3.3292978 299.875 15.197623 2.3509886e-038
1.6461233 297.4639 15.075429 2.3509886e-038
6.4755197 292.0838 14.802767 2.3509886e-038
11.243079 289.72363 14.683154 2.3509886e-038
16.083761 290.09839 14.702147 2.3509886e-038
21.120371 293.01871 14.850147 2.3418052e-038
22.289043 294.05453 14.902644 2.3418052e-038
41.018826 277.58304 14.067869 2.3509528e-038
42.973774 276.78687 14.02752 2.3509528e-038
47.448307 276.02979 13.989152 2.3509528e-038
52.292877 277.36896 14.05702 2.3509528e-038
57.254539 280.28912 14.205013 2.3509528e-038
-46.816429 302.43643 10.29605 9.1476764e-041
-43.349529 300.63828 10.234835 9.1476764e-041
-38.263275 299.97351 10.212203 9.1476764e-041
-33.423206 301.32886 10.258345 9.1476764e-041
-28.573309 303.05847 10.317226 9.1476764e-041
-23.591221 303.82651 10.343373 2.3509886e-038
-18.44803 302.37326 10.2939 2.3509886e-038
-13.33146 300.42966 10.227734 2.3509886e-038
-8.3035679 299.35251 10.191062 2.3509886e-038
-3.3135576 298.45728 10.160585 2.3509886e-038
1.6400027 296.35788 10.089114 2.3509886e-038
6.5036421 293.35226 9.9867926 2.3509886e-038
11.307173 291.37527 9.919488 2.3509886e-038
16.145174 291.20605 9.9137278 2.3509886e-038
21.148928 293.41489 9.988924 2.3509886e-038
22.667717 294.40488 10.022626 2.3509886e-038
37.250042 279.60254 9.5187006 2.3509528e-038
38.640854 278.74716 9.4895811 2.3509528e-038
43.043682 277.23712 9.4381733 2.3509528e-038
47.577827 276.78329 9.4227228 2.3509528e-038
52.440247 278.15063 9.4692726 2.3509528e-038
53.822636 278.92987 9.4958 2.3509528e-038
-45.504227 305.11151 5.3112292 9.1476764e-041
-43.774521 303.58569 5.2846684 9.1476764e-041
-38.352386 300.67209 5.2339501 9.1476764e-041
-33.270779 299.95462 5.2214608 9.1476764e-041
-28.295362 300.1105 5.2241745 2.3509886e-038
-23.361168 300.86374 5.2372866 2.3509886e-038
-18.366077 301.03 5.240181 2.3509886e-038
-13.323883 300.25891 5.226758 2.3509886e-038
-8.2938309 299.00146 5.2048683 2.3509886e-038
-3.3023002 297.44327 5.1777449 2.3509886e-038
1.6362364 295.67728 5.1470032 2.3509886e-038
6.5152006 293.87363 5.1156063 2.3509886e-038
11.33382 292.06195 5.0840693 2.3509886e-038
16.127903 290.89453 5.0637474 2.3509886e-038
20.975901 291.01434 5.0658331 2.3509886e-038
25.670212 290.21277 5.0518799 2.3509886e-038
31.746529 284.99274 4.9610119 2.3509886e-038
34.506493 282.87003 4.9240608 2.3509528e-038
38.95631 281.02283 4.8919053 2.3509528e-038
43.470116 279.9837 4.873817 2.3509528e-038
47.985523 279.15506 4.8593922 2.3509528e-038
50.950706 279.09424 4.8583341 2.3509528e-038
-44.00528 305.34369 0.23551843 2.3509886e-038
-38.444447 301.39383 0.23247182 9.1476764e-041
-33.269978 299.94742 0.23135616 2.3509886e-038
-28.259705 299.7323 0.23119023 2.3509886e-038
-23.316698 300.29102 0.23162118 2.3509886e-038
-18.334274 300.50873 0.23178911 2.3509886e-038
-13.30836 299.90912 0.23132661 2.3509886e-038
-8.2874117 298.77005 0.23044802 2.3509886e-038
-3.303992 297.59567 0.22954221 2.3509886e-038
1.6399857 296.3548 0.22858509 2.3509886e-038
6.53124 294.59708 0.22722934 2.3509886e-038
11.343639 292.31497 0.2254691 2.3509886e-038
16.081467 290.05701 0.22372746 2.3509886e-038
20.789082 288.42245 0.22246671 2.3509886e-038
25.43811 286.74033 0.22116925 2.3509886e-038
30.045141 285.19101 0.2199742 2.3509528e-038
34.669472 284.20605 0.2192145 2.3509528e-038
39.388485 284.14044 0.21916389 2.3509528e-038
44.196358 284.66129 0.21956563 2.3509528e-038
48.904099 284.49884 0.21944034 2.3509528e-038
49.088444 284.47189 0.21941955 2.3509528e-038
-42.680077 304.96399 -4.8381991 2.3509886e-038
-38.550732 302.22708 -4.7947793 2.3509886e-038
-33.347321 300.64468 -4.7696748 2.3509886e-038
-28.316593 300.33566 -4.7647724 2.3509886e-038
-23.336349 300.5441 -4.7680788 2.3509886e-038
-18.337973 300.56934 -4.7684793 2.3509886e-038
-13.313518 300.02533 -4.7598491 2.3509886e-038
-8.2959785 299.07889 -4.7448335 2.3509886e-038
-3.3118896 298.30704 -4.7325883 2.3509886e-038
1.6459956 297.44083 -4.7188463 2.3509886e-038
6.5542078 295.63309 -4.6901665 2.3509886e-038
11.371224 293.02582 -4.6488028 2.3509886e-038
16.094248 290.28754 -4.6053605 2.3509886e-038
20.758101 287.99261 -4.5689521 2.3509886e-038
25.407894 286.39972 -4.5436807 2.3509886e-038
30.107828 285.78604 -4.5339446 2.3509528e-038
34.861065 285.77667 -4.5337968 2.3509528e-038
39.714195 286.49005 -4.545114 2.3509528e-038
44.807411 288.59702 -4.5785408 2.3509528e-038
47.289776 290.21619 -4.6042285 2.3509528e-038
-41.819649 305.45889 -9.9277201 2.3509886e-038
-38.677593 303.22162 -9.8550062 2.3509886e-038
-33.421448 301.31302 -9.7929745 2.3509886e-038
-28.375996 300.96573 -9.7816877 2.3509886e-038
-23.3731 301.0174 -9.7833672 2.3509886e-038
-18.368599 301.07132 -9.7851191 2.3509886e-038
-13.342098 300.6694 -9.7720566 2.3509886e-038
-8.3124838 299.67392 -9.7397022 2.3509886e-038
-3.3157091 298.65103 -9.7064581 2.3509886e-038
1.6476982 297.74847 -9.6771231 2.3509886e-038
6.567863 296.24899 -9.6283894 2.3509886e-038
11.405471 293.90833 -9.5523148 2.3509886e-038
16.158146 291.44003 -9.4720926 2.3509886e-038
20.850246 289.27106 -9.4015989 2.3509886e-038
25.531509 287.79312 -9.3535652 2.3509886e-038
30.265312 287.28088 -9.3369169 2.3509528e-038
35.066425 287.46014 -9.342742 2.3509528e-038
39.939846 288.11786 -9.3641186 2.3509528e-038
44.77253 290.17752 -9.4310608 2.3509528e-038
-41.401997 306.08148 -15.039981 2.3509886e-038
-38.740685 303.71625 -14.92376 2.3509886e-038
-33.425865 301.35281 -14.807628 2.3509886e-038
-28.391693 301.1322 -14.796788 2.3509886e-038
-23.385973 301.1832 -14.799294 2.3509886e-038
-18.379419 301.24869 -14.802513 2.3509886e-038
-13.354754 300.95462 -14.788061 2.3509886e-038
-8.3200798 299.94775 -14.738588 2.3509886e-038
-3.3151047 298.59659 -14.672195 2.3509886e-038
1.6461705 297.47241 -14.616957 2.3509886e-038
6.5681443 296.26169 -14.557465 2.3509886e-038
11.423437 294.37131 -14.464577 2.3509886e-038
16.211313 292.39902 -14.367664 2.3509886e-038
20.937349 290.47952 -14.273345 2.3509886e-038
25.642433 289.04346 -14.202781 2.3509886e-038
30.39575 288.51901 -14.177012 2.3509886e-038
35.23629 288.85263 -14.193404 2.3509528e-038
40.166271 289.75122 -14.237559 2.3509528e-038
43.104721 290.87839 -14.292944 2.3509528e-038
-41.405754 306.40387 -20.153204 2.3509886e-038
-38.703613 303.4256 -19.957314 2.3509886e-038
-33.33493 300.53299 -19.767056 2.3509886e-038
-28.332821 300.50778 -19.765398 2.3509886e-038
-23.356432 300.80273 -19.784798 2.3509886e-038
-18.3638 300.99268 -19.797289 2.3509886e-038
-13.350194 300.85184 -19.788029 2.3509886e-038
-8.3237352 300.07956 -19.737232 2.3509886e-038
-3.3175533 298.81717 -19.6542 2.3509886e-038
1.6470295 297.62766 -19.575962 2.3509886e-038
6.5732598 296.49243 -19.501295 2.3509886e-038
11.441588 294.83905 -19.392546 2.3509886e-038
16.248392 293.06778 -19.276043 2.3509886e-038
20.997393 291.31253 -19.160595 2.3509886e-038
25.724949 289.97357 -19.072529 2.3509886e-038
30.507608 289.58078 -19.046694 2.3509886e-038
35.394966 290.15338 -19.084354 2.3509886e-038
40.399242 291.43185 -19.168444 2.3509528e-038
42.416847 292.54987 -19.24198 2.3509528e-038
-41.820137 306.00992 -25.218138 2.3509886e-038
-38.54707 302.19836 -24.90403 2.3509886e-038
-33.185482 299.18564 -24.655752 2.3509886e-038
-28.220163 299.31293 -24.666243 2.3509886e-038
-23.292339 299.97726 -24.720991 2.3509886e-038
-18.332813 300.48477 -24.762815 2.3509886e-038
-13.33958 300.61267 -24.773352 2.3509886e-038
-8.3280563 300.23529 -24.742254 2.3509886e-038
-3.3242896 299.42389 -24.675388 2.3509886e-038
1.6512488 298.39008 -24.590193 2.3509886e-038
6.5868778 297.10669 -24.484428 2.3509886e-038
11.463908 295.41422 -24.344952 2.3509886e-038
16.286812 293.76074 -24.208689 2.3509886e-038
21.078176 292.43329 -24.099295 2.3509886e-038
25.852859 291.41541 -24.015409 2.3509886e-038
30.669989 291.1221 -23.99124 2.3509886e-038
35.587116 291.72855 -24.041218 2.3509886e-038
40.623425 293.04904 -24.150038 2.3509886e-038
42.317478 294.28113 -24.251575 2.3509886e-038
-42.717712 303.90811 -30.100786 2.3509886e-038
-38.217323 299.61328 -29.675402 2.3509886e-038
-32.996143 297.47864 -29.463976 2.3509886e-038
-28.090099 297.93341 -29.509018 2.3509886e-038
-23.211784 298.93985 -29.608702 2.3509886e-038
-18.293093 299.83371 -29.697235 2.3509886e-038
-13.325018 300.28452 -29.741884 2.3509886e-038
-8.3284979 300.25125 -29.73859 2.3509886e-038
-3.3294494 299.88864 -29.702677 2.3509886e-038
1.6549864 299.06549 -29.621149 2.3509886e-038
6.5975828 297.58954 -29.47496 2.3509886e-038
11.481064 295.85626 -29.303286 2.3509886e-038
16.329817 294.53641 -29.17256 2.3509886e-038
21.173065 293.74979 -29.094648 2.3509886e-038
25.992016 292.98398 -29.018799 2.3509886e-038
30.827232 292.61465 -28.98222 2.3509886e-038
35.728611 292.88846 -29.009338 2.3509886e-038
40.729771 293.81622 -29.101229 2.3509886e-038
42.378223 295.14224 -29.232565 2.3509886e-038
-44.452579 298.73141 -34.557819 2.3509886e-038
-42.956299 297.91113 -34.462925 2.3509886e-038
-37.717747 295.69672 -34.206757 2.3509886e-038
-32.75518 295.30624 -34.161587 2.3509886e-038
-27.956381 296.51514 -34.301434 2.3509886e-038
-23.131804 297.90976 -34.462769 2.3509886e-038
-18.25242 299.16708 -34.608219 2.3509886e-038
-13.310546 299.95837 -34.699757 2.3509886e-038
-8.3270369 300.19858 -34.727543 2.3509886e-038
-3.3315074 300.07404 -34.713135 2.3509886e-038
1.6566529 299.36664 -34.631306 2.3509886e-038
6.6044397 297.89883 -34.461502 2.3509886e-038
11.501621 296.38605 -34.286499 2.3509886e-038
16.379992 295.44141 -34.177223 2.3509886e-038
21.241434 294.6983 -34.091259 2.3509886e-038
26.048885 293.62503 -33.967098 2.3509886e-038
30.871572 293.03555 -33.898911 2.3509886e-038
35.748856 293.05441 -33.901093 2.3509886e-038
40.702671 293.6207 -33.966602 2.3509886e-038
42.336803 294.90289 -34.114925 2.3509886e-038
-77.198174 246.18489 -32.574703 3.5733111e-043
-76.32695 245.77722 -32.520763 3.5733111e-043
-72.184601 245.59499 -32.496651 3.5733111e-043
-68.792992 248.09839 -32.827896 3.5733111e-043
-65.70414 252.08298 -33.355129 3.5733111e-043
-62.853687 257.58786 -34.083523 3.5733111e-043
-60.600365 266.5246 -35.26601 2.3509886e-038
-59.213692 274.60284 -36.334911 2.3509886e-038
-48.716393 291.72794 -38.600868 2.3509886e-038
-46.857269 291.35046 -38.550926 2.3509886e-038
-41.976723 291.11758 -38.520107 2.3509886e-038
-37.197903 291.62128 -38.586758 2.3509886e-038
-32.504269 293.04413 -38.775028 2.3509886e-038
-27.825964 295.1319 -39.051277 2.3509886e-038
-23.048943 296.84262 -39.277637 2.3509886e-038
-18.197439 298.26593 -39.465969 2.3509886e-038
-13.286505 299.4166 -39.618221 2.3509886e-038
-8.326189 300.16797 -39.71764 2.3509886e-038
-3.3348494 300.37503 -39.745041 2.3509886e-038
1.6586763 299.7323 -39.659992 2.3509886e-038
6.6138754 298.32443 -39.473709 2.3509886e-038
11.526744 297.03342 -39.302887 2.3509886e-038
16.426001 296.27127 -39.202034 2.3509886e-038
21.278093 295.20688 -39.061195 2.3509886e-038
26.044868 293.57974 -38.845898 2.3509886e-038
30.854317 292.87177 -38.75222 2.3509886e-038
35.782684 293.33173 -38.81308 2.3509886e-038
40.824352 294.4985 -38.967468 2.3509886e-038
42.476704 295.91385 -39.154743 2.3509886e-038
-79.179405 245.86935 -36.623272 3.5733111e-043
-75.77459 243.99857 -36.344608 3.5733111e-043
-71.696457 243.93417 -36.335018 3.5733111e-043
-68.252045 246.14748 -36.664703 3.5733111e-043
-65.076096 249.67342 -37.189899 3.5733111e-043
-62.049305 254.29132 -37.877762 3.5733111e-043
-59.40889 261.28439 -38.919403 3.5733111e-043
-56.968746 270.33179 -40.267059 3.5733111e-043
-54.144638 278.952 -41.551071 2.3509886e-038
-50.379089 283.88339 -42.285625 2.3509886e-038
-45.973579 285.85587 -42.57943 2.3509886e-038
-41.408382 287.17603 -42.776073 2.3509886e-038
-36.825542 288.70206 -43.003384 2.3509886e-038
-32.255672 290.80286 -43.316307 2.3509886e-038
-27.657898 293.34933 -43.695614 2.3509886e-038
-22.937574 295.40833 -44.002312 2.3509886e-038
-18.117847 296.96136 -44.233643 2.3509886e-038
-13.247858 298.54565 -44.469627 2.3509886e-038
-8.323945 300.0871 -44.699234 2.3509886e-038
-3.3407037 300.90234 -44.820667 2.3509886e-038
1.6629153 300.49832 -44.760483 2.3509886e-038
6.6330652 299.19 -44.565605 2.3509886e-038
11.557223 297.81885 -44.361366 2.3509886e-038
16.448004 296.66815 -44.189964 2.3509886e-038
21.275408 295.16965 -43.966759 2.3509886e-038
26.033436 293.45087 -43.710739 2.3509886e-038
30.879461 293.11047 -43.660034 2.3509886e-038
35.900337 294.2962 -43.836658 2.3509886e-038
41.065449 296.2377 -44.125851 2.3509886e-038
42.659851 297.72409 -44.347252 2.3509886e-038
-75.767204 244.17624 -40.433243 3.5733111e-043
-71.800903 244.28954 -40.452003 3.5733111e-043
-68.289673 246.28322 -40.782139 3.5733111e-043
-64.982147 249.31296 -41.283833 3.5733111e-043
-61.767658 253.13708 -41.917072 3.5733111e-043
-58.7519 258.3949 -42.787716 3.5733111e-043
-55.870037 265.11816 -43.901024 3.5733111e-043
-52.759918 271.81796 -45.010445 3.5733111e-043
-49.209545 277.29309 -45.917076 3.5733111e-043
-45.235191 281.26465 -46.57473 3.5733111e-043
-40.941605 283.93878 -47.01754 2.3509886e-038
-36.467541 285.89545 -47.341541 2.3509886e-038
-31.94952 288.04276 -47.697117 2.3509886e-038
-27.411743 290.73853 -48.143509 2.3509886e-038
-22.762016 293.14737 -48.542389 2.3509886e-038
-17.995256 294.95203 -48.841228 2.3509886e-038
-13.191879 297.28415 -49.227406 2.3509886e-038
-8.3189192 299.90588 -49.661541 2.3509886e-038
-3.3472455 301.49158 -49.924114 2.3509886e-038
1.6683986 301.48917 -49.923714 2.3509886e-038
6.6588693 300.35391 -49.735725 2.3509886e-038
11.592135 298.71851 -49.46492 2.3509886e-038
16.465942 296.99167 -49.178974 2.3509886e-038
21.268766 295.07751 -48.862003 2.3509886e-038
26.03672 293.48792 -48.598782 2.3509886e-038
30.944725 293.72992 -48.638859 2.3509886e-038
36.085529 295.81433 -48.984016 2.3509886e-038
41.408028 298.70901 -49.463348 2.3509886e-038
42.721588 300.02237 -49.680824 2.3509886e-038
-69.622498 250.05869 -45.567329 3.5733111e-043
-69.36042 250.14481 -45.583027 3.5733111e-043
-65.682465 251.99983 -45.921062 3.5733111e-043
-62.21191 254.9577 -46.460064 3.5733111e-043
-58.901756 259.05399 -47.206512 3.5733111e-043
-55.654213 264.09399 -48.124939 3.5733111e-043
-52.243145 269.15552 -49.047283 3.5733111e-043
-48.567093 273.67291 -49.870472 3.5733111e-043
-44.629921 277.50119 -50.568085 3.5733111e-043
-40.439526 280.45679 -51.106674 3.5733111e-043
-36.053082 282.64618 -51.505642 2.3509886e-038
-31.586937 284.77386 -51.893356 2.3509886e-038
-27.090462 287.3309 -52.359322 2.3509886e-038
-22.512499 289.9339 -52.833652 2.3509886e-038
-17.829914 292.242 -53.25425 2.3509886e-038
-13.107346 295.37915 -53.825928 2.3509886e-038
-8.2954845 299.0611 -54.496872 2.3509886e-038
-3.3485599 301.60995 -54.961342 2.3509886e-038
1.6724281 302.21735 -55.072025 2.3509886e-038
6.6792946 301.27524 -54.900345 2.3509886e-038
11.619116 299.41376 -54.561138 2.3509886e-038
16.494215 297.50162 -54.212696 2.3509886e-038
21.306309 295.59833 -53.865864 2.3509886e-038
26.094784 294.1424 -53.600552 2.3509886e-038
31.053621 294.76358 -53.713753 2.3509886e-038
36.311039 297.66293 -54.242092 2.3509886e-038
41.818935 301.67322 -54.97287 2.3509886e-038
42.473141 302.37299 -55.100388 2.3509886e-038
-60.756065 264.17896 -52.535362 3.5733111e-043
-60.162457 264.5986 -52.618813 3.5733111e-043
-56.457294 267.90485 -53.276299 3.5733111e-043
-52.670506 271.3573 -53.962864 3.5733111e-043
-48.635731 274.05969 -54.500271 3.5733111e-043
-44.407108 276.11578 -54.909149 3.5733111e-043
-40.080711 277.96832 -55.277554 3.5733111e-043
-35.686882 279.77527 -55.636887 2.3509886e-038
-31.239199 281.63879 -56.007473 2.3509886e-038
-26.761444 283.84122 -56.445454 2.3509886e-038
-22.250963 286.56564 -56.987236 2.3509886e-038
-17.66221 289.49323 -57.569427 2.3509886e-038
-13.011917 293.22867 -58.312263 2.3509886e-038
-8.2559862 297.63715 -59.188946 2.3509886e-038
-3.3427682 301.08832 -59.875256 2.3509886e-038
1.6734859 302.40845 -60.137787 2.3509886e-038
6.6904511 301.77844 -60.012497 2.3509886e-038
11.642505 300.01645 -59.662106 2.3509886e-038
16.544062 298.40067 -59.340786 2.3509886e-038
21.390049 296.76013 -59.014545 2.3509886e-038
26.215925 295.5079 -58.765522 2.3509886e-038
31.226835 296.40775 -58.944469 2.3509886e-038
36.588463 299.93719 -59.646343 2.3509886e-038
41.946777 304.71967 -60.597397 2.3509886e-038
-51.629986 279.81348 -60.299496 3.5733111e-043
-49.632977 279.67908 -60.270542 3.5733111e-043
-44.837204 278.79007 -60.078953 3.5733111e-043
-40.110863 278.17743 -59.946934 3.5733111e-043
-35.537823 278.60672 -60.03944 2.3509886e-038
-31.033491 279.78424 -60.293198 2.3509886e-038
-26.556501 281.66754 -60.699047 2.3509886e-038
-22.092768 284.52826 -61.315529 2.3509886e-038
-17.563318 287.87234 -62.036175 2.3509886e-038
-12.947411 291.77496 -62.877186 2.3509886e-038
-8.2175531 296.25159 -63.841896 2.3509886e-038
-3.3312302 300.04907 -64.66024 2.3509886e-038
1.6711218 301.98126 -65.076637 2.3509886e-038
6.6948481 301.97678 -65.075668 2.3509886e-038
11.66871 300.69174 -64.798744 2.3509886e-038
16.600847 299.42493 -64.525749 2.3509886e-038
21.483433 298.05569 -64.230682 2.3509886e-038
26.365 297.18829 -64.043755 2.3509886e-038
31.473991 298.75375 -64.381111 2.3509886e-038
37.040344 303.64154 -65.434418 2.3509886e-038
41.723171 309.26657 -66.646606 2.3509886e-038
-43.899529 284.02127 -65.93129 3.5733111e-043
-40.646297 281.89078 -65.436737 3.5733111e-043
-35.72839 280.10071 -65.021194 2.3509886e-038
-31.080774 280.21051 -65.046684 2.3509886e-038
-26.558544 281.68921 -65.389938 2.3509886e-038
-22.085098 284.4295 -66.026054 2.3509886e-038
-17.548882 287.63571 -66.770332 2.3509886e-038
-12.92029 291.16379 -67.589325 2.3509886e-038
-8.1885872 295.20734 -68.527969 2.3509886e-038
-3.3193231 298.97656 -69.402939 2.3509886e-038
1.6682297 301.45865 -69.979126 2.3509886e-038
6.7015953 302.2811 -70.170044 2.3509886e-038
11.704722 301.61978 -70.016525 2.3509886e-038
16.661245 300.51431 -69.759903 2.3509886e-038
21.585213 299.4678 -69.516975 2.3509886e-038
26.552525 299.30206 -69.478508 2.3509886e-038
31.855259 302.3728 -70.19133 2.3509886e-038
37.873222 310.46912 -72.07077 2.3509886e-038
41.939476 317.77283 -73.76622 2.3509886e-038
-37.578491 285.09641 -70.923798 2.3509886e-038
-36.277622 284.40652 -70.752174 2.3509886e-038
-31.466503 283.68808 -70.573441 2.3509886e-038
-26.809786 284.35394 -70.73909 2.3509886e-038
-22.22011 286.16827 -71.190445 2.3509886e-038
-17.60326 288.52698 -71.777222 2.3509886e-038
-12.928125 291.34039 -72.477119 2.3509886e-038
-8.181509 294.95212 -73.375618 2.3509886e-038
-3.3177269 298.83276 -74.341011 2.3509886e-038
1.6704232 301.85504 -75.092857 2.3509886e-038
6.7239652 303.29013 -75.449875 2.3509886e-038
11.763288 303.12897 -75.409775 2.3509886e-038
16.756805 302.23785 -75.188103 2.3509886e-038
21.74437 301.6759 -75.048302 2.3509886e-038
26.83419 302.47702 -75.247604 2.3509886e-038
32.387814 307.42783 -76.47921 2.3509886e-038
38.975239 319.50299 -79.48317 2.3509886e-038
41.483734 325.36179 -80.940674 2.3509886e-038
-31.975664 291.17218 -77.279251 2.3509886e-038
-27.384623 290.45087 -77.087814 2.3509886e-038
-22.551199 290.43231 -77.082886 2.3509886e-038
-17.78503 291.50629 -77.367935 2.3509886e-038
-13.027747 293.58539 -77.919739 2.3509886e-038
-8.2329054 296.80502 -78.774254 2.3509886e-038
-3.3385053 300.70432 -79.809158 2.3509886e-038
1.6823398 304.00842 -80.686096 2.3509886e-038
6.7774935 305.70456 -81.136253 2.3509886e-038
11.869894 305.87607 -81.181778 2.3509886e-038
16.93383 305.43082 -81.063606 2.3509886e-038
22.021639 305.52264 -81.087975 2.3509886e-038
27.252941 307.1972 -81.532417 2.3509886e-038
32.989243 313.13666 -83.108788 2.3509886e-038
39.250103 325.44733 -86.376129 2.3509886e-038
-25.113111 298.80133 -84.275017 2.3509886e-038
-23.152416 298.17523 -84.098427 2.3509886e-038
-18.184366 298.05164 -84.063568 2.3509886e-038
-13.292197 299.54486 -84.484726 2.3509886e-038
-8.3852034 302.29553 -85.260536 2.3509886e-038
-3.3955431 305.84183 -86.260742 2.3509886e-038
1.7100948 309.02393 -87.158226 2.3509886e-038
6.8921118 310.87451 -87.680183 2.3509886e-038
12.091655 311.59064 -87.882164 2.3509886e-038
17.291948 311.89014 -87.966629 2.3509886e-038
22.549469 312.84564 -88.236122 2.3509886e-038
27.940636 314.94897 -88.829353 2.3509886e-038
33.722057 320.09262 -90.280083 2.3509886e-038
35.483902 322.5748 -90.980164 2.3509886e-038
-14.735498 309.51648 -92.446312 2.3509886e-038
-13.746307 309.77841 -92.524551 2.3509886e-038
-8.6669865 312.4541 -93.323723 2.3509886e-038
-3.5091193 316.07181 -94.404259 2.3509886e-038
1.7636299 318.69803 -95.188644 2.3509886e-038
7.0975018 320.13882 -95.618988 2.3509886e-038
12.489577 321.84473 -96.12851 2.3509886e-038
17.953884 323.82925 -96.721245 2.3509886e-038
23.536737 326.54276 -97.531723 2.3509886e-038
29.170727 328.81467 -98.210281 2.3509886e-038
30.112162 329.15109 -98.310776 2.3509886e-038
-76.405251 246.02934 -32.119034 3.5733111e-043
-75.829865 244.17656 -40.378708 3.5733111e-043
-72.473328 246.5773 -30.898893 3.5733111e-043
-72.332443 246.09798 -43.224937 3.5733111e-043
-69.165779 249.44286 -30.866581 3.5733111e-043
-69.415627 250.34392 -45.730206 3.5733111e-043
-66.128387 253.71066 -31.433542 3.5733111e-043
-66.263451 254.22887 -47.943745 3.5733111e-043
-63.264778 259.27261 -32.531738 2.3509886e-038
-63.197628 258.99741 -50.291817 3.5733111e-043
-60.847328 267.61072 -34.533535 2.3509886e-038
-60.293251 265.17386 -52.964706 3.5733111e-043
-61.65023 292.54669 62.269295 9.1476764e-041
-61.672382 292.65179 55.384995 9.1476764e-041
-58.487129 277.53693 -37.099167 2.3509886e-038
-57.159523 271.23709 -55.708672 3.5733111e-043
-56.892677 293.10983 66.091476 9.1476764e-041
-57.382969 295.6358 39.297817 9.1476764e-041
-55.584274 286.36896 -39.223129 2.3509886e-038
-53.731544 276.82376 -58.552284 3.5733111e-043
-52.289799 294.65015 63.236111 9.1476764e-041
-52.999332 298.64832 26.99262 9.1476764e-041
-51.570194 290.59521 -39.516468 2.3509886e-038
-49.961178 281.5285 -61.607826 3.5733111e-043
-47.473995 295.18518 55.111534 9.1476764e-041
-48.266556 300.11316 15.119424 9.1476764e-041
-47.134457 293.07397 -37.619747 2.3509886e-038
-45.616009 283.63251 -64.703018 3.5733111e-043
-43.262447 300.03433 45.164963 9.1476764e-041
-44.028999 305.35056 0.31805468 2.3509886e-038
-43.502293 301.69772 -32.522999 2.3509886e-038
-41.038887 284.61346 -68.140511 2.3509886e-038
-38.278175 300.09027 34.894855 9.1476764e-041
-36.433704 285.63016 -71.992661 2.3509886e-038
-33.691208 303.74503 23.950827 9.1476764e-041
-32.251266 290.76315 -76.944687 2.3509886e-038
-29.056707 308.18558 16.022985 2.3509886e-038
-27.936222 296.30133 -81.761925 2.3509886e-038
-23.717083 305.44748 12.235867 2.3509886e-038
-23.311024 300.21793 -85.690819 2.3509886e-038
-18.037973 295.65219 82.317055 2.3418409e-038
-18.356178 300.86774 44.185219 2.3418409e-038
-18.484402 302.96939 12.623369 2.3509886e-038
-18.606651 304.97311 -89.419312 2.3509886e-038
-13.120742 295.68106 86.043274 2.3418409e-038
-13.789304 310.74734 -93.22316 2.3509886e-038
-8.2624187 297.86902 81.787186 2.3418409e-038
-8.850832 319.08194 -97.950233 2.3509886e-038
-3.3373802 300.603 57.196358 2.3509886e-038
-3.6410143 327.95178 -102.28931 2.3509886e-038
1.6478996 297.78488 17.664331 2.3509886e-038
1.83417 331.44501 -103.98222 2.3509886e-038
6.4069428 288.99057 23.005329 2.3509886e-038
7.356411 331.81711 -104.23658 2.3509886e-038
11.025885 284.12674 54.207088 2.3509886e-038
12.93943 333.43701 -104.60099 2.3509886e-038
15.584786 281.09851 74.352898 2.3418052e-038
18.612366 335.70615 -104.7624 2.3509886e-038
20.299824 281.63464 74.342567 2.3418052e-038
24.23317 336.2049 -103.56417 2.3509886e-038
25.738804 290.12976 5.0041375 2.3509886e-038
29.338287 330.7034 -99.364143 2.3509886e-038
30.154333 286.22748 4.3351588 2.3509886e-038
34.015957 322.88232 -92.751602 2.3509886e-038
34.457218 282.46613 6.7486258 2.3509886e-038
39.755447 325.89883 -85.564926 2.3509886e-038
38.604973 278.48837 11.116088 2.3509528e-038
42.121605 303.8566 -58.747761 2.3509886e-038
43.043072 277.23322 16.584509 2.3509528e-038
45.067894 290.27475 -8.8598156 2.3509528e-038
47.321739 275.29349 22.363146 2.3509528e-038
48.982231 284.9534 -0.10071106 2.3509528e-038
51.57523 273.56247 28.769911 2.3509528e-038
52.48856 278.40689 7.5426617 2.3509528e-038
55.871086 272.31879 34.969955 2.3509528e-038
57.495918 280.23831 14.560041 2.3509528e-038
61.431286 276.96179 38.786846 2.3509528e-038
61.909119 279.11612 21.537678 2.3509528e-038
67.419792 282.75333 37.50745 2.3509528e-038
67.377647 282.5766 33.044922 2.3509528e-038
