# .PCD v0.7 - Point Cloud Data file format
VERSION 0.7
FIELDS x y z rgb
SIZE 4 4 4 4
TYPE F F F F
COUNT 1 1 1 1
WIDTH 850
HEIGHT 1
VIEWPOINT 0 0 0 1 0 0 0
POINTS 850
DATA ascii
-55.0284 324.556 77.956902 2.3418052e-038
-15.330166 325.50082 82.78289 9.1476764e-041
-78.178833 325.47995 61.31673 3.5733111e-043
-102.09771 333.50928 14.136607 2.3509528e-038
47.116467 322.71286 18.238632 2.3418409e-038
-16.904932 328.66879 87.597107 9.1476764e-041
-15.888272 328.10983 87.448135 9.1476764e-041
-13.886917 327.289 87.22937 9.1476764e-041
-60.798546 329.90137 82.94986 2.3418052e-038
-60.749779 329.86316 82.940262 2.3418052e-038
-55.098351 325.86362 81.934624 2.3418052e-038
-49.740604 322.98773 81.211517 2.3418052e-038
-49.674255 322.96243 81.205154 2.3418052e-038
-19.82988 329.05701 82.737556 9.1476764e-041
-15.791675 326.11499 81.997818 9.1476764e-041
-10.944404 324.444 81.577675 9.1476764e-041
-61.231678 328.50253 77.643486 2.3418052e-038
-60.386513 327.89066 77.498863 2.3418052e-038
-54.822578 324.23267 76.63427 2.3418052e-038
-49.468578 321.22131 75.922523 2.3418052e-038
-47.103554 320.35175 75.716995 2.3418052e-038
-20.646933 328.8364 77.722389 9.1476764e-041
-15.743604 325.12225 76.844536 9.1476764e-041
-10.770849 323.04984 76.354706 9.1476764e-041
-10.118684 323.11258 76.369537 9.1476764e-041
-60.939846 327.72147 72.515999 2.3418052e-038
-60.273407 327.27652 72.417549 2.3418052e-038
-54.691414 323.45694 71.57238 2.3418052e-038
-49.303425 320.14893 70.840393 2.3418052e-038
-45.437996 319.42331 70.67984 2.3418052e-038
-21.051245 329.38321 72.883705 9.1476764e-041
-20.90991 329.25769 72.855927 9.1476764e-041
-15.740527 325.05872 71.926811 9.1476764e-041
-10.754232 322.55145 71.372017 9.1476764e-041
-9.8707361 322.61545 71.386177 9.1476764e-041
-83.43692 329.24155 67.886551 3.5733111e-043
-80.158051 327.849 67.599426 3.5733111e-043
-77.692245 327.02063 67.428619 3.5733111e-043
-60.372486 328.57468 67.749054 2.3418052e-038
-54.80547 324.13147 66.832909 2.3418052e-038
-49.326614 320.2995 66.042786 2.3418052e-038
-44.426983 319.80505 65.940842 2.3418052e-038
-44.32373 319.88177 65.956657 2.3418052e-038
-21.606689 330.14392 68.072617 9.1476764e-041
-20.923218 329.46722 67.93309 9.1476764e-041
-15.734274 324.9296 66.997467 9.1476764e-041
-10.749992 322.42429 66.480904 9.1476764e-041
-9.689806 322.54764 66.506332 9.1476764e-041
-85.504318 329.73831 63.015686 3.5733111e-043
-79.694267 325.95212 62.292107 3.5733111e-043
-74.35025 324.08728 61.935722 3.5733111e-043
-73.736946 324.09467 61.93713 3.5733111e-043
-59.208504 328.50494 62.779972 2.3418052e-038
-54.918957 324.80267 62.072437 2.3418052e-038
-49.413029 320.86063 61.31908 2.3418052e-038
-44.488224 320.24588 61.201603 2.3418052e-038
-43.398712 320.85461 61.317932 2.3418052e-038
-22.446722 330.39749 63.141651 9.1476764e-041
-20.872408 328.66718 62.810974 9.1476764e-041
-15.691014 324.03625 61.925968 9.1476764e-041
-10.735541 321.99088 61.535084 9.1476764e-041
-9.2790041 322.38138 61.609707 9.1476764e-041
-85.778221 330.61609 58.196899 3.5733111e-043
-79.623772 325.66382 57.325169 3.5733111e-043
-74.025322 322.67096 56.798355 3.5733111e-043
-71.126099 322.4422 56.758087 3.5733111e-043
-57.690243 327.27148 57.608166 2.3418052e-038
-54.964458 325.07175 57.220955 2.3418052e-038
-49.507694 321.47534 56.587894 2.3418052e-038
-44.620411 321.19742 56.538975 2.3418052e-038
-42.533836 322.4682 56.762661 2.3418052e-038
-23.454079 329.15625 57.93993 9.1476764e-041
-20.720444 326.27426 57.432629 9.1476764e-041
-15.611619 322.39664 56.750065 9.1476764e-041
-10.710957 321.25351 56.548843 9.1476764e-041
-8.6155653 322.14728 56.706173 9.1476764e-041
-85.16893 331.5498 53.360645 3.5733111e-043
-79.890144 326.75327 52.588676 3.5733111e-043
-74.046547 322.76346 51.946548 3.5733111e-043
-69.139374 322.58115 51.917202 2.3418052e-038
-68.920227 322.68744 51.934311 2.3418052e-038
-56.524036 326.44028 52.538303 2.3418052e-038
-54.998898 325.27545 52.35083 2.3418052e-038
-49.572685 321.89734 51.807148 2.3418052e-038
-44.68816 321.68515 51.772995 2.3418052e-038
-41.532902 323.50244 52.065479 2.3418052e-038
-24.586241 328.95624 52.94323 9.1476764e-041
-20.607841 324.50119 52.226219 9.1476764e-041
-15.546082 321.04321 51.669682 9.1476764e-041
-10.68391 320.44229 51.572968 9.1476764e-041
-7.8629608 321.65903 51.768795 9.1476764e-041
-83.918503 332.82169 48.545536 3.5733111e-043
-80.538315 329.40433 48.047077 3.5733111e-043
-74.401787 324.31195 47.304298 3.5733111e-043
-69.403244 323.81229 47.231419 2.3418052e-038
-67.228874 325.47836 47.474438 2.3418052e-038
-56.016277 326.88638 47.67981 2.3418052e-038
-55.150909 326.1745 47.575974 2.3418052e-038
-49.637321 322.31708 47.013329 2.3418052e-038
-44.680088 321.62701 46.912678 2.3418052e-038
-40.485664 323.4957 47.185238 2.3418052e-038
-25.729822 331.61865 48.370064 9.1476764e-041
-20.625237 324.77509 47.371857 9.1476764e-041
-15.534375 320.80145 46.792263 9.1476764e-041
-10.672942 320.11334 46.691887 9.1476764e-041
-7.365818 321.37103 46.875336 9.1476764e-041
-82.183853 333.63513 43.632118 3.5733111e-043
-81.346504 332.70981 43.511112 3.5733111e-043
-74.84642 326.25006 42.666313 3.5733111e-043
-69.552116 324.50684 42.438343 3.5733111e-043
-65.552658 327.99643 42.894703 2.3418052e-038
-55.932804 328.33835 42.939419 2.3418052e-038
-55.448074 327.93198 42.886272 2.3418052e-038
-49.774971 323.21088 42.268856 2.3418052e-038
-44.700569 321.77444 42.081005 2.3418052e-038
-40.135094 324.09756 42.384819 2.3418052e-038
-39.810177 324.4335 42.428749 2.3418052e-038
-26.492565 334.58286 43.756065 2.3509886e-038
-26.266413 334.22595 43.709385 2.3509886e-038
-20.70059 325.96164 42.628597 9.1476764e-041
-15.552982 321.18573 42.004017 9.1476764e-041
-10.675289 320.18372 41.872974 9.1476764e-041
-7.2066398 321.62842 42.061905 9.1476764e-041
-80.281204 333.21118 38.551006 3.5733111e-043
-75.241249 327.97107 37.944748 3.5733111e-043
-69.590225 324.68466 37.564526 3.5733111e-043
-65.081345 326.6329 37.789928 3.5733111e-043
-63.530193 328.18564 37.969574 2.3418052e-038
-55.722813 329.75882 38.151585 2.3418052e-038
-50.018578 324.79276 37.577034 2.3418052e-038
-44.785023 322.38239 37.298164 2.3418052e-038
-40.268543 325.17523 37.621281 2.3418052e-038
-39.513039 326.24203 37.744709 2.3418052e-038
-26.800339 335.66156 38.834503 2.3509886e-038
-26.317266 334.87302 38.743271 2.3509886e-038
-20.712263 326.14548 37.733536 9.1476764e-041
-15.537507 320.86615 37.122742 9.1476764e-041
-10.655183 319.58069 36.974022 9.1476764e-041
-7.150774 321.23074 37.164925 9.1476764e-041
-78.881195 333.70691 33.575199 3.5733111e-043
-75.81105 330.45483 33.248001 3.5733111e-043
-69.813141 325.7247 32.772087 3.5733111e-043
-64.854698 325.49539 32.749016 3.5733111e-043
-61.478409 328.26929 33.028103 3.5733111e-043
-55.420635 331.41513 33.344616 2.3418052e-038
-50.317638 326.73465 32.873703 2.3418052e-038
-44.823742 322.6611 32.463848 2.3418052e-038
-40.113159 323.92047 32.590557 2.3418052e-038
-38.750401 325.63742 32.763306 2.3418052e-038
-26.889166 335.11905 33.717278 2.3509886e-038
-26.259888 334.14291 33.619068 2.3509886e-038
-20.670364 325.48569 32.748039 9.1476764e-041
-15.493357 319.95441 32.191521 9.1476764e-041
-10.619278 318.50378 32.045574 9.1476764e-041
-7.0702791 320.03024 32.19915 9.1476764e-041
-77.654449 334.28729 28.59169 3.5733111e-043
-76.369675 332.88983 28.472164 3.5733111e-043
-70.114555 327.13101 27.979612 3.5733111e-043
-64.803299 325.23746 27.817656 3.5733111e-043
-60.489029 328.44733 28.092196 3.5733111e-043
-59.272388 330.1348 28.236526 3.5733111e-043
-55.544167 332.15427 28.409254 2.3418052e-038
-50.489357 327.8497 28.041084 2.3418052e-038
-44.778645 322.33646 27.569532 2.3418052e-038
-39.789581 321.3075 27.481525 2.3418052e-038
-37.074638 324.09879 27.720264 2.3418052e-038
-27.094971 332.89853 28.47291 2.3509886e-038
-26.066217 331.67856 28.368567 2.3509886e-038
-20.586533 324.16565 27.725983 9.1476764e-041
-15.438128 318.81387 27.268244 9.1476764e-041
-10.581578 317.37308 27.145014 9.1476764e-041
-6.8155694 318.75897 27.263548 9.1476764e-041
-76.031998 334.03952 23.532335 3.5733111e-043
-70.335564 328.16217 23.11829 3.5733111e-043
-64.723747 324.83817 22.884119 3.5733111e-043
-60.186584 326.80508 23.022686 3.5733111e-043
-55.904945 330.634 23.292423 3.5733111e-043
-50.458992 327.65256 23.082386 2.3418052e-038
-44.697689 321.75375 22.666828 2.3418052e-038
-39.525948 319.17865 22.48542 2.3509886e-038
-35.132336 323.04446 22.757757 2.3509886e-038
-33.697388 325.4921 22.930187 2.3509886e-038
-28.715622 329.49646 23.212288 2.3509886e-038
-25.772135 327.93649 23.102392 2.3509886e-038
-20.467678 322.2941 22.704895 2.3509886e-038
-15.384193 317.70007 22.381258 9.1476764e-041
-10.55806 316.66763 22.308527 9.1476764e-041
-6.1271629 318.88342 22.464622 9.1476764e-041
46.06535 329.28918 23.197687 2.3418409e-038
48.516518 328.5925 23.148605 2.3418409e-038
52.393738 328.29605 23.127722 2.3418409e-038
-111.80349 338.44998 18.738344 2.3509528e-038
-107.32143 335.47427 18.573595 2.3509528e-038
-101.27568 332.23984 18.394518 2.3509528e-038
-99.003319 331.4711 18.351957 2.3509528e-038
-73.733429 332.36502 18.401449 3.5733111e-043
-70.480797 328.83975 18.206272 3.5733111e-043
-64.601173 324.22302 17.950666 3.5733111e-043
-59.781986 324.60818 17.971991 3.5733111e-043
-55.428288 327.81497 18.149536 3.5733111e-043
-50.285072 326.52319 18.078016 2.3418052e-038
-44.607807 321.10669 17.77813 2.3509886e-038
-39.362427 317.85815 17.598274 2.3509886e-038
-34.813545 320.11316 17.723124 2.3509886e-038
-30.369919 324.21799 17.950388 2.3509886e-038
-25.463543 324.00986 17.938866 2.3509886e-038
-20.331692 320.1528 17.725317 2.3509886e-038
-15.335729 316.69922 17.534109 2.3509886e-038
-10.548857 316.39163 17.51708 2.3509886e-038
-5.8399439 319.84692 17.708384 2.3509886e-038
-4.8893914 321.08749 17.777067 2.3509886e-038
38.101536 328.01614 18.160673 2.3418409e-038
38.496109 327.66995 18.141506 2.3418409e-038
43.086712 325.0184 17.994703 2.3418409e-038
47.884384 324.31116 17.955547 2.3418409e-038
52.732323 325.16199 18.002653 2.3418409e-038
-110.48739 339.08899 13.659399 2.3509528e-038
-107.90649 337.30307 13.587458 2.3509528e-038
-101.69881 333.62793 13.439414 2.3509528e-038
-96.053421 331.51077 13.35413 2.3509528e-038
-94.173622 331.31796 13.346362 2.3509528e-038
-71.257309 330.58966 13.317024 3.5733111e-043
-70.748116 330.08698 13.296775 3.5733111e-043
-64.759727 325.01877 13.092614 3.5733111e-043
-59.656651 323.92761 13.048659 3.5733111e-043
-55.073566 325.71707 13.120744 2.3509886e-038
-50.00901 324.73056 13.081005 2.3509886e-038
-44.45628 320.01596 12.891088 2.3509886e-038
-39.226944 316.76413 12.760096 2.3509886e-038
-34.551933 317.70761 12.7981 2.3509886e-038
-29.985802 320.11731 12.895169 2.3509886e-038
-25.175772 320.34814 12.904469 2.3509886e-038
-20.197664 318.0423 12.811584 2.3509886e-038
-15.287113 315.69525 12.717038 2.3509886e-038
-10.530217 315.83258 12.72257 2.3509886e-038
-5.8285294 319.22177 12.859096 2.3509886e-038
-3.1636431 322.65417 12.997363 2.3509886e-038
33.610149 329.46494 13.271718 2.3418409e-038
33.723175 329.32199 13.265959 2.3418409e-038
38.183205 325.00656 13.092123 2.3418409e-038
42.852989 323.25537 13.02158 2.3418409e-038
47.795364 323.70825 13.039824 2.3418409e-038
50.331429 324.39294 13.067405 2.3418409e-038
-107.13952 338.14221 8.5212183 2.3509528e-038
-102.10979 334.97617 8.441433 2.3509528e-038
-96.236282 332.14188 8.3700085 2.3509528e-038
-90.798126 330.58139 8.3306837 2.3509528e-038
-89.131783 330.49628 8.3285389 2.3509528e-038
-69.877953 332.45938 8.3780098 3.5733111e-043
-65.383095 328.14734 8.2693462 3.5733111e-043
-59.768967 324.53748 8.1783772 2.3509886e-038
-54.76194 323.87402 8.1616583 2.3509886e-038
-49.62466 322.23483 8.1203508 2.3509886e-038
-44.228886 318.37909 8.0231848 2.3509886e-038
-39.066677 315.46991 7.9498739 2.3509886e-038
-34.294884 315.34402 7.9467015 2.3509886e-038
-29.649622 316.52835 7.9765458 2.3509886e-038
-24.913498 317.01083 7.9887042 2.3509886e-038
-20.063797 315.93439 7.9615788 2.3509886e-038
-15.228407 314.48291 7.9250011 2.3509886e-038
-10.495831 314.80124 7.9330235 2.3509886e-038
-5.8038607 317.8707 8.0103731 2.3509886e-038
-1.0549483 322.80042 8.1346035 2.3509886e-038
30.114759 329.93784 8.3144674 2.3418409e-038
33.441971 326.5759 8.2297459 2.3418409e-038
38.037655 323.76767 8.1589785 2.3418409e-038
42.892235 323.55142 8.1535282 2.3418409e-038
47.757317 325.43597 8.2010193 2.3418409e-038
-102.20571 335.35715 3.3929846 2.3509528e-038
-96.335007 332.4826 3.3639011 2.3509528e-038
-90.796631 330.57593 3.3446102 2.3509528e-038
-85.776833 330.44547 3.3432903 2.3509528e-038
-83.655685 331.47443 3.3537006 2.3509528e-038
-70.019196 337.22064 3.4118383 2.3509886e-038
-66.335281 332.92624 3.3683896 2.3509886e-038
-59.957256 325.55984 3.29386 2.3509886e-038
-54.449562 322.02655 3.2581117 2.3509886e-038
-49.236534 319.71457 3.2347202 2.3509886e-038
-43.991261 316.66855 3.203902 2.3509886e-038
-38.900803 314.13049 3.1782231 2.3509886e-038
-34.077686 313.34686 3.1702948 2.3509886e-038
-29.398287 313.84518 3.1753366 2.3509886e-038
-24.707401 314.38837 3.1808321 2.3509886e-038
-19.940273 313.98932 3.1767948 2.3509886e-038
-15.166685 313.20828 3.1688926 2.3509886e-038
-10.46378 313.83997 3.1752837 2.3509886e-038
-5.7863431 316.91129 3.2063577 2.3509886e-038
-1.0199182 321.13467 3.2490883 2.3509886e-038
1.5390545 323.28052 3.2707989 2.3509886e-038
27.219715 330.69376 3.3458023 2.3418409e-038
28.732912 329.05557 3.3292282 2.3418409e-038
33.293705 325.12802 3.2894909 2.3418409e-038
37.964867 323.1481 3.269459 2.3418409e-038
42.891441 323.54544 3.273479 2.3418409e-038
45.641445 324.995 3.2881448 2.3418409e-038
-97.81546 334.27985 -1.6597044 2.3509528e-038
-96.729401 333.84378 -1.6575394 2.3509528e-038
-91.219772 332.11658 -1.6489639 2.3509528e-038
-86.037292 331.44885 -1.6456486 2.3509528e-038
-81.532326 333.46985 -1.6556828 2.3509528e-038
-78.60585 337.08154 -1.6736151 2.3509528e-038
-72.40181 340.37732 -1.6899786 2.3509886e-038
-66.729866 334.90659 -1.6628163 2.3509886e-038
-59.973011 325.64542 -1.6168344 2.3509886e-038
-54.173859 320.39597 -1.590771 2.3509886e-038
-48.951096 317.86111 -1.5781852 2.3509886e-038
-43.792709 315.23929 -1.5651678 2.3509886e-038
-38.740383 312.83505 -1.5532306 2.3509886e-038
-33.911789 311.82147 -1.5481983 2.3509886e-038
-29.237 312.12335 -1.5496973 2.3509886e-038
-24.570724 312.64923 -1.5523081 2.3509886e-038
-19.853174 312.6178 -1.5521522 2.3509886e-038
-15.131767 312.48718 -1.5515037 2.3509886e-038
-10.455796 313.60049 -1.5570312 2.3509886e-038
-5.7814379 316.64261 -1.5721353 2.3509886e-038
-1.0176584 320.42316 -1.5909058 2.3509886e-038
3.8526139 323.57175 -1.6065387 2.3509886e-038
5.0906219 324.52194 -1.6112562 2.3509886e-038
24.73324 332.78726 -1.6522938 2.3418409e-038
28.684536 328.50156 -1.6310152 2.3418409e-038
33.280655 325.00058 -1.6136329 2.3418409e-038
37.965591 323.1543 -1.604466 2.3418409e-038
42.821991 323.02155 -1.6038069 2.3418409e-038
44.141289 323.48929 -1.6061292 2.3509886e-038
-94.321869 335.73282 -6.7306223 2.3509528e-038
-91.938133 334.73196 -6.7105575 2.3509528e-038
-86.338295 332.60843 -6.6679854 2.3509528e-038
-81.181236 332.03387 -6.6564674 2.3509528e-038
-76.50853 333.49509 -6.685761 2.3509528e-038
-71.869164 335.31744 -6.7222948 2.3509528e-038
-66.106705 331.77902 -6.6513581 2.3509886e-038
-59.710903 324.2222 -6.4998622 2.3509886e-038
-53.963501 319.15189 -6.3982148 2.3509886e-038
-48.783699 316.77414 -6.3505468 2.3509886e-038
-43.645844 314.18207 -6.2985826 2.3509886e-038
-38.60154 311.71387 -6.2491007 2.3509886e-038
-33.794182 310.74005 -6.229578 2.3509886e-038
-29.144484 311.13568 -6.2375097 2.3509886e-038
-24.495619 311.69354 -6.2486935 2.3509886e-038
-19.818466 312.07129 -6.2562666 2.3509886e-038
-15.140013 312.65747 -6.2680178 2.3509886e-038
-10.472794 314.11029 -6.297143 2.3509886e-038
-5.7810082 316.61911 -6.3474388 2.3509886e-038
-1.0145568 319.44653 -6.4041219 2.3509886e-038
3.8324788 321.88065 -6.45292 2.3509886e-038
8.7805271 325.33606 -6.5221925 2.3509886e-038
10.471022 326.98886 -6.5553269 2.3509886e-038
21.512867 335.05652 -6.7170639 2.3418409e-038
24.047186 332.89404 -6.6737118 2.3418409e-038
28.678251 328.42957 -6.5842099 2.3418409e-038
33.333645 325.51801 -6.5258403 2.3418409e-038
38.056355 323.92685 -6.4939408 2.3418409e-038
42.851974 323.24771 -6.4803262 2.3418409e-038
43.261982 323.28223 -6.4810181 2.3509886e-038
-90.511642 335.66733 -11.792038 2.3509528e-038
-86.500618 333.23373 -11.706545 2.3509528e-038
-80.911598 330.93103 -11.625651 2.3509528e-038
-75.779846 330.31882 -11.604143 2.3509528e-038
-70.875328 330.68051 -11.61685 2.3509528e-038
-65.360794 328.0354 -11.523928 2.3509528e-038
-59.394646 322.50497 -11.329642 2.3509886e-038
-53.802048 318.19702 -11.178303 2.3509886e-038
-48.669086 316.02988 -11.102172 2.3509886e-038
-43.560242 313.56586 -11.01561 2.3509886e-038
-38.549049 311.29004 -10.935659 2.3509886e-038
-33.76759 310.49548 -10.907748 2.3509886e-038
-29.122541 310.90143 -10.922009 2.3509886e-038
-24.469519 311.36142 -10.938169 2.3509886e-038
-19.814196 312.00403 -10.960743 2.3509886e-038
-15.160582 313.08224 -10.998621 2.3509886e-038
-10.488003 314.56644 -11.05076 2.3509886e-038
-5.7745128 316.26334 -11.110373 2.3509886e-038
-1.0101136 318.04758 -11.173054 2.3509886e-038
3.8106172 320.04456 -11.243207 2.3509886e-038
8.7174006 322.99713 -11.346931 2.3509886e-038
13.7827 327.60046 -11.508647 2.3418409e-038
18.956093 331.66592 -11.651468 2.3418409e-038
23.894449 330.77966 -11.620334 2.3418409e-038
28.642178 328.01645 -11.523262 2.3418409e-038
33.380337 325.97403 -11.45151 2.3418409e-038
38.157513 324.78784 -11.409841 2.3418409e-038
42.580593 324.27371 -11.391779 2.3509886e-038
-86.683662 335.2095 -16.831753 2.3509528e-038
-81.176498 332.0145 -16.671324 2.3509528e-038
-75.652809 329.76505 -16.558372 2.3509528e-038
-70.428108 328.59396 -16.499569 2.3509528e-038
-64.97332 326.09076 -16.373877 2.3509528e-038
-59.237385 321.65103 -16.150948 2.3509886e-038
-53.692844 317.55118 -15.945081 2.3509886e-038
-48.550308 315.25861 -15.829966 2.3509886e-038
-43.527397 313.32947 -15.733099 2.3509886e-038
-38.613678 311.81189 -15.656898 2.3509886e-038
-33.844536 311.20303 -15.626325 2.3509886e-038
-29.146229 311.1543 -15.623878 2.3509886e-038
-24.451061 311.12659 -15.622486 2.3509886e-038
-19.793833 311.68338 -15.650444 2.3509886e-038
-15.150601 312.87613 -15.710335 2.3509886e-038
-10.476001 314.20648 -15.777135 2.3509886e-038
-5.7569346 315.30063 -15.832076 2.3509886e-038
-1.0048727 316.39743 -15.887149 2.3509886e-038
3.7872038 318.07809 -15.971539 2.3509886e-038
8.6508121 320.52988 -16.09465 2.3509886e-038
13.626582 323.88971 -16.263357 2.3418409e-038
18.697954 327.14938 -16.427032 2.3418409e-038
23.689528 327.94284 -16.466875 2.3418409e-038
28.547825 326.93591 -16.416315 2.3418409e-038
33.352383 325.70099 -16.354305 2.3418409e-038
38.172085 324.9119 -16.314684 2.3418409e-038
41.846096 324.91037 -16.314608 2.3509886e-038
-83.583672 337.08887 -22.010286 2.3509528e-038
-82.141525 335.96149 -21.936678 2.3509528e-038
-75.984726 331.21182 -21.626547 2.3509528e-038
-70.262886 327.82306 -21.405277 2.3509528e-038
-64.714531 324.7919 -21.207357 2.3509528e-038
-59.119904 321.01315 -20.960621 2.3509886e-038
-53.632698 317.19543 -20.711344 2.3509886e-038
-48.471737 314.74841 -20.551563 2.3509886e-038
-43.527 313.32657 -20.458725 2.3509886e-038
-38.708874 312.58063 -20.410019 2.3509886e-038
-33.941814 312.09753 -20.378473 2.3509886e-038
-29.175802 311.47003 -20.337502 2.3509886e-038
-24.435793 310.93228 -20.302389 2.3509886e-038
-19.769909 311.30667 -20.326836 2.3509886e-038
-15.131481 312.48129 -20.403532 2.3509886e-038
-10.458906 313.69376 -20.4827 2.3509886e-038
-5.7419796 314.48154 -20.534138 2.3509886e-038
-1.0011983 315.24048 -20.583693 2.3509886e-038
3.7701557 316.64627 -20.675486 2.3509886e-038
8.5968981 318.53223 -20.79863 2.3509886e-038
13.503107 320.95483 -20.956814 2.3418409e-038
18.50106 323.70441 -21.136349 2.3418409e-038
23.502415 325.35257 -21.243965 2.3418409e-038
28.41572 325.423 -21.248564 2.3418409e-038
33.262177 324.82013 -21.2092 2.3418409e-038
38.136139 324.60596 -21.195213 2.3418409e-038
41.338047 325.2905 -21.239912 2.3509886e-038
-80.389641 337.81323 -27.152679 2.3509528e-038
-76.498985 333.45349 -26.802254 2.3509528e-038
-70.211441 327.58304 -26.3304 2.3509528e-038
-64.463608 323.53259 -26.004831 2.3509528e-038
-58.977749 320.24127 -25.740284 2.3509886e-038
-53.633461 317.19998 -25.495832 2.3509886e-038
-48.504688 314.96237 -25.315977 2.3509886e-038
-43.58511 313.74487 -25.218119 2.3509886e-038
-38.792347 313.25467 -25.178715 2.3509886e-038
-34.013817 312.75958 -25.138922 2.3509886e-038
-29.21089 311.8446 -25.065382 2.3509886e-038
-24.44993 311.11215 -25.006506 2.3509886e-038
-19.770786 311.3205 -25.023252 2.3509886e-038
-15.125964 312.36734 -25.107397 2.3509886e-038
-10.453168 313.52167 -25.200176 2.3509886e-038
-5.7384872 314.29028 -25.261957 2.3509886e-038
-1.0004852 315.0159 -25.320282 2.3509886e-038
3.7653351 316.24142 -25.418785 2.3509886e-038
8.571743 317.60019 -25.528 2.3509886e-038
13.435382 319.34506 -25.668249 2.3509886e-038
18.391167 321.78165 -25.864096 2.3418409e-038
23.38419 323.71594 -26.019571 2.3418409e-038
28.317541 324.29865 -26.066408 2.3418409e-038
33.193485 324.14932 -26.054405 2.3418409e-038
38.134232 324.58969 -26.089802 2.3509886e-038
40.991734 325.83615 -26.189989 2.3509886e-038
-76.915428 336.15091 -32.089066 2.3509528e-038
-70.458313 328.73486 -31.381126 2.3509528e-038
-64.435822 323.39313 -30.871204 2.3509886e-038
-58.934372 320.00574 -30.547842 2.3509886e-038
-53.708069 317.6412 -30.322123 2.3509886e-038
-48.637943 315.82764 -30.149 2.3509886e-038
-43.705845 314.61398 -30.033144 2.3509886e-038
-38.874226 313.91586 -29.966499 2.3509886e-038
-34.072468 313.29889 -29.907604 2.3509886e-038
-29.270807 312.48425 -29.829842 2.3509886e-038
-24.509184 311.86615 -29.770836 2.3509886e-038
-19.807163 311.89331 -29.773428 2.3509886e-038
-15.13765 312.60867 -29.841715 2.3509886e-038
-10.456611 313.62488 -29.938725 2.3509886e-038
-5.7434583 314.56253 -30.028231 2.3509886e-038
-1.0020975 315.52359 -30.119976 2.3509886e-038
3.7722628 316.82324 -30.244041 2.3509886e-038
8.5821524 317.9859 -30.355026 2.3509886e-038
13.434552 319.32535 -30.482893 2.3509886e-038
18.370773 321.42487 -30.683313 2.3509886e-038
23.36216 323.41098 -30.87291 2.3418409e-038
28.314489 324.26373 -30.954311 2.3418409e-038
33.221512 324.423 -30.969517 2.3509886e-038
38.215069 325.27777 -31.051113 2.3509886e-038
40.354542 326.40744 -31.158951 2.3509886e-038
-74.093338 336.29086 -37.174557 2.3509886e-038
-71.300087 332.66232 -36.773445 2.3509528e-038
-64.87339 325.5892 -35.991566 2.3509886e-038
-59.147366 321.16226 -35.502197 2.3509886e-038
-53.861488 318.54855 -35.213272 2.3509886e-038
-48.77853 316.74054 -35.013409 2.3509886e-038
-43.816849 315.41306 -34.866665 2.3509886e-038
-38.942837 314.46991 -34.762405 2.3509886e-038
-34.12899 313.8186 -34.690411 2.3509886e-038
-29.34997 313.32938 -34.63633 2.3509886e-038
-24.593557 312.93976 -34.593258 2.3509886e-038
-19.869432 312.87381 -34.585968 2.3509886e-038
-15.168254 313.24069 -34.626526 2.3509886e-038
-10.46954 314.0127 -34.711868 2.3509886e-038
-5.7529278 315.08115 -34.829975 2.3509886e-038
-1.0047861 316.37012 -34.972462 2.3509886e-038
3.7866147 318.02863 -35.1558 2.3509886e-038
8.6236525 319.52353 -35.321049 2.3509886e-038
13.500925 320.90298 -35.473537 2.3509886e-038
18.439314 322.62405 -35.663792 2.3509886e-038
23.424387 324.27243 -35.846004 2.3509886e-038
28.387419 325.09891 -35.937366 2.3509886e-038
33.327904 325.46198 -35.977501 2.3509886e-038
38.360943 326.51944 -36.094395 2.3509886e-038
38.685703 326.66745 -36.11076 2.3509886e-038
-71.777222 338.26947 -42.495255 2.3509886e-038
-65.896393 330.72351 -41.547291 2.3509886e-038
-59.711403 324.22491 -40.7309 2.3509886e-038
-54.137726 320.18228 -40.223042 2.3509886e-038
-48.920116 317.65994 -39.906174 2.3509886e-038
-43.908997 316.07635 -39.707237 2.3509886e-038
-39.01469 315.05011 -39.578312 2.3509886e-038
-34.200935 314.48016 -39.50671 2.3509886e-038
-29.435337 314.24072 -39.476631 2.3509886e-038
-24.673344 313.95502 -39.440739 2.3509886e-038
-19.93 313.82755 -39.424725 2.3509886e-038
-15.204211 313.98325 -39.444283 2.3509886e-038
-10.490613 314.64474 -39.527386 2.3509886e-038
-5.7685003 315.93402 -39.689354 2.3509886e-038
-1.0086263 317.57928 -39.896038 2.3509886e-038
3.8050997 319.58115 -40.147526 2.3509886e-038
8.6758595 321.45792 -40.383293 2.3509886e-038
13.587598 322.96307 -40.572384 2.3509886e-038
18.533913 324.27924 -40.737724 2.3509886e-038
23.505465 325.39481 -40.877869 2.3509886e-038
28.455114 325.87418 -40.938091 2.3509886e-038
33.408077 326.2449 -40.984661 2.3509886e-038
35.821663 326.8663 -41.062725 2.3509886e-038
-70.036865 342.57623 -48.203201 2.3509886e-038
-67.48735 338.70828 -47.658951 2.3509886e-038
-60.590061 328.99591 -46.292343 2.3509886e-038
-54.53492 322.53137 -45.382732 2.3509886e-038
-49.10202 318.84109 -44.863476 2.3509886e-038
-44.01207 316.81833 -44.578857 2.3509886e-038
-39.085621 315.62289 -44.410652 2.3509886e-038
-34.260281 315.02585 -44.326641 2.3509886e-038
-29.495995 314.88831 -44.307289 2.3509886e-038
-24.732683 314.71005 -44.282207 2.3509886e-038
-19.979923 314.61368 -44.268646 2.3509886e-038
-15.241609 314.75552 -44.288605 2.3509886e-038
-10.519638 315.51529 -44.395512 2.3509886e-038
-5.7908902 317.16031 -44.626976 2.3509886e-038
-1.0141628 319.32254 -44.931217 2.3509886e-038
3.829154 321.60138 -45.251873 2.3509886e-038
8.7284136 323.40515 -45.505676 2.3509886e-038
13.654361 324.54999 -45.666763 2.3509886e-038
18.594471 325.33881 -45.77776 2.3509886e-038
23.54607 325.95691 -45.864731 2.3509886e-038
28.477827 326.13431 -45.88969 2.3509886e-038
32.263863 326.49112 -45.939896 2.3509886e-038
-67.901947 344.8468 -53.723866 2.3509886e-038
-61.539883 334.15329 -52.057919 2.3509886e-038
-55.016846 325.38159 -50.691368 2.3509886e-038
-49.369766 320.57971 -49.943279 2.3509886e-038
-44.177429 318.00867 -49.542736 2.3509886e-038
-39.185196 316.427 -49.296326 2.3509886e-038
-34.319675 315.57199 -49.163124 2.3509886e-038
-29.540659 315.36511 -49.130894 2.3509886e-038
-24.775864 315.25949 -49.114441 2.3509886e-038
-20.019243 315.23282 -49.110287 2.3509886e-038
-15.28126 315.57434 -49.163494 2.3509886e-038
-10.558199 316.67184 -49.334473 2.3509886e-038
-5.8195214 318.72842 -49.654869 2.3509886e-038
-1.0208772 321.43665 -50.076782 2.3509886e-038
3.8564472 323.89371 -50.459568 2.3509886e-038
8.7783089 325.25388 -50.671471 2.3509886e-038
13.698688 325.60358 -50.725952 2.3509886e-038
18.613935 325.67935 -50.737759 2.3509886e-038
23.539078 325.86011 -50.765915 2.3509886e-038
28.506441 326.46198 -50.859684 2.3509886e-038
28.645611 326.51462 -50.867886 2.3509886e-038
-64.828148 342.97604 -58.605381 2.3509886e-038
-62.406719 338.86014 -57.902084 2.3509886e-038
-55.601143 328.83725 -56.189442 2.3509886e-038
-49.748734 323.04053 -55.198936 2.3509886e-038
-44.437267 319.87909 -54.658733 2.3509886e-038
-39.364147 317.87207 -54.315792 2.3509886e-038
-34.432693 316.61121 -54.100338 2.3509886e-038
-29.609116 316.09592 -54.012291 2.3509886e-038
-24.820751 315.83069 -53.966969 2.3509886e-038
-20.054811 315.79288 -53.960514 2.3509886e-038
-15.323226 316.44104 -54.071262 2.3509886e-038
-10.602535 318.00162 -54.337925 2.3509886e-038
-5.8500404 320.3999 -54.747726 2.3509886e-038
-1.0271423 323.40927 -55.261944 2.3509886e-038
3.8802638 325.89401 -55.68652 2.3509886e-038
8.8217716 326.86426 -55.85231 2.3509886e-038
13.737862 326.53473 -55.796001 2.3509886e-038
18.627838 325.92258 -55.691402 2.3509886e-038
23.535608 325.81207 -55.67252 2.3509886e-038
25.312695 326.05347 -55.713768 2.3509886e-038
-61.553185 341.33087 -63.472397 2.3509886e-038
-56.382721 333.45969 -62.008698 2.3509886e-038
-50.232452 326.18149 -60.655281 2.3509886e-038
-44.761665 322.21423 -59.917545 2.3509886e-038
-39.613525 319.88583 -59.484562 2.3509886e-038
-34.60873 318.22986 -59.176628 2.3509886e-038
-29.715483 317.23145 -58.990967 2.3509886e-038
-24.885777 316.65811 -58.884354 2.3509886e-038
-20.103086 316.55307 -58.864819 2.3509886e-038
-15.368443 317.37479 -59.017624 2.3509886e-038
-10.642811 319.20959 -59.358818 2.3509886e-038
-5.8751931 321.7775 -59.83633 2.3509886e-038
-1.0315194 324.78748 -60.396053 2.3509886e-038
3.8956082 327.18274 -60.841469 2.3509886e-038
8.8532314 328.02991 -60.999001 2.3509886e-038
13.780605 327.55069 -60.909885 2.3509886e-038
18.675491 326.75635 -60.762177 2.3509886e-038
22.62014 327.03665 -60.814301 2.3509886e-038
-58.055824 340.32129 -68.41758 2.3509886e-038
-57.346626 339.16043 -68.184196 2.3509886e-038
-50.777542 329.72104 -66.286522 2.3509886e-038
-45.074951 324.46942 -65.230743 2.3509886e-038
-39.831871 321.64899 -64.663727 2.3509886e-038
-34.771694 319.72833 -64.277603 2.3509886e-038
-29.831863 318.47391 -64.025414 2.3509886e-038
-24.978771 317.8414 -63.898258 2.3509886e-038
-20.175541 317.69394 -63.86861 2.3509886e-038
-15.42098 318.45975 -64.022568 2.3509886e-038
-10.678944 320.29333 -64.39119 2.3509886e-038
-5.894392 322.82898 -64.900948 2.3509886e-038
-1.034045 325.58267 -65.454552 2.3509886e-038
3.9025202 327.76324 -65.892929 2.3509886e-038
8.8733959 328.77701 -66.096733 2.3509886e-038
13.834493 328.83151 -66.107689 2.3509886e-038
18.789251 328.7468 -66.09066 2.3509886e-038
20.412632 329.03839 -66.149277 2.3509886e-038
-53.766056 336.43301 -72.710167 2.3509886e-038
-51.253925 332.81439 -71.928101 2.3509886e-038
-45.383812 326.69272 -70.605087 2.3509886e-038
-40.036808 323.30389 -69.872688 2.3509886e-038
-34.92432 321.13174 -69.403236 2.3509886e-038
-29.962587 319.86945 -69.130432 2.3509886e-038
-25.097961 319.35803 -69.019897 2.3509886e-038
-20.269161 319.16815 -68.978867 2.3509886e-038
-15.478994 319.65781 -69.084686 2.3509886e-038
-10.708518 321.18036 -69.41375 2.3509886e-038
-5.9063535 323.4841 -69.911629 2.3509886e-038
-1.0351319 325.92493 -70.439148 2.3509886e-038
3.9045265 327.93176 -70.872864 2.3509886e-038
8.8911524 329.43494 -71.197723 2.3509886e-038
13.916402 330.77841 -71.488083 2.3509886e-038
18.518305 332.72308 -71.908371 2.3509886e-038
-49.402832 332.71747 -76.925369 2.3509886e-038
-45.743484 329.2818 -76.131027 2.3509886e-038
-40.306107 325.47852 -75.251701 2.3509886e-038
-35.106739 322.80911 -74.634514 2.3509886e-038
-30.108215 321.42413 -74.314301 2.3509886e-038
-25.224546 320.96875 -74.209023 2.3509886e-038
-20.365461 320.68454 -74.143311 2.3509886e-038
-15.533447 320.78232 -74.165909 2.3509886e-038
-10.728894 321.7915 -74.399239 2.3509886e-038
-5.9105511 323.71402 -74.843735 2.3509886e-038
-1.0352222 325.95337 -75.361481 2.3509886e-038
3.9066803 328.11264 -75.86071 2.3509886e-038
8.926199 330.73352 -76.466667 2.3509886e-038
14.086573 334.82318 -77.412209 2.3509886e-038
17.308971 338.81018 -78.334015 2.3509886e-038
-45.696938 332.85477 -81.977417 2.3509886e-038
-40.727852 328.88422 -80.999527 2.3509886e-038
-35.369091 325.22141 -80.097427 2.3509886e-038
-30.272726 323.18039 -79.594757 2.3509886e-038
-25.345182 322.50378 -79.428116 2.3509886e-038
-20.456268 322.11441 -79.332214 2.3509886e-038
-15.587082 321.88992 -79.276932 2.3509886e-038
-10.747984 322.36407 -79.393707 2.3509886e-038
-5.9128261 323.83859 -79.756866 2.3509886e-038
-1.0354055 326.01108 -80.291916 2.3509886e-038
3.9136317 328.6965 -80.953293 2.3509886e-038
8.9859362 332.94687 -82.000099 2.3509886e-038
14.33162 340.64774 -83.896713 2.3509886e-038
17.051313 346.33469 -85.297333 2.3509886e-038
-42.414101 335.16812 -87.602364 2.3509886e-038
-41.366371 334.04037 -87.307602 2.3509886e-038
-35.75684 328.78683 -85.934486 2.3509886e-038
-30.483812 325.43384 -85.058128 2.3509886e-038
-25.469313 324.08328 -84.705139 2.3509886e-038
-20.551981 323.62158 -84.584457 2.3509886e-038
-15.656399 323.32138 -84.505997 2.3509886e-038
-10.783315 323.42374 -84.532753 2.3509886e-038
-5.9248819 324.4989 -84.813766 2.3509886e-038
-1.0373138 326.61194 -85.366051 2.3509886e-038
3.9266906 329.79327 -86.197548 2.3509886e-038
9.047143 335.21472 -87.61454 2.3509886e-038
14.503029 344.72195 -90.099434 2.3509886e-038
17.641661 352.01166 -92.00473 2.3509886e-038
-39.093063 336.40421 -92.99926 2.3509886e-038
-36.234253 333.17664 -92.106987 2.3509886e-038
-30.743979 328.2113 -90.734322 2.3509886e-038
-25.60206 325.7724 -90.060081 2.3509886e-038
-20.642181 325.04193 -89.858147 2.3509886e-038
-15.732918 324.90158 -89.819344 2.3509886e-038
-10.838615 325.0824 -89.869331 2.3509886e-038
-5.9519496 325.98135 -90.117851 2.3509886e-038
-1.041232 327.84561 -90.633224 2.3509886e-038
3.9417403 331.05725 -91.521088 2.3509886e-038
9.0857716 336.646 -93.066093 2.3509886e-038
14.543758 345.69003 -95.56633 2.3509886e-038
18.742346 354.33173 -97.955338 2.3509886e-038
-35.546989 335.75406 -97.88356 2.3509886e-038
-31.003172 330.97833 -96.491272 2.3509886e-038
-25.75868 327.76532 -95.554565 2.3509886e-038
-20.748716 326.71945 -95.249664 2.3509886e-038
-15.822925 326.76031 -95.261581 2.3509886e-038
-10.910577 327.24069 -95.401627 2.3509886e-038
-5.991138 328.12766 -95.660202 2.3509886e-038
-1.0471603 329.71219 -96.122147 2.3509886e-038
3.9611301 332.68576 -96.989044 2.3509886e-038
9.122612 338.01099 -98.541527 2.3509886e-038
14.553689 345.92609 -100.84904 2.3509886e-038
19.931952 354.841 -103.44804 2.3509886e-038
-32.346123 334.72125 -102.63091 2.3509886e-038
-31.262058 333.74213 -102.3307 2.3509886e-038
-25.952305 330.2291 -101.25355 2.3509886e-038
-20.884386 328.85574 -100.83246 2.3509886e-038
-15.930161 328.97488 -100.86899 2.3509886e-038
-10.996735 329.82483 -101.12959 2.3509886e-038
-6.043087 330.97284 -101.4816 2.3509886e-038
-1.0564048 332.62299 -101.98755 2.3509886e-038
3.9946535 335.50131 -102.87009 2.3509886e-038
9.1901445 340.51324 -104.40683 2.3509886e-038
14.617548 347.44394 -106.5319 2.3509886e-038
20.295088 355.09369 -108.87743 2.3509886e-038
20.749844 355.69888 -109.06299 2.3509886e-038
-30.424915 336.99377 -108.41042 2.3509886e-038
-26.239998 333.88983 -107.41188 2.3509886e-038
-21.07222 331.81351 -106.74393 2.3509886e-038
-16.064442 331.74789 -106.72282 2.3509886e-038
-11.100898 332.94897 -107.10921 2.3509886e-038
-6.1098261 334.62808 -107.64938 2.3509886e-038
-1.0693847 336.70987 -108.31908 2.3509886e-038
4.0443234 339.67294 -109.27231 2.3509886e-038
9.2875452 344.1221 -110.7036 2.3509886e-038
14.718207 349.83649 -112.54191 2.3509886e-038
20.350061 356.05554 -114.54256 2.3509886e-038
20.675541 356.41858 -114.65935 2.3509886e-038
-29.284193 342.42514 -115.32233 2.3509886e-038
-26.718864 339.98312 -114.49991 2.3509886e-038
-21.369595 336.49612 -113.32555 2.3509886e-038
-16.249596 335.57153 -113.01416 2.3509886e-038
-11.224668 336.66122 -113.38115 2.3509886e-038
-6.1828117 338.6254 -114.04265 2.3509886e-038
-1.0830125 341.00073 -114.84261 2.3509886e-038
4.0945783 343.89374 -115.81693 2.3509886e-038
9.3767357 347.42676 -117.00678 2.3509886e-038
14.791228 351.57211 -118.40286 2.3509886e-038
19.182734 355.26248 -119.64571 2.3509886e-038
-27.86775 348.53412 -122.63651 2.3509886e-038
-27.348614 347.99637 -122.4473 2.3509886e-038
-21.78281 343.00281 -120.69025 2.3509886e-038
-16.481852 340.36789 -119.76311 2.3509886e-038
-11.346868 340.32635 -119.74851 2.3509886e-038
-6.2411952 341.823 -120.27512 2.3509886e-038
-1.0929474 344.12885 -121.08646 2.3509886e-038
4.1296477 346.83914 -122.04012 2.3509886e-038
9.4364424 349.63904 -123.0253 2.3509886e-038
14.836078 352.63815 -124.08058 2.3509886e-038
15.82128 353.24585 -124.29441 2.3509886e-038
-24.76301 351.38303 -128.93869 2.3509886e-038
-22.166723 349.04807 -128.08189 2.3509886e-038
-16.721502 345.31693 -126.71275 2.3509886e-038
-11.460135 343.72363 -126.12809 2.3509886e-038
-6.2841129 344.17355 -126.2932 2.3509886e-038
-1.0990715 346.05713 -126.98436 2.3509886e-038
4.1492982 348.48956 -127.87694 2.3509886e-038
9.4711504 350.92502 -128.77061 2.3509886e-038
9.5390759 350.95697 -128.78235 2.3509886e-038
-107.30692 335.42889 23.287941 2.3509528e-038
-108.31755 338.58804 10.050519 2.3509528e-038
-101.26256 332.19678 20.259029 2.3509528e-038
-102.22967 335.36945 3.4178729 2.3509528e-038
-95.971588 331.22833 15.309501 2.3509528e-038
-96.919167 334.49872 -2.8873973 2.3509528e-038
-90.874977 330.86121 9.9809074 2.3509528e-038
-92.294083 336.02795 -9.5393953 2.3509528e-038
-85.791237 330.50095 5.3604922 2.3509528e-038
-86.996948 335.14584 -16.373756 2.3509528e-038
-80.373985 328.73218 69.045532 3.5733111e-043
-81.548309 333.53522 41.990131 3.5733111e-043
-81.592239 333.7149 1.0828477 2.3509528e-038
-82.583855 337.7706 -23.770012 2.3509528e-038
-74.462296 324.57568 63.230209 3.5733111e-043
-76.672585 334.21017 25.367867 3.5733111e-043
-77.512672 337.87207 -2.2162266 2.3509528e-038
-77.134674 336.2244 -31.742197 2.3509528e-038
-69.121109 322.49591 52.418961 2.3418052e-038
-70.864716 330.63098 12.327454 3.5733111e-043
-72.931366 340.27328 -2.0806463 2.3509886e-038
-72.34034 337.51578 -41.044083 2.3509886e-038
-65.377663 328.12009 42.450436 2.3418052e-038
-68.681465 344.70135 -52.095078 2.3509886e-038
-60.758179 329.90875 83.083191 2.3418052e-038
-60.492428 328.46576 68.457474 2.3418052e-038
-60.573235 328.90454 30.856188 3.5733111e-043
-62.947258 341.79517 -61.348061 2.3509886e-038
-55.220604 326.58667 85.872086 2.3418052e-038
-55.742184 329.67142 38.429348 2.3418052e-038
-56.122498 331.92065 26.515808 3.5733111e-043
-57.481384 339.95743 -69.079475 2.3509886e-038
-49.74638 323.02524 81.32534 2.3418052e-038
-51.459171 334.14713 -74.810867 2.3509886e-038
-44.427528 319.80899 66.44735 2.3418052e-038
-46.207203 332.61987 -81.174515 2.3509886e-038
-40.092094 323.75037 44.838123 2.3418052e-038
-41.56356 335.63269 -89.039749 2.3509886e-038
-35.280029 324.4025 24.627169 2.3509886e-038
-36.558067 336.15414 -96.589828 2.3509886e-038
-30.711262 327.86203 21.945417 2.3509886e-038
-31.397945 335.19284 -104.87794 2.3509886e-038
-26.198196 333.35794 45.957432 2.3509886e-038
-27.470215 349.54367 -124.05352 2.3509886e-038
-20.900925 329.11621 74.764275 9.1476764e-041
-22.288147 350.96011 -130.9473 2.3509886e-038
-15.896006 328.26953 87.837616 9.1476764e-041
-16.894156 348.88242 -132.53372 2.3509886e-038
-10.810287 324.2327 80.956451 9.1476764e-041
-11.56047 346.73294 -132.35219 2.3509886e-038
-5.8310423 319.35941 21.205275 2.3509886e-038
-6.3179598 346.02728 -131.78633 2.3509886e-038
-1.0252092 322.80063 8.070838 2.3509886e-038
-1.1024916 347.13403 -131.29311 2.3509886e-038
3.8596518 324.16284 -0.09700381 2.3509886e-038
4.156405 349.08643 -130.54727 2.3509886e-038
8.7958307 325.90308 -5.313695 2.3509886e-038
9.4714603 350.93652 -128.82072 2.3509886e-038
13.878638 329.8808 -8.4517851 2.3418409e-038
14.844162 352.83032 -125.26906 2.3509886e-038
19.113073 334.41251 -8.535183 2.3418409e-038
18.954725 331.642 -70.433289 2.3509886e-038
20.29286 355.05472 -105.50101 2.3509886e-038
20.360191 356.23279 -116.42992 2.3509886e-038
24.088339 333.46371 -2.9297705 2.3418409e-038
23.583956 326.48141 -58.81955 2.3509886e-038
28.823536 330.09341 6.2222385 2.3418409e-038
28.509262 326.49429 -51.053341 2.3509886e-038
33.733475 329.42258 13.428472 2.3418409e-038
33.446125 326.61646 -44.382462 2.3509886e-038
38.531464 327.97086 18.549374 2.3418409e-038
38.378277 326.66696 -36.679031 2.3509886e-038
43.582485 328.75821 22.054579 2.3418409e-038
42.919239 323.7551 -9.0415554 2.3509886e-038
48.642574 329.44626 23.923939 2.3418409e-038
48.034393 325.32715 8.7869024 2.3418409e-038
