# .PCD v0.7 - Point Cloud Data file format
VERSION 0.7
FIELDS x y z rgb
SIZE 4 4 4 4
TYPE F F F F
COUNT 1 1 1 1
WIDTH 568
HEIGHT 1
VIEWPOINT 0 0 0 1 0 0 0
POINTS 568
DATA ascii
-33.12096 305.75977 82.082382 2.3418052e-038
0 0 0 2.3418409e-038
-51.389698 287.14267 60.856224 3.5733111e-043
-66.645302 272.12689 16.661325 2.3509528e-038
0 0 0 2.3418409e-038
-36.880878 304.09131 86.687248 2.3418052e-038
-34.796921 303.26517 86.451744 2.3418052e-038
-30.110233 304.93982 86.929138 2.3418052e-038
-28.038345 310.7431 88.583473 2.3418052e-038
-38.578121 306.06577 82.353264 2.3418052e-038
-34.952003 304.61676 81.963379 2.3418052e-038
-30.385937 307.73199 82.801598 2.3418052e-038
-26.626564 321.80148 86.58728 2.3509886e-038
-24.247757 330.97684 89.056099 2.3509886e-038
-38.862175 307.05573 77.706947 2.3418052e-038
-35.134212 306.20477 77.4916 2.3418052e-038
-30.549074 309.38412 78.296196 2.3418052e-038
-26.607025 321.56534 81.378914 2.3509886e-038
-22.266279 333.61295 84.427818 2.3509886e-038
-20.434742 336.70181 85.209518 2.3509886e-038
-55.49448 288.44388 68.381912 3.5733111e-043
-50.889469 284.71506 67.49791 3.5733111e-043
-49.777729 284.2973 67.398865 3.5733111e-043
-39.094158 307.5939 72.921844 2.3418052e-038
-35.234573 307.07944 72.799873 2.3418052e-038
-30.602219 309.92236 73.473854 2.3418052e-038
-26.587322 321.32721 76.17762 2.3509886e-038
-22.228312 333.04407 78.95536 2.3509886e-038
-18.332685 339.0639 80.382492 2.3509886e-038
-57.809307 290.0654 64.125473 3.5733111e-043
-56.242569 288.81207 63.848392 3.5733111e-043
-50.790222 284.15979 62.819897 3.5733111e-043
-46.998009 284.88397 62.979996 3.5733111e-043
-39.566399 308.44833 68.189438 2.3418052e-038
-35.301537 307.66302 68.015823 2.3418052e-038
-30.633022 310.23434 68.584267 2.3418052e-038
-26.599398 321.47314 71.068863 2.3509886e-038
-22.210583 332.77844 73.568153 2.3509886e-038
-17.241285 339.77325 75.11451 2.3509886e-038
-17.099827 339.98434 75.161171 2.3509886e-038
-58.07642 291.14789 59.706596 3.5733111e-043
-56.425812 289.75305 59.420551 3.5733111e-043
-50.908955 284.82404 58.409748 3.5733111e-043
-46.465832 285.52383 58.553253 3.5733111e-043
-45.777996 286.93524 58.842697 3.5733111e-043
-40.257801 309.22705 63.41415 2.3418052e-038
-35.367847 308.24094 63.211926 2.3418052e-038
-30.623011 310.13297 63.599922 2.3418052e-038
-26.562424 321.02631 65.833855 2.3509886e-038
-22.162422 332.05688 68.095932 2.3509886e-038
-17.1896 338.75467 69.469467 2.3509886e-038
-16.458359 339.83582 69.691177 2.3509886e-038
-57.991467 293.35416 55.465576 3.5733111e-043
-56.906731 292.22263 55.251633 3.5733111e-043
-51.261539 286.79669 54.225731 3.5733111e-043
-46.627651 286.51819 54.173073 3.5733111e-043
-45.036594 289.56851 54.749809 3.5733111e-043
-40.891407 308.19775 58.272114 2.3418052e-038
-40.398083 308.99512 58.422874 2.3418052e-038
-35.352032 308.10312 58.254219 2.3418052e-038
-30.555815 309.45242 58.509335 2.3418052e-038
-26.486675 320.11081 60.524555 2.3509886e-038
-22.104683 331.19174 62.619671 2.3509886e-038
-17.124306 337.46796 63.806339 2.3509886e-038
-16.029137 338.89807 64.076736 2.3509886e-038
-57.81955 295.24844 51.099964 3.5733111e-043
-57.397598 294.74326 51.012531 3.5733111e-043
-51.691105 289.20001 50.053135 3.5733111e-043
-46.933506 288.39761 49.914261 3.5733111e-043
-44.456871 293.02887 50.715813 3.5733111e-043
-41.549713 305.85803 52.936214 2.3418052e-038
-40.326023 308.44394 53.383762 2.3418052e-038
-35.329334 307.9053 53.290546 2.3418052e-038
-30.541153 309.30392 53.532612 2.3418052e-038
-26.454353 319.72018 55.335396 2.3509886e-038
-22.066576 330.62082 57.222019 2.3509886e-038
-17.075903 336.51413 58.241997 2.3509886e-038
-15.486072 338.33188 58.556606 2.3509886e-038
-57.075317 294.64172 46.280884 3.5733111e-043
-51.912086 290.43637 45.620323 3.5733111e-043
-47.218559 290.14917 45.575214 3.5733111e-043
-43.688747 297.72989 46.765953 3.5733111e-043
-40.259735 307.93695 48.369228 2.3418052e-038
-35.323601 307.85535 48.356411 2.3418052e-038
-30.550573 309.39932 48.598934 2.3418052e-038
-26.391975 318.96631 50.101665 2.3509886e-038
-21.990068 329.47452 51.752243 2.3509886e-038
-17.047146 335.94739 52.76897 2.3509886e-038
-14.606284 338.9501 53.240623 2.3509886e-038
-56.172482 293.96405 41.471203 3.5733111e-043
-52.043682 291.17264 41.077396 3.5733111e-043
-47.362743 291.03522 41.05801 3.5733111e-043
-43.754578 298.1785 42.065758 3.5733111e-043
-40.273762 308.04422 43.457573 2.3418052e-038
-35.413612 308.6398 43.541595 2.3418052e-038
-30.608746 309.98846 43.731857 2.3418052e-038
-26.328754 318.20224 44.890621 2.3509886e-038
-21.910713 328.28555 46.313133 2.3509886e-038
-17.030329 335.61594 47.347275 2.3509886e-038
-13.446772 340.55161 48.043579 2.3509886e-038
-55.662502 294.4476 36.828445 3.5733111e-043
-52.227428 292.20062 36.547401 3.5733111e-043
-47.4188 291.37964 36.444717 3.5733111e-043
-43.699215 297.80124 37.247902 3.5733111e-043
-40.288277 308.15524 38.54295 2.3418052e-038
-35.570362 310.00589 38.774422 2.3418052e-038
-30.728754 311.20383 38.924255 2.3418052e-038
-26.310966 317.98727 39.772701 2.3509886e-038
-21.853251 327.42459 40.953087 2.3509886e-038
-17.009077 335.19714 41.925251 2.3509886e-038
-12.187986 342.76343 42.871613 2.3509886e-038
-55.66415 296.11612 32.299473 3.5733111e-043
-52.546059 293.98328 32.06683 3.5733111e-043
-47.554436 292.2131 31.873743 3.5733111e-043
-43.637562 297.38107 32.43745 3.5733111e-043
-40.228794 307.70029 33.563042 2.3418052e-038
-35.683525 310.99219 33.922112 2.3418052e-038
-30.839676 312.32721 34.06773 2.3418052e-038
-26.290894 317.74463 34.658649 2.3509886e-038
-21.774611 326.24631 35.585987 2.3509886e-038
-16.962149 334.27234 36.461437 2.3509886e-038
-11.911734 342.84076 37.396057 2.3509886e-038
-10.874282 345.2598 37.65992 2.3509886e-038
-73.259277 274.43283 25.543587 2.3509528e-038
-70.385201 272.03592 25.320488 2.3509528e-038
-65.963921 269.6044 25.094168 2.3509528e-038
-55.877846 298.5386 27.787296 3.5733111e-043
-52.974575 296.38074 27.586447 3.5733111e-043
-47.794712 293.68954 27.335958 3.5733111e-043
-43.64233 297.41354 27.682581 3.5733111e-043
-40.110714 306.79712 28.555981 2.3418052e-038
-35.707722 311.20306 28.966076 2.3418052e-038
-30.877834 312.71365 29.106678 2.3418052e-038
-26.21229 316.79468 29.48653 2.3509886e-038
-21.651821 324.40659 30.195032 2.3509886e-038
-16.885818 332.76813 30.973303 2.3509886e-038
-11.867051 341.55469 31.79114 2.3509886e-038
-9.3186979 347.70117 32.363235 2.3509886e-038
-74.859825 275.78378 21.256966 2.3509528e-038
-70.355087 271.91956 20.959118 2.3509528e-038
-65.424133 269.52835 20.774809 2.3509528e-038
-62.995346 271.75183 20.94619 2.3509528e-038
-55.423264 299.09296 23.0536 3.5733111e-043
-53.246029 297.89944 22.961607 3.5733111e-043
-47.993317 294.90994 22.731182 3.5733111e-043
-43.588528 297.04691 22.895893 3.5733111e-043
-39.867668 304.93811 23.504137 2.3418052e-038
-35.646702 310.67126 23.946037 2.3418052e-038
-30.87149 312.64941 24.098511 2.3509886e-038
-26.116777 315.64032 24.329046 2.3509886e-038
-21.525528 322.51434 24.858885 2.3509886e-038
-16.797731 331.03217 25.515423 2.3509886e-038
-11.823839 340.311 26.230619 2.3509886e-038
-6.9051981 354.45721 27.320988 2.3509886e-038
-73.909615 274.10138 16.741856 2.3509528e-038
-70.356415 271.92468 16.608906 2.3509528e-038
-65.656883 270.48721 16.521105 2.3509528e-038
-61.894463 272.97998 16.673361 2.3509528e-038
-61.040817 275.10355 16.803066 2.3509528e-038
-54.514248 300.16241 18.333637 3.5733111e-043
-53.634087 300.07056 18.328028 3.5733111e-043
-48.376007 297.26151 18.156454 3.5733111e-043
-43.635895 297.36969 18.163063 3.5733111e-043
-39.619522 303.0401 18.509405 2.3509886e-038
-35.510464 309.48392 18.902987 2.3509886e-038
-30.825462 312.18326 19.067862 2.3509886e-038
-26.034588 314.64703 19.218344 2.3509886e-038
-21.407185 320.74124 19.590574 2.3509886e-038
-16.690897 328.92676 20.09054 2.3509886e-038
-11.75872 338.43677 20.6714 2.3509886e-038
-6.6323409 353.82172 21.611099 2.3509886e-038
-1.0242906 373.07791 22.787249 2.3509886e-038
5.0444803 380.60522 23.247011 2.3509886e-038
10.929306 381.93991 23.328531 2.3509886e-038
-72.992348 275.4248 12.41607 2.3509528e-038
-71.050705 274.60806 12.379252 2.3509528e-038
-66.256851 272.95889 12.304908 2.3509528e-038
-61.854317 272.80292 12.297876 2.3509528e-038
-58.992996 276.84155 12.479937 2.3509528e-038
-53.738342 304.50571 13.727028 3.5733111e-043
-49.094822 301.67847 13.599577 3.5733111e-043
-43.904922 299.20306 13.487988 3.5733111e-043
-39.496609 302.09998 13.618578 2.3509886e-038
-35.352039 308.10321 13.889203 2.3509886e-038
-30.734146 311.25845 14.031441 2.3509886e-038
-25.938879 313.4903 14.132051 2.3509886e-038
-21.273596 318.73969 14.368691 2.3509886e-038
-16.564819 326.44217 14.715919 2.3509886e-038
-11.669071 335.85651 15.140313 2.3509886e-038
-6.5732245 350.66797 15.808008 2.3509886e-038
-1.0147945 369.61914 16.662321 2.3509886e-038
5.0173473 378.55804 17.065287 2.3509886e-038
11.139315 380.78973 17.16589 2.3509886e-038
11.683594 381.02298 17.176405 2.3509886e-038
-72.364082 279.81973 8.1372576 2.3509528e-038
-67.230621 276.97055 8.0544024 2.3509528e-038
-62.451385 275.43622 8.0097837 2.3509528e-038
-58.989235 279.91879 8.1401386 2.3509528e-038
-58.352013 284.30496 8.2676907 2.3509528e-038
-52.812878 308.39954 8.9683685 2.3509886e-038
-49.925953 306.78564 8.9214363 2.3509886e-038
-44.339981 302.16791 8.7871513 2.3509886e-038
-39.527115 302.33328 8.7919598 2.3509886e-038
-35.202541 306.80026 8.9218616 2.3509886e-038
-30.602842 309.92868 9.0128374 2.3509886e-038
-25.829996 312.17438 9.0781422 2.3509886e-038
-21.136589 316.68692 9.2093697 2.3509886e-038
-16.436352 323.91046 9.4194317 2.3509886e-038
-11.572401 333.07416 9.685915 2.3509886e-038
-6.4992394 346.72101 10.08277 2.3509886e-038
-1.004887 366.0105 10.643716 2.3509886e-038
4.9973521 377.04941 10.964731 2.3509886e-038
11.124631 380.28778 11.058905 2.3509886e-038
11.783918 380.58072 11.067423 2.3509886e-038
-71.137573 283.74536 3.711674 2.3509528e-038
-68.470047 282.07663 3.6898456 2.3509528e-038
-63.39045 279.57788 3.6571593 2.3509528e-038
-59.380035 281.77325 3.6858768 2.3509528e-038
-57.137928 291.63333 3.8148568 2.3509528e-038
-52.266747 310.67032 4.0638795 2.3509886e-038
-50.48077 310.19489 4.0576601 2.3509886e-038
-44.714996 304.72357 3.9860899 2.3509886e-038
-39.589424 302.80991 3.9610574 2.3509886e-038
-35.045589 305.43237 3.9953623 2.3509886e-038
-30.439541 308.27487 4.0325446 2.3509886e-038
-25.710016 310.7243 4.0645862 2.3509886e-038
-20.998947 314.62466 4.1156068 2.3509886e-038
-16.30316 321.28568 4.2027388 2.3509886e-038
-11.479899 330.4118 4.3221183 2.3509886e-038
-6.4391594 343.51587 4.4935327 2.3509886e-038
-0.9978323 363.44095 4.7541728 2.3509886e-038
4.9864831 376.22934 4.9214578 2.3509886e-038
11.126127 380.33893 4.975215 2.3509886e-038
11.800766 380.64157 4.9791741 2.3509886e-038
-69.592865 287.79309 -0.83987015 2.3509528e-038
-64.49453 284.44733 -0.83010608 2.3509528e-038
-59.689693 283.24265 -0.82659054 2.3509528e-038
-56.255577 288.87888 -0.84303886 2.3509528e-038
-54.0145 302.19888 -0.88191074 2.3509528e-038
-50.327713 309.25436 -0.90250087 2.3509886e-038
-44.761261 305.03885 -0.89019865 2.3509886e-038
-39.553616 302.53601 -0.88289458 2.3509886e-038
-34.879612 303.98587 -0.88712567 2.3509886e-038
-30.278107 306.63995 -0.89487112 2.3509886e-038
-25.589333 309.26578 -0.90253413 2.3509886e-038
-20.865171 312.6203 -0.91232371 2.3509886e-038
-16.170401 318.6694 -0.92997688 2.3509886e-038
-11.399982 328.11163 -0.95753229 2.3509886e-038
-6.4080281 341.85507 -0.99763983 2.3509886e-038
-0.99480736 362.3392 -1.0574189 2.3509886e-038
4.9885645 376.38641 -1.0984131 2.3509886e-038
11.163891 381.62988 -1.1137153 2.3509886e-038
11.849654 381.99359 -1.1147766 2.3509886e-038
-68.073082 292.7384 -5.5379272 2.3509528e-038
-65.989601 291.0412 -5.5058198 2.3509528e-038
-60.562519 287.38443 -5.4366422 2.3509528e-038
-56.300285 289.10846 -5.4692569 2.3509528e-038
-53.175121 297.50275 -5.6280575 2.3509528e-038
-49.427536 303.72296 -5.745729 2.3509528e-038
-44.457592 302.96939 -5.7314734 2.3509528e-038
-39.443447 301.69336 -5.7073336 2.3509528e-038
-34.749607 302.85284 -5.7292681 2.3509886e-038
-30.17185 305.56384 -5.7805543 2.3509886e-038
-25.514507 308.36148 -5.8334789 2.3509886e-038
-20.787046 311.4498 -5.8919029 2.3509886e-038
-16.088163 317.04874 -5.9978218 2.3509886e-038
-11.350392 326.68436 -6.1801052 2.3509886e-038
-6.3965816 341.24442 -6.4555478 2.3509886e-038
-0.99344367 361.84247 -6.8452148 2.3509886e-038
4.9952245 376.88889 -7.1298575 2.3509886e-038
11.219788 383.54062 -7.255693 2.3509886e-038
11.958937 384.02368 -7.2648311 2.3509886e-038
-66.981461 299.62997 -10.462186 2.3509528e-038
-62.171562 295.01974 -10.30121 2.3509528e-038
-56.96664 292.53027 -10.214285 2.3509528e-038
-52.733543 295.03223 -10.301646 2.3509528e-038
-48.682476 299.14471 -10.445242 2.3509528e-038
-44.155449 300.91034 -10.506892 2.3509528e-038
-39.3526 300.99847 -10.50997 2.3509528e-038
-34.677544 302.22476 -10.552787 2.3509528e-038
-30.118448 305.02301 -10.650495 2.3509886e-038
-25.500074 308.18701 -10.760971 2.3509886e-038
-20.797096 311.60037 -10.880156 2.3509886e-038
-16.091019 317.10501 -11.072362 2.3509886e-038
-11.340781 326.40775 -11.397184 2.3509886e-038
-6.3854113 340.6485 -11.89443 2.3509886e-038
-0.98956513 360.42981 -12.585135 2.3509886e-038
4.9852877 376.13916 -13.133658 2.3509886e-038
11.225848 383.74783 -13.399331 2.3509886e-038
12.095789 384.33749 -13.41992 2.3509886e-038
-66.235954 308.17761 -15.691275 2.3509886e-038
-64.517845 306.15344 -15.588211 2.3509886e-038
-58.29108 299.33142 -15.240858 2.3509528e-038
-52.920006 296.07544 -15.075075 2.3509528e-038
-48.35833 297.15286 -15.129935 2.3509528e-038
-43.941322 299.45114 -15.246954 2.3509528e-038
-39.286831 300.49542 -15.300125 2.3509528e-038
-34.661469 302.08466 -15.381042 2.3509528e-038
-30.104042 304.87711 -15.523224 2.3509886e-038
-25.512035 308.33157 -15.699113 2.3509886e-038
-20.855515 312.47562 -15.910113 2.3509886e-038
-16.150763 318.28241 -16.205772 2.3509886e-038
-11.358198 326.909 -16.645006 2.3509886e-038
-6.3696604 339.80823 -17.301788 2.3509886e-038
-0.98196614 357.66202 -18.210838 2.3509886e-038
4.9463372 373.20032 -19.001993 2.3509886e-038
11.136483 380.69296 -19.38349 2.3509886e-038
12.220302 381.27649 -19.4132 2.3509886e-038
-65.445969 316.44434 -21.175089 2.3509886e-038
-59.915398 307.67249 -20.588114 2.3509886e-038
-53.44334 299.00336 -20.008015 2.3509528e-038
-48.254101 296.51242 -19.841331 2.3509528e-038
-43.733841 298.0372 -19.943361 2.3509528e-038
-39.203545 299.8584 -20.065229 2.3509528e-038
-34.662193 302.091 -20.214626 2.3509528e-038
-30.131485 305.15503 -20.419657 2.3509886e-038
-25.549732 308.78717 -20.662704 2.3509886e-038
-20.90975 313.28824 -20.963896 2.3509886e-038
-16.200901 319.27045 -21.364201 2.3509886e-038
-11.378435 327.49149 -21.914316 2.3509886e-038
-6.3614426 339.36984 -22.709166 2.3509886e-038
-0.97577941 355.40863 -23.782412 2.3509886e-038
4.9056234 370.12848 -24.767401 2.3509886e-038
11.029296 377.02881 -25.229141 2.3509886e-038
12.21334 377.49924 -25.260618 2.3509886e-038
-64.413612 320.85141 -26.603409 2.3509886e-038
-61.307499 314.82108 -26.103399 2.3509886e-038
-54.020348 302.2316 -25.059546 2.3509528e-038
-48.287949 296.72043 -24.602585 2.3509528e-038
-43.579102 296.98267 -24.624329 2.3509528e-038
-39.126358 299.26801 -24.813818 2.3509528e-038
-34.666595 302.12933 -25.051065 2.3509886e-038
-30.187513 305.72247 -25.348991 2.3509886e-038
-25.612465 309.54535 -25.665962 2.3509886e-038
-20.955517 313.97394 -26.033161 2.3509886e-038
-16.232136 319.88599 -26.523359 2.3509886e-038
-11.401084 328.14337 -27.208019 2.3509886e-038
-6.3732085 339.99753 -28.190908 2.3509886e-038
-0.97609437 355.52335 -29.478231 2.3509886e-038
4.890295 368.97202 -30.593328 2.3509886e-038
10.967036 374.90048 -31.084888 2.3509886e-038
11.812778 375.18643 -31.108597 2.3509886e-038
-63.246376 321.40033 -31.791121 2.3509886e-038
-62.163746 319.21799 -31.575251 2.3509886e-038
-54.588501 305.41031 -30.209475 2.3509886e-038
-48.525665 298.18112 -29.494404 2.3509528e-038
-43.596706 297.10266 -29.38773 2.3509528e-038
-39.113144 299.16696 -29.591917 2.3509886e-038
-34.684872 302.28864 -29.900696 2.3509886e-038
-30.240665 306.26077 -30.293596 2.3509886e-038
-25.679356 310.35376 -30.698454 2.3509886e-038
-21.014656 314.86005 -31.14419 2.3509886e-038
-16.276936 320.76886 -31.728659 2.3509886e-038
-11.432272 329.04102 -32.546894 2.3509886e-038
-6.3945966 341.13855 -33.743511 2.3509886e-038
-0.9806568 357.18512 -35.33075 2.3509886e-038
4.8922157 369.11688 -36.510971 2.3509886e-038
10.934074 373.77374 -36.971603 2.3509886e-038
10.999022 373.79825 -36.97403 2.3509886e-038
-61.947479 320.23392 -36.799278 2.3509886e-038
-55.140137 308.49655 -35.450497 2.3509886e-038
-48.947021 300.77029 -34.562641 2.3509886e-038
-43.804596 298.51938 -34.303978 2.3509886e-038
-39.198116 299.81686 -34.453079 2.3509886e-038
-34.738743 302.75812 -34.791073 2.3509886e-038
-30.292551 306.78622 -35.253956 2.3509886e-038
-25.746983 311.17108 -35.757835 2.3509886e-038
-21.089994 315.9888 -36.311459 2.3509886e-038
-16.336079 321.93439 -36.994686 2.3509886e-038
-11.463395 329.93677 -37.914272 2.3509886e-038
-6.4077177 341.8385 -39.281944 2.3509886e-038
-0.98273915 357.9436 -41.132641 2.3509886e-038
4.88234 368.37177 -42.330978 2.3509886e-038
9.870615 371.81677 -42.72686 2.3509886e-038
-60.623318 319.66315 -41.848068 2.3509886e-038
-55.722076 311.75238 -40.812443 2.3509886e-038
-49.443497 303.82101 -39.774128 2.3509886e-038
-44.103703 300.55774 -39.34692 2.3509886e-038
-39.366623 301.10574 -39.418659 2.3509886e-038
-34.844784 303.68231 -39.755966 2.3509886e-038
-30.374548 307.61664 -40.271027 2.3509886e-038
-25.828497 312.15625 -40.865318 2.3509886e-038
-21.157814 317.00494 -41.500076 2.3509886e-038
-16.374643 322.6944 -42.244896 2.3509886e-038
-11.483297 330.50961 -43.268009 2.3509886e-038
-6.414402 342.1951 -44.797794 2.3509886e-038
-0.98021948 357.02582 -46.73933 2.3509886e-038
4.8523164 366.10648 -47.928104 2.3509886e-038
8.6587257 368.95511 -48.301025 2.3509886e-038
-59.271904 321.03638 -47.164215 2.3509886e-038
-56.60648 316.70044 -46.527214 2.3509886e-038
-50.025181 307.39536 -45.160187 2.3509886e-038
-44.398865 302.56918 -44.451157 2.3509886e-038
-39.523872 302.3085 -44.412861 2.3509886e-038
-34.953423 304.62912 -44.753792 2.3509886e-038
-30.457037 308.45203 -45.315422 2.3509886e-038
-25.890169 312.90161 -45.96912 2.3509886e-038
-21.196337 317.58212 -46.656746 2.3509886e-038
-16.388659 322.97058 -47.448376 2.3509886e-038
-11.486063 330.58917 -48.567642 2.3509886e-038
-6.4114742 342.03894 -50.249756 2.3509886e-038
-0.9765116 355.67535 -52.253113 2.3509886e-038
4.8297114 364.40094 -53.535011 2.3509886e-038
7.4681959 366.89493 -53.901409 2.3509886e-038
-57.366241 322.44598 -52.530231 2.3509886e-038
-50.849739 312.46213 -50.903744 2.3509886e-038
-44.827339 305.48917 -49.767765 2.3509886e-038
-39.731915 303.89978 -49.508835 2.3509886e-038
-35.106159 305.96027 -49.844513 2.3509886e-038
-30.589861 309.79724 -50.469604 2.3509886e-038
-25.990601 314.11539 -51.17308 2.3509886e-038
-21.245216 318.31448 -51.857162 2.3509886e-038
-16.393644 323.06885 -52.631706 2.3509886e-038
-11.474151 330.24634 -53.800999 2.3509886e-038
-6.4015474 341.50934 -55.635876 2.3509886e-038
-0.97602254 355.49722 -57.914665 2.3509886e-038
4.8503623 365.95905 -59.619022 2.3509886e-038
6.3596377 368.03653 -59.957466 2.3509886e-038
-55.228561 325.16791 -58.17614 2.3509886e-038
-52.060444 319.90167 -57.233955 2.3509886e-038
-45.482449 309.95361 -55.454136 2.3509886e-038
-40.054249 306.36523 -54.812138 2.3509886e-038
-35.322414 307.84497 -55.076878 2.3509886e-038
-30.753115 311.45056 -55.721962 2.3509886e-038
-26.103178 315.47598 -56.44215 2.3509886e-038
-21.302963 319.17969 -57.104786 2.3509886e-038
-16.410461 323.40024 -57.859886 2.3509886e-038
-11.471498 330.17001 -59.071075 2.3509886e-038
-6.3950849 341.16458 -61.038128 2.3509886e-038
-0.97722387 355.93475 -63.680672 2.3509886e-038
4.8982306 369.57071 -66.1203 2.3509886e-038
5.5908704 370.95273 -66.367561 2.3509886e-038
-52.829693 327.27972 -63.790234 2.3509886e-038
-46.195919 314.81577 -61.360878 2.3509886e-038
-40.432709 309.25998 -60.278 2.3509886e-038
-35.551022 309.83737 -60.390537 2.3509886e-038
-30.887167 312.8082 -60.969582 2.3509886e-038
-26.180832 316.41449 -61.672482 2.3509886e-038
-21.355762 319.97079 -62.365646 2.3509886e-038
-16.451462 324.20822 -63.19157 2.3509886e-038
-11.494177 330.82269 -64.480797 2.3509886e-038
-6.3942533 341.12021 -66.487892 2.3509886e-038
-0.97545987 355.29227 -69.250168 2.3509886e-038
4.9123735 370.63782 -72.24118 2.3509886e-038
5.265564 371.47781 -72.404907 2.3509886e-038
-49.356667 323.72882 -68.277573 2.3509886e-038
-46.831318 319.14584 -67.310982 2.3509886e-038
-40.855877 312.4967 -65.908607 2.3509886e-038
-35.794266 311.95731 -65.794846 2.3509886e-038
-31.031963 314.27457 -66.283585 2.3509886e-038
-26.279736 317.6098 -66.987015 2.3509886e-038
-21.437325 321.19281 -67.742706 2.3509886e-038
-16.520531 325.56937 -68.665764 2.3509886e-038
-11.532073 331.91345 -70.003792 2.3509886e-038
-6.3925719 341.03055 -71.926674 2.3509886e-038
-0.97003222 353.31537 -74.51767 2.3509886e-038
4.868259 367.30933 -77.469131 2.3509886e-038
5.3608723 368.40146 -77.699478 2.3509886e-038
-46.176495 322.19266 -73.108444 2.3509886e-038
-41.445908 317.00967 -71.932373 2.3509886e-038
-36.15958 315.14111 -71.508377 2.3509886e-038
-31.296011 316.9487 -71.918541 2.3509886e-038
-26.476559 319.98856 -72.608307 2.3509886e-038
-21.569546 323.17389 -73.331085 2.3509886e-038
-16.596544 327.06741 -74.214561 2.3509886e-038
-11.55723 332.63748 -75.478462 2.3509886e-038
-6.3848357 340.6178 -77.289268 2.3509886e-038
-0.96478283 351.40335 -79.73661 2.3509886e-038
4.8107333 362.96906 -82.36097 2.3509886e-038
5.9016237 364.90805 -82.800949 2.3509886e-038
-43.806923 325.37567 -79.036491 2.3509886e-038
-42.335445 323.81357 -78.657036 2.3509886e-038
-36.761696 320.38876 -77.825127 2.3509886e-038
-31.697102 321.01074 -77.976212 2.3509886e-038
-26.721766 322.95206 -78.447777 2.3509886e-038
-21.694679 325.04871 -78.957069 2.3509886e-038
-16.63924 327.90878 -79.651802 2.3509886e-038
-11.553011 332.51608 -80.770958 2.3509886e-038
-6.3700833 339.83081 -82.547768 2.3509886e-038
-0.9613018 350.13544 -85.050842 2.3509886e-038
4.7780442 360.50266 -87.56913 2.3509886e-038
6.7347507 363.50635 -88.298752 2.3509886e-038
-41.640999 332.04312 -85.968536 2.3509886e-038
-37.692513 328.50107 -85.051476 2.3509886e-038
-32.230953 326.4173 -84.511971 2.3509886e-038
-27.005117 326.37656 -84.501427 2.3509886e-038
-21.841248 327.24475 -84.726204 2.3509886e-038
-16.699888 329.10397 -85.207573 2.3509886e-038
-11.558258 332.66708 -86.130089 2.3509886e-038
-6.3561301 339.08646 -87.792114 2.3509886e-038
-0.95718646 348.63651 -90.264702 2.3509886e-038
4.7501616 358.39893 -92.792267 2.3509886e-038
7.2030563 362.08392 -93.746338 2.3509886e-038
-38.290134 335.98178 -92.363792 2.3509886e-038
-32.763008 331.80563 -91.215744 2.3509886e-038
-27.316492 330.13977 -90.757782 2.3509886e-038
-22.042706 330.26312 -90.791695 2.3509886e-038
-16.823061 331.53134 -91.140335 2.3509886e-038
-11.602699 333.9462 -91.804192 2.3509886e-038
-6.3484058 338.67438 -93.104004 2.3509886e-038
-0.95036411 346.15161 -95.159554 2.3509886e-038
4.6967206 354.36685 -97.417976 2.3509886e-038
6.9026656 357.36594 -98.242447 2.3509886e-038
-33.408829 337.77878 -98.262032 2.3509886e-038
-33.349461 337.74493 -98.25219 2.3509886e-038
-27.745489 335.32449 -97.548073 2.3509886e-038
-22.323868 334.4758 -97.301178 2.3509886e-038
-16.983747 334.698 -97.365822 2.3509886e-038
-11.663248 335.6889 -97.654076 2.3509886e-038
-6.3439174 338.43491 -98.452911 2.3509886e-038
-0.94287908 343.42532 -99.904655 2.3509886e-038
4.6321259 349.49316 -101.66983 2.3509886e-038
5.9142914 350.91693 -102.08401 2.3509886e-038
-28.393013 341.97382 -104.95376 2.3509886e-038
-28.291227 341.92014 -104.93729 2.3509886e-038
-22.662624 339.55133 -104.21029 2.3509886e-038
-17.153561 338.04449 -103.74783 2.3509886e-038
-11.725388 337.47739 -103.57378 2.3509886e-038
-6.3479867 338.65201 -103.93428 2.3509886e-038
-0.93859839 341.86618 -104.92073 2.3509886e-038
3.8810711 345.60327 -106.06766 2.3509886e-038
-22.037621 343.5231 -110.92539 2.3509886e-038
-17.318361 341.29218 -110.20501 2.3509886e-038
-11.803611 339.72879 -109.70019 2.3509886e-038
-6.3718305 339.92401 -109.76323 2.3509886e-038
-1.2229714 341.8999 -110.40125 2.3509886e-038
-70.377434 272.00592 26.665276 2.3509528e-038
-72.380257 279.74673 8.2095194 2.3509528e-038
-65.414291 269.48782 24.560543 2.3509528e-038
-69.754265 287.36722 -0.37753046 2.3509528e-038
-62.112091 273.93982 18.92079 2.3509528e-038
-67.321495 296.91541 -8.6535454 2.3509528e-038
-58.69553 278.52509 11.228333 2.3509528e-038
-65.87561 312.59637 -18.419044 2.3509886e-038
-56.27652 288.98642 67.774094 3.5733111e-043
-57.483677 295.1853 48.457771 3.5733111e-043
-56.897701 292.17624 3.3247786 2.3509528e-038
-62.455383 320.71558 -34.879635 2.3509886e-038
-50.923428 284.90503 68.269447 3.5733111e-043
-54.062244 302.466 15.661038 3.5733111e-043
-54.070713 302.5134 -0.57101178 2.3509528e-038
-57.598293 322.24939 -51.903294 2.3509886e-038
-46.46769 285.53525 61.422813 3.5733111e-043
-53.263828 327.29626 -62.982639 2.3509886e-038
-43.654335 297.49536 47.986053 3.5733111e-043
-47.262997 322.08768 -71.129234 2.3509886e-038
-40.417847 309.14627 62.236786 2.3418052e-038
-42.893799 328.08423 -81.994423 2.3509886e-038
-34.78088 303.12537 88.390862 2.3418052e-038
-38.538811 335.8768 -92.011528 2.3509886e-038
-29.994648 303.76923 89.194725 2.3418052e-038
-33.356468 337.81589 -98.328804 2.3509886e-038
-26.561041 321.00958 88.994492 2.3509886e-038
-28.300932 342.03745 -105.06973 2.3509886e-038
-22.324114 334.47946 87.691589 2.3509886e-038
-22.932375 343.59296 -110.29623 2.3509886e-038
-17.24794 339.90439 75.958748 2.3509886e-038
-17.377981 342.46713 -112.79535 2.3509886e-038
-11.927299 343.28876 41.82642 2.3509886e-038
-11.856303 341.24539 -113.17723 2.3509886e-038
-6.6601014 355.30267 27.088266 2.3509886e-038
-6.3900428 340.8956 -112.2306 2.3509886e-038
-1.0285903 374.64401 26.265968 2.3509886e-038
-0.93897688 342.00403 -110.25383 2.3509886e-038
5.0705338 382.57095 27.812098 2.3509886e-038
4.5971417 346.85361 -104.975 2.3509886e-038
11.164626 381.65497 22.09502 2.3509886e-038
10.931709 373.69287 -37.373737 2.3509886e-038
