# .PCD v0.7 - Point Cloud Data file format
VERSION 0.7
FIELDS x y z rgb
SIZE 4 4 4 4
TYPE F F F F
COUNT 1 1 1 1
WIDTH 648
HEIGHT 1
VIEWPOINT 0 0 0 1 0 0 0
POINTS 648
DATA ascii
0 0 0 2.3418052e-038
36.956966 270.58487 26.76194 9.1476764e-041
-56.454788 272.42902 43.624157 3.5733111e-043
-83.041817 275.50034 -23.355513 2.3509528e-038
-16.752207 273.61124 52.833885 2.3418409e-038
-26.526619 259.88553 60.102959 2.3418409e-038
-23.415491 261.23444 60.414917 2.3418409e-038
-19.312063 266.37067 61.602757 2.3418409e-038
-15.037311 271.591 62.810047 2.3418409e-038
-14.602157 271.93878 62.890476 2.3418409e-038
-27.577692 259.9758 55.669586 2.3418409e-038
-23.455801 261.68414 56.035408 2.3418409e-038
-19.438663 268.11685 57.412865 2.3418409e-038
-15.163937 273.87805 58.64653 2.3418409e-038
-10.329528 270.16476 57.851391 2.3418409e-038
-6.8922963 262.16202 56.137737 2.3418409e-038
-27.411665 263.34546 51.879177 2.3418409e-038
-23.906473 266.71207 52.542404 2.3418409e-038
-19.835432 273.58945 53.897255 2.3418409e-038
-15.339499 277.04889 54.578762 2.3418409e-038
-10.276428 268.77597 52.948994 2.3418409e-038
-5.4385991 257.74283 50.775455 2.3509886e-038
-1.02617 258.63464 50.951149 2.3509886e-038
3.5325658 268.31662 52.858501 2.3509886e-038
4.0543342 269.55533 53.102528 2.3509886e-038
-60.303276 262.20605 47.162258 3.5733111e-043
-59.550079 262.68195 47.24786 3.5733111e-043
-55.907112 266.77441 47.983955 3.5733111e-043
-53.633457 271.93332 48.911873 3.5733111e-043
-26.834372 274.72491 49.41399 2.3418409e-038
-24.804399 276.72977 49.774597 2.3418409e-038
-20.369003 280.94901 50.533501 2.3418409e-038
-15.536958 280.6152 50.473461 2.3418409e-038
-10.338385 270.39642 48.635433 2.3418409e-038
-5.511394 261.19269 46.979984 2.3509886e-038
-1.0462993 263.70807 47.432419 2.3509886e-038
3.5950675 273.06396 49.115242 2.3509886e-038
7.3225236 279.85458 50.336651 2.3509886e-038
-62.830502 264.95605 43.117332 3.5733111e-043
-60.090366 265.06522 43.135094 3.5733111e-043
-56.306519 268.68027 43.723389 3.5733111e-043
-53.185543 276.38373 44.977001 3.5733111e-043
-50.371216 281.93979 45.881161 3.5733111e-043
-25.967031 285.18213 46.408798 2.3509886e-038
-25.562557 285.18811 46.409771 2.3418409e-038
-20.706366 285.6022 46.477161 2.3418409e-038
-15.758065 284.60867 46.315475 2.3418409e-038
-10.652366 278.60846 45.339043 2.3418409e-038
-5.7486138 272.43488 44.334385 2.3418409e-038
-1.0869913 273.96399 44.583229 2.3509886e-038
3.6807663 279.57324 45.496044 2.3509886e-038
8.6271219 284.73325 46.335751 2.3509886e-038
9.2198849 285.31177 46.429893 2.3509886e-038
-63.725815 271.88876 39.587177 3.5733111e-043
-61.569233 271.58865 39.54348 3.5733111e-043
-57.44698 274.12225 39.912376 3.5733111e-043
-53.841915 279.79465 40.738277 3.5733111e-043
-49.876934 284.52258 41.42667 3.5733111e-043
-47.607548 286.88516 41.770664 3.5733111e-043
-25.104301 288.05063 41.940353 2.3509886e-038
-20.815016 287.10086 41.802063 2.3509886e-038
-15.937043 287.84122 41.909866 2.3509886e-038
-11.006744 287.87711 41.915089 2.3509886e-038
-6.0163116 285.12143 41.513859 2.3509886e-038
-1.125389 283.64172 41.298416 2.3509886e-038
3.7445757 284.41986 41.411713 2.3509886e-038
8.6836452 286.59875 41.728958 2.3509886e-038
10.204079 287.44742 41.852528 2.3509886e-038
-63.317291 279.66522 35.927849 3.5733111e-043
-58.645134 279.83954 35.950241 3.5733111e-043
-54.282326 282.08328 36.238487 3.5733111e-043
-49.91153 284.71994 36.577213 3.5733111e-043
-45.639725 288.55374 37.069729 3.5733111e-043
-44.822124 289.81845 37.232204 3.5733111e-043
-24.987408 290.56396 37.32798 2.3509886e-038
-20.948652 288.94409 37.119877 2.3509886e-038
-16.041836 289.73389 37.221344 2.3509886e-038
-11.15706 291.80853 37.487869 2.3509886e-038
-6.1427174 291.11197 37.39838 2.3509886e-038
-1.1406802 287.49567 36.933804 2.3509886e-038
3.7615376 285.70822 36.704174 2.3509886e-038
8.6916752 286.86377 36.852623 2.3509886e-038
10.761674 287.90036 36.985794 2.3509886e-038
-61.276127 283.21518 31.531494 3.5733111e-043
-59.146175 282.23041 31.42186 3.5733111e-043
-54.345737 282.41281 31.442165 3.5733111e-043
-49.863216 284.44434 31.668343 3.5733111e-043
-45.539295 287.91876 32.055164 3.5733111e-043
-41.84119 293.57184 32.684547 2.3509886e-038
-25.926443 294.35846 32.772125 2.3509886e-038
-21.106817 291.12564 32.412201 2.3509886e-038
-16.107544 290.92068 32.389381 2.3509886e-038
-11.19634 292.83588 32.602608 2.3509886e-038
-6.178802 292.82205 32.60107 2.3509886e-038
-1.1458346 288.7948 32.152699 2.3509886e-038
3.7682087 286.2149 31.865471 2.3509886e-038
8.7029324 287.23529 31.979073 2.3509886e-038
11.527805 289.29102 32.207943 2.3509886e-038
29.588165 271.10373 30.183081 9.1476764e-041
31.164371 268.73868 29.919769 9.1476764e-041
35.287231 265.12088 29.516985 9.1476764e-041
39.92033 265.72467 29.584208 9.1476764e-041
42.321899 267.25815 29.754934 9.1476764e-041
-58.516407 283.50186 26.7061 3.5733111e-043
-54.53746 283.40909 26.697361 3.5733111e-043
-49.986423 285.14716 26.86109 3.5733111e-043
-45.506569 287.71188 27.10269 3.5733111e-043
-41.114326 291.52097 27.461506 2.3509886e-038
-37.136177 296.02301 27.885603 2.3509886e-038
-28.677101 296.4487 27.925705 2.3509886e-038
-26.43318 294.90118 27.779928 2.3509886e-038
-21.16173 291.88306 27.495617 2.3509886e-038
-16.115339 291.06146 27.418222 2.3509886e-038
-11.174149 292.25549 27.530701 2.3509886e-038
-6.1735215 292.57184 27.560501 2.3509886e-038
-1.1490699 289.6102 27.281511 2.3509886e-038
3.7821071 287.27057 27.061117 2.3509886e-038
8.7307959 288.15494 27.144424 2.3509886e-038
13.021749 292.21173 27.526579 2.3509886e-038
28.256233 281.36478 26.504786 9.1476764e-041
32.086235 276.68817 26.064245 9.1476764e-041
36.322491 272.89899 25.707304 9.1476764e-041
40.773388 271.40292 25.566372 9.1476764e-041
43.415703 272.0112 25.623672 9.1476764e-041
-56.64946 286.49973 22.079817 3.5733111e-043
-55.069195 286.1723 22.054583 3.5733111e-043
-50.232044 286.54831 22.083561 3.5733111e-043
-45.484077 287.56967 22.162273 3.5733111e-043
-40.781345 289.15994 22.284834 3.5733111e-043
-36.083088 291.2262 22.444075 2.3509886e-038
-31.272232 292.90079 22.57313 2.3509886e-038
-26.260065 292.96985 22.578451 2.3509886e-038
-21.152245 291.75223 22.484612 2.3509886e-038
-16.097263 290.73495 22.406214 2.3509886e-038
-11.113091 290.65857 22.400328 2.3509886e-038
-6.1341386 290.70541 22.403936 2.3509886e-038
-1.1484811 289.46182 22.308098 2.3509886e-038
3.7902935 287.89236 22.187143 2.3509886e-038
8.7255087 287.98044 22.193932 2.3509886e-038
13.797636 290.89178 22.418301 2.3509886e-038
16.051044 291.89532 22.495642 2.3509886e-038
25.076092 285.34671 21.990957 2.3509886e-038
27.968296 282.98795 21.809172 9.1476764e-041
32.503071 280.28265 21.600681 9.1476764e-041
37.011276 278.07404 21.430468 9.1476764e-041
41.476036 276.08002 21.276794 9.1476764e-041
43.074638 275.76453 21.252481 9.1476764e-041
-55.242115 289.95236 17.378059 3.5733111e-043
-50.51226 288.14682 17.269846 3.5733111e-043
-45.445831 287.32785 17.220762 3.5733111e-043
-40.566257 287.63489 17.239162 3.5733111e-043
-35.762234 288.6366 17.2992 2.3509886e-038
-30.969175 290.06232 17.384647 2.3509886e-038
-26.101128 291.19669 17.452637 2.3509886e-038
-21.103622 291.08157 17.445738 2.3509886e-038
-16.06332 290.12192 17.388222 2.3509886e-038
-11.063387 289.35855 17.34247 2.3509886e-038
-6.1022606 289.19467 17.332647 2.3509886e-038
-1.1458734 288.8046 17.309269 2.3509886e-038
3.7883148 287.74207 17.245586 2.3509886e-038
8.6989183 287.10281 17.207273 2.3509886e-038
13.640669 287.58249 17.236023 2.3509886e-038
18.526669 286.94376 17.197741 2.3509886e-038
23.239481 284.45313 17.048468 2.3509886e-038
27.884497 282.14005 16.909834 9.1476764e-041
32.564568 280.81296 16.830296 9.1476764e-041
37.35218 280.63531 16.819651 9.1476764e-041
42.179737 280.7641 16.82737 9.1476764e-041
42.213894 280.7677 16.827585 9.1476764e-041
-53.928455 292.08786 12.501629 3.5733111e-043
-50.787796 289.7186 12.400223 3.5733111e-043
-45.453651 287.37732 12.300014 3.5733111e-043
-40.502426 287.18228 12.291666 3.5733111e-043
-35.703911 288.16586 12.333765 2.3509886e-038
-30.879477 289.22217 12.378976 2.3509886e-038
-25.995241 290.01538 12.412926 2.3509886e-038
-21.043247 290.24881 12.422916 2.3509886e-038
-16.035753 289.62402 12.396175 2.3509886e-038
-11.041235 288.77921 12.360016 2.3509886e-038
-6.0859876 288.42349 12.34479 2.3509886e-038
-1.1429843 288.07642 12.329935 2.3509886e-038
3.7818115 287.24814 12.294485 2.3509886e-038
8.6786146 286.43268 12.259583 2.3509886e-038
13.560032 285.88245 12.236032 2.3509886e-038
18.405878 285.07297 12.201385 2.3509886e-038
23.168722 283.58704 12.137787 2.3509886e-038
27.843693 281.7272 12.058184 9.1476764e-041
32.567986 280.84244 12.020315 9.1476764e-041
37.588108 282.40787 12.087317 9.1476764e-041
40.841908 284.7186 12.186219 9.1476764e-041
-52.636452 292.83322 7.5163407 3.5733111e-043
-51.066109 291.30621 7.4771471 3.5733111e-043
-45.542778 287.9408 7.3907647 3.5733111e-043
-40.540615 287.45309 7.3782458 3.5733111e-043
-35.728909 288.36761 7.40172 2.3509886e-038
-30.847534 288.923 7.4159751 2.3509886e-038
-25.922985 289.20926 7.4233227 2.3509886e-038
-20.99675 289.60748 7.4335442 2.3509886e-038
-16.021997 289.37558 7.4275918 2.3509886e-038
-11.031084 288.5137 7.4054694 2.3509886e-038
-6.073472 287.83035 7.3879294 2.3509886e-038
-1.1397535 287.26212 7.3733439 2.3509886e-038
3.7740846 286.66122 7.3579211 2.3509886e-038
8.6726446 286.23566 7.3469977 2.3509886e-038
13.55149 285.70236 7.3333082 2.3509886e-038
18.39006 284.82797 7.3108654 2.3509886e-038
23.160908 283.49139 7.2765589 9.1476764e-041
27.861298 281.90533 7.2358479 9.1476764e-041
32.67329 281.75049 7.231874 9.1476764e-041
37.939964 285.05145 7.3166018 9.1476764e-041
39.116928 286.31525 7.34904 9.1476764e-041
-51.541973 293.59119 2.5056095 3.5733111e-043
-51.445984 293.47321 2.5046027 3.5733111e-043
-45.652153 288.63232 2.4632888 2.3509528e-038
-40.583622 287.758 2.455827 2.3509528e-038
-35.727921 288.35968 2.4609618 2.3509886e-038
-30.798958 288.46805 2.4618866 2.3509886e-038
-25.866756 288.58191 2.4628587 2.3509886e-038
-20.95923 289.08997 2.4671946 2.3509886e-038
-16.006144 289.08926 2.4671886 2.3509886e-038
-11.022008 288.27631 2.4602506 2.3509886e-038
-6.0674605 287.54544 2.4540131 2.3509886e-038
-1.1389681 287.06421 2.4499059 2.3509886e-038
3.774719 286.70944 2.4468782 2.3509886e-038
8.6824923 286.5607 2.4456089 2.3509886e-038
13.572574 286.14685 2.4420769 2.3509886e-038
18.406033 285.07535 2.4329324 2.3509886e-038
23.16983 283.60059 2.4203463 9.1476764e-041
27.924532 282.54514 2.4113388 9.1476764e-041
32.864075 283.39569 2.4185975 9.1476764e-041
37.597515 287.63025 2.4547369 9.1476764e-041
-50.602871 293.24142 -2.5215592 2.3509528e-038
-45.698502 288.92535 -2.4844458 2.3509528e-038
-40.624889 288.05063 -2.4769239 2.3509528e-038
-35.748894 288.52896 -2.4810371 2.3509528e-038
-30.800747 288.48477 -2.4806573 2.3509886e-038
-25.869923 288.61725 -2.4817963 2.3509886e-038
-20.961164 289.11664 -2.4860907 2.3509886e-038
-16.013977 289.23071 -2.4870713 2.3509886e-038
-11.037029 288.66919 -2.4822431 2.3509886e-038
-6.0823197 288.24963 -2.4786353 2.3509886e-038
-1.1434031 288.18195 -2.4780531 2.3509886e-038
3.7914784 287.98236 -2.4763372 2.3509886e-038
8.7130737 287.57004 -2.4727914 2.3509886e-038
13.605764 286.84662 -2.4665709 2.3509886e-038
18.437208 285.5582 -2.4554918 2.3509886e-038
23.212389 284.12152 -2.4431379 9.1476764e-041
28.043226 283.74609 -2.4399097 9.1476764e-041
33.104523 285.46915 -2.454726 9.1476764e-041
36.393341 288.59915 -2.4816408 9.1476764e-041
-50.345764 292.8168 -7.5348163 2.3509528e-038
-45.704346 288.96231 -7.4356322 2.3509528e-038
-40.65131 288.23795 -7.4169931 2.3509528e-038
-35.790295 288.86307 -7.4330788 2.3509528e-038
-30.871252 289.14514 -7.4403372 2.3509528e-038
-25.953491 289.54956 -7.4507437 2.3509886e-038
-21.037388 290.16803 -7.4666581 2.3509886e-038
-16.084263 290.50015 -7.4752049 2.3509886e-038
-11.095975 290.21088 -7.4677606 2.3509886e-038
-6.1155772 289.82578 -7.4578509 2.3509886e-038
-1.1503029 289.92099 -7.4603014 2.3509886e-038
3.8165226 289.88461 -7.4593658 2.3509886e-038
8.7622547 289.19318 -7.4415731 2.3509886e-038
13.663866 288.07153 -7.4127111 2.3509886e-038
18.5089 286.66858 -7.3766093 2.3509886e-038
23.312666 285.34891 -7.3426518 9.1476764e-041
28.214258 285.47665 -7.3459392 9.1476764e-041
33.416271 288.15741 -7.4149203 9.1476764e-041
35.734184 290.50754 -7.4753942 9.1476764e-041
-85.317802 271.20816 -11.62547 2.3509528e-038
-84.764328 271.36166 -11.63205 2.3509528e-038
-80.671982 273.24817 -11.712916 2.3509528e-038
-77.036674 275.05389 -11.790319 2.3509528e-038
-51.336971 293.61618 -12.586001 2.3509528e-038
-45.737957 289.1748 -12.395618 2.3509528e-038
-40.64563 288.19766 -12.353734 2.3509528e-038
-35.785191 288.82187 -12.380491 2.3509528e-038
-30.920637 289.6077 -12.414176 2.3509528e-038
-26.036219 290.4725 -12.451246 2.3509886e-038
-21.12612 291.39188 -12.490655 2.3509886e-038
-16.173069 292.1041 -12.521185 2.3509886e-038
-11.167171 292.07297 -12.519852 2.3509886e-038
-6.1481724 291.37051 -12.489739 2.3509886e-038
-1.1550763 291.12408 -12.479176 2.3509886e-038
3.8345029 291.25031 -12.484587 2.3509886e-038
8.8090181 290.73657 -12.462565 2.3509886e-038
13.735521 289.58224 -12.413084 2.3509886e-038
18.604359 288.14703 -12.351563 2.3509886e-038
23.429104 286.77414 -12.292713 9.1476764e-041
28.366564 287.0177 -12.303154 9.1476764e-041
33.688835 290.50778 -12.452759 9.1476764e-041
35.571918 292.64801 -12.5445 9.1476764e-041
-86.911079 270.36453 -16.221546 2.3509528e-038
-84.458336 270.38205 -16.222595 2.3509528e-038
-80.391594 272.29843 -16.337578 2.3509528e-038
-76.62365 275.52539 -16.531191 2.3509528e-038
-74.476738 278.50815 -16.710155 2.3509528e-038
-53.583466 293.38828 -17.602943 2.3509528e-038
-51.171604 291.90802 -17.51413 2.3509528e-038
-45.755688 289.28693 -17.356867 2.3509528e-038
-40.649963 288.22839 -17.293356 2.3509528e-038
-35.760334 288.62128 -17.316929 2.3509528e-038
-30.920362 289.6051 -17.375957 2.3509528e-038
-26.052095 290.64966 -17.438629 2.3509886e-038
-21.147429 291.68579 -17.500795 2.3509886e-038
-16.208652 292.7468 -17.564455 2.3509886e-038
-11.208746 293.16037 -17.58927 2.3509886e-038
-6.1724782 292.52237 -17.550989 2.3509886e-038
-1.15833 291.94412 -17.516294 2.3509886e-038
3.8443489 291.99817 -17.519539 2.3509886e-038
8.8376245 291.68073 -17.500492 2.3509886e-038
13.779719 290.51404 -17.430494 2.3509886e-038
18.652948 288.8996 -17.333628 2.3509886e-038
23.481968 287.4212 -17.244926 9.1476764e-041
28.427305 287.63229 -17.257589 9.1476764e-041
33.773163 291.23499 -17.473747 9.1476764e-041
35.523544 293.2449 -17.594341 9.1476764e-041
-89.042152 272.65054 -21.030087 2.3509528e-038
-84.806313 271.49606 -20.94104 2.3509528e-038
-80.707275 273.36771 -21.085403 2.3509528e-038
-77.112335 277.28262 -21.387371 2.3509528e-038
-73.459656 281.49039 -21.711924 2.3509528e-038
-70.677521 284.29901 -21.928558 2.3509528e-038
-57.842907 290.82117 -22.431625 2.3509528e-038
-55.929531 290.64313 -22.417892 2.3509528e-038
-50.8353 289.98959 -22.367485 2.3509528e-038
-45.703827 288.95901 -22.287994 2.3509528e-038
-40.657188 288.27963 -22.235592 2.3509528e-038
-35.755672 288.58365 -22.259039 2.3509528e-038
-30.91313 289.53738 -22.332603 2.3509886e-038
-26.038698 290.50018 -22.406868 2.3509886e-038
-21.134729 291.51065 -22.484806 2.3509886e-038
-16.208317 292.74072 -22.579685 2.3509886e-038
-11.225471 293.59778 -22.645792 2.3509886e-038
-6.1918974 293.44266 -22.633827 2.3509886e-038
-1.1623849 292.96609 -22.597069 2.3509886e-038
3.8544769 292.76743 -22.581745 2.3509886e-038
8.8546677 292.24326 -22.541313 2.3509886e-038
13.792254 290.77832 -22.428318 2.3509886e-038
18.65262 288.89453 -22.28302 2.3509886e-038
23.488485 287.50098 -22.175531 2.3509886e-038
28.4576 287.93881 -22.209303 2.3509886e-038
33.821026 291.64771 -22.495378 9.1476764e-041
35.544334 293.62399 -22.647814 9.1476764e-041
-90.704369 275.86142 -26.004166 2.3509528e-038
-85.700089 274.35736 -25.862385 2.3509528e-038
-81.364311 275.5932 -25.978882 2.3509528e-038
-77.486458 278.6279 -26.26495 2.3509528e-038
-73.53096 281.76361 -26.560539 2.3509528e-038
-69.331047 284.33759 -26.803175 2.3509528e-038
-65.030869 286.85828 -27.040791 2.3509528e-038
-60.415028 288.285 -27.175282 2.3509528e-038
-55.59129 288.88541 -27.231878 2.3509528e-038
-50.657917 288.97772 -27.240578 2.3509528e-038
-45.652531 288.6347 -27.208246 2.3509528e-038
-40.661972 288.31354 -27.177969 2.3509528e-038
-35.756577 288.59094 -27.204119 2.3509886e-038
-30.89533 289.37067 -27.277618 2.3509886e-038
-26.021502 290.30832 -27.366009 2.3509886e-038
-21.131836 291.47073 -27.475584 2.3509886e-038
-16.208214 292.73889 -27.595127 2.3509886e-038
-11.229458 293.70209 -27.685923 2.3509886e-038
-6.2009635 293.87234 -27.701973 2.3509886e-038
-1.165018 293.62973 -27.679102 2.3509886e-038
3.8602765 293.20795 -27.639343 2.3509886e-038
8.8609409 292.45029 -27.567921 2.3509886e-038
13.797406 290.88693 -27.420553 2.3509886e-038
18.661613 289.03381 -27.245867 2.3509886e-038
23.529629 288.00455 -27.148842 2.3509886e-038
28.573103 289.10751 -27.252813 2.3509886e-038
34.038322 293.52155 -27.668905 2.3509886e-038
35.785557 295.66721 -27.871166 2.3509886e-038
-90.857101 279.77332 -31.166365 2.3509528e-038
-87.086067 278.79437 -31.057312 2.3509528e-038
-82.232826 278.53497 -31.028414 2.3509528e-038
-77.767441 279.63828 -31.15132 2.3509528e-038
-73.461517 281.4975 -31.358437 2.3509528e-038
-69.158463 283.62976 -31.595968 2.3509528e-038
-64.746521 285.60403 -31.815897 2.3509528e-038
-60.121014 286.88208 -31.958271 2.3509528e-038
-55.345299 287.60712 -32.03904 2.3509528e-038
-50.469864 287.90494 -32.072216 2.3509528e-038
-45.535007 287.89166 -32.070736 2.3509528e-038
-40.589653 287.80075 -32.060612 2.3509886e-038
-35.688915 288.04483 -32.087799 2.3509886e-038
-30.827835 288.73849 -32.165073 2.3509886e-038
-25.975567 289.79584 -32.28286 2.3509886e-038
-21.115223 291.24158 -32.443916 2.3509886e-038
-16.203085 292.64624 -32.600388 2.3509886e-038
-11.22373 293.55228 -32.701321 2.3509886e-038
-6.2013884 293.89249 -32.73922 2.3509886e-038
-1.1667453 294.06512 -32.758453 2.3509886e-038
3.8676772 293.77008 -32.725582 2.3509886e-038
8.8752089 292.92117 -32.631016 2.3509886e-038
13.818961 291.3414 -32.455032 2.3509886e-038
18.700182 289.6312 -32.264515 2.3509886e-038
23.61475 289.04645 -32.199375 2.3509886e-038
28.757393 290.97217 -32.413898 2.3509886e-038
34.386848 296.52695 -33.032692 2.3509886e-038
36.101379 298.93173 -33.300583 2.3509886e-038
-87.975723 284.50116 -36.567463 2.3509886e-038
-83.458488 282.68646 -36.334217 2.3509528e-038
-78.457092 282.11813 -36.261166 2.3509528e-038
-73.706177 282.43503 -36.301899 2.3509528e-038
-69.101913 283.39789 -36.425659 2.3509528e-038
-64.50544 284.54062 -36.572536 2.3509528e-038
-59.802376 285.3616 -36.678062 2.3509528e-038
-55.034344 285.99118 -36.75898 2.3509528e-038
-50.205757 286.39835 -36.81131 2.3509886e-038
-45.314617 286.49829 -36.824154 2.3509886e-038
-40.407158 286.50681 -36.825253 2.3509886e-038
-35.546345 286.89413 -36.875034 2.3509886e-038
-30.730129 287.82336 -36.994473 2.3509886e-038
-25.915806 289.12915 -37.162304 2.3509886e-038
-21.077715 290.72424 -37.367329 2.3509886e-038
-16.184254 292.30612 -37.570648 2.3509886e-038
-11.217999 293.40237 -37.711552 2.3509886e-038
-6.2067013 294.14426 -37.806908 2.3509886e-038
-1.1689361 294.61731 -37.86771 2.3509886e-038
3.8736413 294.22308 -37.817039 2.3509886e-038
8.8836002 293.19815 -37.685303 2.3509886e-038
13.836798 291.71741 -37.49498 2.3509886e-038
18.743284 290.29874 -37.312634 2.3509886e-038
23.702082 290.11539 -37.289066 2.3509886e-038
28.937809 292.79767 -37.633823 2.3509886e-038
34.803505 300.1199 -38.574966 2.3509886e-038
36.270565 302.64774 -38.899876 2.3509886e-038
-82.338226 288.53094 -42.028908 2.3509886e-038
-79.958405 287.5166 -41.881153 2.3509886e-038
-74.510414 285.51675 -41.589848 2.3509886e-038
-69.354446 284.43353 -41.43206 2.3509886e-038
-64.414108 284.13773 -41.388969 2.3509886e-038
-59.544022 284.12881 -41.387672 2.3509886e-038
-54.735992 284.4408 -41.433113 2.3509886e-038
-49.89761 284.64056 -41.462212 2.3509886e-038
-44.995647 284.48163 -41.439064 2.3509886e-038
-40.11256 284.41794 -41.429783 2.3509886e-038
-35.312641 285.00793 -41.515728 2.3509886e-038
-30.575003 286.37042 -41.714195 2.3509886e-038
-25.830111 288.17307 -41.97678 2.3509886e-038
-21.026909 290.02347 -42.246319 2.3509886e-038
-16.157038 291.81461 -42.507225 2.3509886e-038
-11.217336 293.38504 -42.735977 2.3509886e-038
-6.2163467 294.60138 -42.913162 2.3509886e-038
-1.1709393 295.12213 -42.989014 2.3509886e-038
3.8786738 294.60532 -42.913731 2.3509886e-038
8.8924198 293.48923 -42.751156 2.3509886e-038
13.852358 292.04547 -42.540852 2.3509886e-038
18.774853 290.78766 -42.357635 2.3509886e-038
23.769497 290.94058 -42.37991 2.3509886e-038
29.069023 294.12527 -42.843811 2.3509886e-038
35.076553 302.47446 -44.059994 2.3509886e-038
35.797535 303.84073 -44.25901 2.3509886e-038
-76.129555 290.40225 -47.27705 2.3509886e-038
-75.705872 290.09766 -47.227459 2.3509886e-038
-70.030853 287.20761 -46.756962 2.3509886e-038
-64.674866 285.28796 -46.44445 2.3509886e-038
-59.497242 283.90561 -46.219398 2.3509886e-038
-54.54187 283.43201 -46.1423 2.3509886e-038
-49.648975 283.2222 -46.108143 2.3509886e-038
-44.732029 282.81491 -46.04184 2.3509886e-038
-39.857574 282.60995 -46.008472 2.3509886e-038
-35.086056 283.17917 -46.101139 2.3509886e-038
-30.402269 284.75256 -46.357285 2.3509886e-038
-25.724924 286.99954 -46.723091 2.3509886e-038
-20.967699 289.20682 -47.082428 2.3509886e-038
-16.126322 291.2598 -47.416653 2.3509886e-038
-11.222826 293.52866 -47.786015 2.3509886e-038
-6.2297883 295.2384 -48.064362 2.3509886e-038
-1.1735297 295.77505 -48.15173 2.3509886e-038
3.8873732 295.26608 -48.068871 2.3509886e-038
8.9162807 294.27673 -47.907806 2.3509886e-038
13.898351 293.01514 -47.702415 2.3509886e-038
18.845989 291.88943 -47.519154 2.3509886e-038
23.881855 292.31583 -47.588577 2.3509886e-038
29.232538 295.77975 -48.152496 2.3509886e-038
34.701675 302.48376 -49.243896 2.3509886e-038
-70.055244 291.51465 -52.452747 2.3509886e-038
-65.369392 288.35156 -51.88361 2.3509886e-038
-59.757652 285.14819 -51.307224 2.3509886e-038
-54.533913 283.39069 -50.990986 2.3509886e-038
-49.548107 282.64682 -50.857143 2.3509886e-038
-44.653473 282.31824 -50.798019 2.3509886e-038
-39.81432 282.30328 -50.795326 2.3509886e-038
-35.040707 282.81317 -50.887074 2.3509886e-038
-30.342312 284.19101 -51.134991 2.3509886e-038
-25.669712 286.38361 -51.529507 2.3509886e-038
-20.926762 288.64218 -51.935898 2.3509886e-038
-16.098469 290.75677 -52.31638 2.3509886e-038
-11.221944 293.50555 -52.810974 2.3509886e-038
-6.2408428 295.76227 -53.21703 2.3509886e-038
-1.1768938 296.62292 -53.371891 2.3509886e-038
3.9013989 296.33142 -53.319435 2.3509886e-038
8.9550047 295.55478 -53.179695 2.3509886e-038
13.981542 294.76901 -53.038315 2.3509886e-038
18.997162 294.23083 -52.941479 2.3509886e-038
24.125263 295.29517 -53.132984 2.3509886e-038
29.624006 299.74069 -53.932877 2.3509886e-038
34.008614 305.49112 -54.96756 2.3509886e-038
-63.769318 291.41299 -57.427311 2.3509886e-038
-60.43663 288.38809 -56.831203 2.3509886e-038
-54.836407 284.96259 -56.156158 2.3509886e-038
-49.692036 283.46783 -55.861591 2.3509886e-038
-44.779308 283.11383 -55.791832 2.3509886e-038
-39.959431 283.33218 -55.834854 2.3509886e-038
-35.165539 283.82065 -55.931122 2.3509886e-038
-30.403654 284.76553 -56.117325 2.3509886e-038
-25.675619 286.44949 -56.449173 2.3509886e-038
-20.920935 288.56177 -56.865429 2.3509886e-038
-16.098335 290.75433 -57.297508 2.3509886e-038
-11.22868 293.68173 -57.874397 2.3509886e-038
-6.253818 296.3772 -58.405571 2.3509886e-038
-1.1810331 297.6662 -58.659592 2.3509886e-038
3.9185658 297.63531 -58.653507 2.3509886e-038
8.998518 296.99094 -58.52652 2.3509886e-038
14.073892 296.716 -58.472343 2.3509886e-038
19.189577 297.211 -58.569885 2.3509886e-038
24.477423 299.60565 -59.041786 2.3509886e-038
30.208113 305.65079 -60.233078 2.3509886e-038
33.483349 310.92804 -61.273037 2.3509886e-038
-56.942425 289.89877 -62.095829 2.3509886e-038
-55.597839 288.91943 -61.886059 2.3509886e-038
-50.224243 286.50381 -61.368633 2.3509886e-038
-45.178787 285.6395 -61.183498 2.3509886e-038
-40.255424 285.43091 -61.138817 2.3509886e-038
-35.378033 285.53571 -61.161263 2.3509886e-038
-30.541994 286.06125 -61.273834 2.3509886e-038
-25.75281 287.31067 -61.541458 2.3509886e-038
-20.981421 289.39606 -61.98814 2.3509886e-038
-16.157375 291.82068 -62.507496 2.3509886e-038
-11.26895 294.73495 -63.131729 2.3509886e-038
-6.2783303 297.53888 -63.732327 2.3509886e-038
-1.1868742 299.13834 -64.074928 2.3509886e-038
3.9422112 299.4313 -64.137672 2.3509886e-038
9.0598879 299.01642 -64.048813 2.3509886e-038
14.18896 299.14197 -64.075699 2.3509886e-038
19.412146 300.65817 -64.400475 2.3509886e-038
24.893724 304.7012 -65.266479 2.3509886e-038
30.887859 312.52859 -66.943092 2.3509886e-038
32.439762 315.22131 -67.519875 2.3509886e-038
-49.335033 291.87186 -67.519188 2.3509886e-038
-46.002308 290.84613 -67.281906 2.3509886e-038
-40.83363 289.5307 -66.977608 2.3509886e-038
-35.769615 288.69617 -66.784554 2.3509886e-038
-30.83584 288.81348 -66.811691 2.3509886e-038
-25.983665 289.8862 -67.059845 2.3509886e-038
-21.153551 291.77026 -67.495682 2.3509886e-038
-16.2815 294.0625 -68.025955 2.3509886e-038
-11.347002 296.77643 -68.65377 2.3509886e-038
-6.3233137 299.67068 -69.323311 2.3509886e-038
-1.1976993 301.86673 -69.831322 2.3509886e-038
3.9888279 302.97211 -70.087029 2.3509886e-038
9.1881914 303.25101 -70.151543 2.3509886e-038
14.419723 304.00705 -70.326439 2.3509886e-038
19.797682 306.62939 -70.933075 2.3509886e-038
25.498714 312.10635 -72.200066 2.3509886e-038
30.409058 319.1687 -73.833809 2.3509886e-038
-37.763702 295.08133 -73.317337 2.3509886e-038
-36.520119 294.75348 -73.235886 2.3509886e-038
-31.454653 294.60938 -73.200073 2.3509886e-038
-26.508783 295.74469 -73.482162 2.3509886e-038
-21.532337 296.99484 -73.792778 2.3509886e-038
-16.520674 298.38226 -74.137505 2.3509886e-038
-11.496996 300.69943 -74.713242 2.3509886e-038
-6.4131546 303.92838 -75.515518 2.3509886e-038
-1.2187332 307.16806 -76.320473 2.3509886e-038
4.0779376 309.74042 -76.95961 2.3509886e-038
9.4371929 311.46918 -77.389145 2.3509886e-038
14.881232 313.73694 -77.952599 2.3509886e-038
20.545839 318.21698 -79.065735 2.3509886e-038
26.535278 324.79398 -80.699883 2.3509886e-038
26.777191 325.09384 -80.774391 2.3509886e-038
-23.658184 307.4408 -81.655701 2.3509886e-038
-22.282314 307.33923 -81.628723 2.3509886e-038
-16.986074 306.7879 -81.4823 2.3509886e-038
-11.804548 308.74335 -82.001663 2.3509886e-038
-6.5849056 312.0679 -82.884651 2.3509886e-038
-1.2511331 315.33408 -83.752151 2.3509886e-038
4.1985579 318.90216 -84.699821 2.3509886e-038
9.7684813 322.40314 -85.629669 2.3509886e-038
15.503936 326.86523 -86.814796 2.3509886e-038
18.380817 329.85843 -87.609779 2.3509886e-038
-84.915665 271.84613 -10.628383 2.3509528e-038
-88.694359 283.94308 -35.744221 2.3509886e-038
-81.208603 275.06577 -8.3594713 2.3509528e-038
-84.526268 286.30322 -39.738708 2.3509886e-038
-76.535912 275.2099 -12.517593 2.3509528e-038
-80.581383 289.75671 -43.709358 2.3509886e-038
-73.318985 280.95135 -18.939772 2.3509528e-038
-75.793343 290.43283 -47.549622 2.3509886e-038
-69.561539 285.28287 -22.769098 2.3509528e-038
-71.023048 291.27673 -51.596458 2.3509886e-038
-59.560585 262.7283 47.865406 3.5733111e-043
-63.353031 279.45718 36.046959 3.5733111e-043
-65.335617 288.20258 -24.352749 2.3509528e-038
-66.119637 291.66098 -55.642315 2.3509886e-038
-55.940632 266.93436 49.383244 3.5733111e-043
-59.335831 283.13538 28.258585 3.5733111e-043
-60.753979 289.9024 -23.892269 2.3509528e-038
-60.947155 290.82422 -59.430489 2.3509886e-038
-52.816109 274.46393 48.392151 3.5733111e-043
-55.615379 289.01062 18.771751 3.5733111e-043
-56.112144 291.5921 -20.984184 2.3509528e-038
-55.803669 289.98904 -62.91634 2.3509886e-038
-49.700607 283.51672 45.000011 3.5733111e-043
-51.474281 293.63464 2.1315479 3.5733111e-043
-51.481934 293.67828 -13.051962 2.3509528e-038
-51.025326 291.07358 -66.310509 2.3509886e-038
-45.692928 288.89014 38.651878 3.5733111e-043
-46.397415 293.34418 -69.411133 2.3509886e-038
-41.460804 293.97769 32.195957 2.3509886e-038
-41.532066 294.48294 -71.77549 2.3509886e-038
-36.682213 296.06177 27.5723 2.3509886e-038
-36.609463 295.47455 -73.835373 2.3509886e-038
-31.639017 296.33615 26.298655 2.3509886e-038
-31.887871 298.66696 -76.363014 2.3509886e-038
-23.47187 261.8634 63.325405 2.3418409e-038
-25.667191 286.35547 45.287872 2.3509886e-038
-26.463499 295.23947 31.372856 2.3509886e-038
-27.222872 303.7114 -79.389969 2.3509886e-038
-19.325102 266.55051 65.51358 2.3418409e-038
-22.364176 308.46835 -82.36721 2.3509886e-038
-15.03297 271.51263 63.247696 2.3418409e-038
-17.225374 311.10992 -84.632202 2.3509886e-038
-10.348424 270.659 59.214622 2.3418409e-038
-12.074135 315.79428 -87.017761 2.3509886e-038
-5.4614582 258.82614 55.112305 2.3509886e-038
-6.7494993 319.86819 -88.358551 2.3509886e-038
-1.0227447 257.77136 53.899742 2.3509886e-038
-1.2739233 321.07813 -88.222679 2.3509886e-038
3.5276754 267.94516 53.347256 2.3509886e-038
4.2553039 323.21231 -88.277687 2.3509886e-038
8.5928087 283.60071 48.114155 2.3509886e-038
9.875514 325.93567 -88.440849 2.3509886e-038
13.887005 292.77594 25.733027 2.3509886e-038
15.590682 328.69406 -88.153961 2.3509886e-038
18.690037 289.47403 20.52813 2.3509886e-038
21.325638 330.29465 -86.410049 2.3509886e-038
23.376089 286.12521 20.751869 2.3509886e-038
26.591267 325.47928 -81.107353 2.3509886e-038
27.918131 282.48035 25.76668 9.1476764e-041
31.390472 317.61414 -71.336334 2.3509886e-038
30.771614 265.35184 31.786547 9.1476764e-041
35.124939 302.89169 -47.352238 2.3509886e-038
34.741936 261.02393 33.52774 9.1476764e-041
38.21574 287.12344 4.5374994 9.1476764e-041
39.512405 263.00937 32.716511 9.1476764e-041
42.194485 280.86227 16.746016 9.1476764e-041
