# .PCD v0.7 - Point Cloud Data file format
VERSION 0.7
FIELDS x y z rgb
SIZE 4 4 4 4
TYPE F F F F
COUNT 1 1 1 1
WIDTH 635
HEIGHT 1
VIEWPOINT 0 0 0 1 0 0 0
POINTS 635
DATA ascii
0 0 0 9.1476764e-041
0 0 0 9.1476764e-041
-52.889252 273.89798 38.699451 3.5733111e-043
-76.480583 275.23547 -24.629339 2.3509528e-038
-16.490683 269.33981 49.47205 2.3418409e-038
-26.581509 261.59985 56.45797 2.3418409e-038
-22.881695 261.43961 56.423378 2.3418409e-038
-18.623497 264.58353 57.101898 2.3418409e-038
-14.345549 269.3793 58.136906 2.3418409e-038
-13.053476 270.52701 58.384605 2.3418409e-038
-28.239817 262.20346 52.095657 2.3418409e-038
-27.405758 261.86563 52.028545 2.3418409e-038
-22.939341 262.09827 52.07476 2.3418409e-038
-18.76535 266.59885 52.968956 2.3418409e-038
-14.524821 272.74564 54.190228 2.3418409e-038
-9.8226662 271.94427 54.031006 2.3418409e-038
-4.9748092 262.02252 52.059715 2.3418409e-038
-3.9207964 260.58609 51.774315 2.3418409e-038
-28.42824 262.91055 47.731464 2.3418409e-038
-27.515587 262.91507 47.732285 2.3418409e-038
-23.200897 265.0867 48.126545 2.3418409e-038
-19.076847 271.02426 49.20451 2.3418409e-038
-14.703931 276.10895 50.127636 2.3418409e-038
-9.7968254 271.22888 49.241657 2.3418409e-038
-4.9494591 260.68735 47.327843 2.3418409e-038
-0.48347065 261.0097 47.386364 2.3509886e-038
4.1283631 270.15182 49.04612 2.3509886e-038
4.9384198 272.02075 49.385426 2.3509886e-038
-59.968151 260.48917 42.828659 3.5733111e-043
-58.382248 259.94656 42.739449 3.5733111e-043
-54.220615 261.35538 42.971077 3.5733111e-043
-51.283436 269.45132 44.302185 3.5733111e-043
-50.003521 274.77011 45.176682 3.5733111e-043
-27.664637 267.09998 43.915585 2.3418409e-038
-23.758356 271.45605 44.631798 2.3418409e-038
-19.524239 277.38034 45.605846 2.3418409e-038
-14.863101 279.09784 45.888226 2.3418409e-038
-9.7688046 270.45313 44.466896 2.3418409e-038
-4.9554658 261.00372 42.913265 2.3418409e-038
-0.48907939 264.03766 43.412094 2.3509886e-038
4.2003641 274.86343 45.19202 2.3509886e-038
8.5893984 284.13312 46.71611 2.3509886e-038
-60.848255 262.58896 38.674713 3.5733111e-043
-58.669643 261.22617 38.474003 3.5733111e-043
-54.490982 262.6586 38.684971 3.5733111e-043
-51.708847 271.68652 40.014626 3.5733111e-043
-48.787354 281.69592 41.488834 3.5733111e-043
-47.201797 285.15869 41.998837 3.5733111e-043
-26.467638 278.77542 41.058693 2.3418409e-038
-24.548714 280.48645 41.310703 2.3418409e-038
-19.974514 283.7774 41.795399 2.3418409e-038
-15.062531 282.84268 41.65773 2.3418409e-038
-9.9170685 274.55786 40.437523 2.3418409e-038
-5.0778928 267.45193 39.390945 2.3418409e-038
-0.50376827 271.96771 40.056038 2.3509886e-038
4.2907524 280.77826 41.353676 2.3509886e-038
9.3337936 287.94214 42.408791 2.3509886e-038
10.42822 289.46893 42.633659 2.3509886e-038
-59.787643 264.45563 34.418491 3.5733111e-043
-59.368004 264.33563 34.402874 3.5733111e-043
-55.435726 267.21246 34.777287 3.5733111e-043
-52.482079 275.74921 35.888332 3.5733111e-043
-49.012253 282.99451 36.831299 3.5733111e-043
-44.982422 288.24246 37.514309 2.3509886e-038
-44.435143 288.9744 37.609573 2.3509886e-038
-25.461744 289.0433 37.618542 2.3418409e-038
-25.292622 288.98615 37.611099 2.3418409e-038
-20.286554 288.21054 37.510155 2.3418409e-038
-15.303348 287.36472 37.400074 2.3418409e-038
-10.247566 283.70782 36.924133 2.3418409e-038
-5.311945 279.77942 36.412861 2.3509886e-038
-0.5223245 281.9856 36.699993 2.3509886e-038
4.3592615 285.26135 37.126324 2.3509886e-038
9.3695917 289.04651 37.618954 2.3509886e-038
11.376169 291.35117 37.918903 2.3509886e-038
-59.15612 273.1568 30.870682 3.5733111e-043
-57.03854 274.93839 31.072025 3.5733111e-043
-53.261166 279.84265 31.62628 3.5733111e-043
-49.163712 283.86902 32.081322 3.5733111e-043
-44.932301 287.9213 32.539288 2.3509886e-038
-41.929867 292.40662 33.046188 2.3509886e-038
-25.489758 293.55978 33.176514 2.3418409e-038
-20.479284 290.94867 32.88142 2.3418409e-038
-15.476529 290.61673 32.843906 2.3418409e-038
-10.524703 291.38046 32.930222 2.3418409e-038
-5.5257959 291.04294 32.892075 2.3509886e-038
-0.53440231 288.50601 32.605366 2.3509886e-038
4.3909535 287.33521 32.473049 2.3509886e-038
9.4113665 290.33521 32.812092 2.3509886e-038
12.203029 294.28079 33.258003 2.3509886e-038
30.032114 264.40936 29.882095 2.3509886e-038
31.119631 263.53555 29.783342 2.3509886e-038
35.442699 262.11316 29.622591 2.3509886e-038
39.091587 262.82022 29.702497 2.3509886e-038
-57.990788 281.56192 26.996323 3.5733111e-043
-53.819256 282.77493 27.112627 3.5733111e-043
-49.352848 284.96106 27.322237 2.3509886e-038
-44.891888 287.66232 27.581234 2.3509886e-038
-40.503876 291.55481 27.954449 2.3509886e-038
-38.294304 293.95282 28.184372 2.3418409e-038
-27.721325 295.4462 28.327555 2.3418409e-038
-25.758112 294.30469 28.218109 2.3418409e-038
-20.548702 291.93484 27.990885 2.3418409e-038
-15.525608 291.53833 27.952868 2.3418409e-038
-10.58946 293.17331 28.109631 2.3418409e-038
-5.5820026 294.00333 28.189215 2.3509886e-038
-0.53856558 290.7536 27.877626 2.3509886e-038
4.4088688 288.50754 27.662273 2.3509886e-038
9.4189463 290.56903 27.85993 2.3509886e-038
13.349322 295.04199 28.288799 2.3509886e-038
27.304897 272.88745 26.164608 2.3509886e-038
27.530155 272.70743 26.147348 2.3509886e-038
31.822779 269.49014 25.838875 2.3509886e-038
36.260086 268.15805 25.711153 2.3509886e-038
40.918968 268.57993 25.751602 2.3509886e-038
42.14772 269.00119 25.791994 2.3509886e-038
-55.965755 285.67892 22.496265 2.3509886e-038
-54.36388 285.63647 22.492926 2.3509886e-038
-49.597694 286.37485 22.551067 2.3509886e-038
-44.890099 287.65085 22.65155 2.3509886e-038
-40.203022 289.38922 22.788439 2.3418409e-038
-35.502266 291.50455 22.955015 2.3418409e-038
-30.672358 293.07846 23.078955 2.3418409e-038
-25.651186 293.08301 23.079313 2.3418409e-038
-20.550276 291.95721 22.990662 2.3418409e-038
-15.508103 291.20959 22.931787 2.3418409e-038
-10.532658 291.60071 22.962587 2.3418409e-038
-5.542212 291.90759 22.986752 2.3509886e-038
-0.53786188 290.37372 22.865965 2.3509886e-038
4.410594 288.62045 22.727901 2.3509886e-038
9.3733635 289.16281 22.770609 2.3509886e-038
14.475451 292.14139 23.005163 2.3509886e-038
15.209717 292.34152 23.020924 2.3509886e-038
25.563704 280.96967 22.125429 2.3509886e-038
28.16836 279.02933 21.972633 2.3509886e-038
32.69706 276.89395 21.804478 2.3509886e-038
37.304134 275.87921 21.724571 2.3509886e-038
41.933601 275.23969 21.67421 2.3509886e-038
43.072933 275.3653 21.684101 2.3509886e-038
-54.073929 288.67618 17.786127 2.3509886e-038
-49.822956 287.67548 17.724472 2.3509886e-038
-44.85574 287.43069 17.709389 2.3509886e-038
-40.013683 288.02631 17.746088 2.3418409e-038
-35.228313 289.25513 17.821798 2.3418409e-038
-30.425606 290.7207 17.912096 2.3418409e-038
-25.525143 291.64288 17.968914 2.3418409e-038
-20.514837 291.45374 17.95726 2.3418409e-038
-15.472799 290.54669 17.901375 2.3418409e-038
-10.471713 289.91342 17.862358 2.3418409e-038
-5.5025992 289.82117 17.856674 2.3509886e-038
-0.53604597 289.39337 17.830315 2.3509886e-038
4.4024482 288.0874 17.749851 2.3509886e-038
9.3197575 287.50912 17.714222 2.3509886e-038
14.284539 288.28842 17.762236 2.3509886e-038
19.184278 287.69189 17.725483 2.3509886e-038
23.871141 284.79968 17.547287 2.3509886e-038
28.452595 281.84491 17.365234 2.3509886e-038
33.129166 280.55325 17.28565 2.3509886e-038
37.94817 280.64212 17.291126 2.3509886e-038
42.697384 281.10648 17.319736 2.3509886e-038
-52.399197 290.12802 12.90456 2.3509886e-038
-50.021095 288.81952 12.84636 2.3509886e-038
-44.844532 287.35889 12.781392 2.3509886e-038
-39.948315 287.55579 12.79015 2.3418409e-038
-35.146923 288.58688 12.836012 2.3418409e-038
-30.306992 289.58731 12.88051 2.3418409e-038
-25.413258 290.3645 12.915078 2.3418409e-038
-20.459213 290.66348 12.928377 2.3418409e-038
-15.446462 290.05212 12.901184 2.3418409e-038
-10.442906 289.11588 12.859541 2.3509886e-038
-5.4835691 288.81888 12.846331 2.3509886e-038
-0.53447616 288.54587 12.834188 2.3509886e-038
4.394383 287.55963 12.790321 2.3509886e-038
9.2949934 286.74515 12.754095 2.3509886e-038
14.18955 286.37137 12.737469 2.3509886e-038
19.053112 285.72488 12.708714 2.3509886e-038
23.821239 284.20438 12.641083 2.3509886e-038
28.490824 282.2236 12.552981 2.3509886e-038
33.234444 281.44479 12.51834 2.3509886e-038
38.275867 283.06558 12.590431 2.3509886e-038
41.430466 285.30035 12.689831 2.3509886e-038
-50.992695 290.60028 7.9464355 2.3509886e-038
-50.22966 290.02377 7.9306707 2.3509886e-038
-44.893524 287.67282 7.8663845 2.3509886e-038
-39.971863 287.72528 7.8678188 2.3509886e-038
-35.151241 288.62231 7.8923478 2.3418409e-038
-30.251825 289.06021 7.9043217 2.3418409e-038
-25.329302 289.40521 7.9137573 2.3418409e-038
-20.409018 289.95038 7.9286637 2.3418409e-038
-15.433167 289.80246 7.9246192 2.3418409e-038
-10.4325 288.82779 7.8979664 2.3509886e-038
-5.4717836 288.19812 7.8807483 2.3509886e-038
-0.53301615 287.75766 7.8687043 2.3509886e-038
4.388145 287.15143 7.8521271 2.3509886e-038
9.2941828 286.72015 7.8403335 2.3509886e-038
14.178173 286.14175 7.8245177 2.3509886e-038
19.025246 285.30698 7.8016911 2.3509886e-038
23.802893 283.98547 7.765554 2.3509886e-038
28.508535 282.39902 7.7221727 2.3509886e-038
33.351456 282.4357 7.7231755 2.3509886e-038
38.63702 285.73645 7.8134341 2.3509886e-038
39.555096 286.69409 7.8396211 2.3509886e-038
-49.802002 290.41748 2.9654486 2.3509886e-038
-44.929932 287.9061 2.9398053 2.3509886e-038
-40.006695 287.97598 2.9405189 2.3509886e-038
-35.155861 288.66028 2.947506 2.3509886e-038
-30.215281 288.711 2.9480238 2.3509886e-038
-25.284138 288.88919 2.9498434 2.3418409e-038
-20.3792 289.52676 2.9563537 2.3509886e-038
-15.422678 289.6055 2.9571576 2.3509886e-038
-10.427098 288.67825 2.9476895 2.3509886e-038
-5.4656191 287.87344 2.9394715 2.3509886e-038
-0.5325734 287.51862 2.9358485 2.3509886e-038
4.3898258 287.26138 2.9332218 2.3509886e-038
9.3069248 287.11322 2.9317091 2.3509886e-038
14.19808 286.54352 2.9258916 2.3509886e-038
19.033016 285.42352 2.9144552 2.3509886e-038
23.804136 284.00027 2.8999226 2.3509886e-038
28.574394 283.05142 2.8902342 2.3509886e-038
33.604271 284.57666 2.9058082 2.3509886e-038
37.949398 288.77112 2.9486375 2.3509886e-038
-48.975075 289.72577 -2.0057511 2.3509886e-038
-44.936329 287.94711 -1.9934375 2.3509886e-038
-40.047436 288.26929 -1.9956678 2.3509886e-038
-35.175442 288.82104 -1.9994876 2.3509886e-038
-30.221924 288.77448 -1.9991654 2.3509886e-038
-25.296093 289.02582 -2.0009053 2.3509886e-038
-20.386723 289.63364 -2.0051134 2.3509886e-038
-15.432949 289.79837 -2.0062537 2.3509886e-038
-10.445223 289.18005 -2.0019732 2.3509886e-038
-5.4785423 288.55411 -1.9976397 2.3509886e-038
-0.53448594 288.55112 -1.9976192 2.3509886e-038
4.4080262 288.45242 -1.9969358 2.3509886e-038
9.3372793 288.04965 -1.9941474 2.3509886e-038
14.231617 287.22037 -1.9884063 2.3509886e-038
19.060719 285.83893 -1.9788427 2.3509886e-038
23.840538 284.4346 -1.9691207 2.3509886e-038
28.702644 284.32184 -1.96834 2.3509886e-038
33.941807 287.43506 -1.9898927 2.3509886e-038
36.925896 291.23978 -2.0162323 2.3509886e-038
-48.783314 289.15784 -6.9562254 2.3509886e-038
-44.938694 287.96225 -6.9274631 2.3509886e-038
-40.075531 288.4715 -6.939714 2.3509886e-038
-35.211823 289.11978 -6.9553099 2.3509886e-038
-30.28904 289.41577 -6.96243 2.3509886e-038
-25.37702 289.95047 -6.9752932 2.3509886e-038
-20.453802 290.58661 -6.9905972 2.3509886e-038
-15.491865 290.90469 -6.9982495 2.3509886e-038
-10.499593 290.6853 -6.9929709 2.3509886e-038
-5.5099607 290.20886 -6.9815097 2.3509886e-038
-0.53781956 290.35086 -6.9849253 2.3509886e-038
4.437149 290.35815 -6.9851007 2.3509886e-038
9.3884878 289.62939 -6.9675694 2.3509886e-038
14.292445 288.44797 -6.9391479 2.3509886e-038
19.135447 286.95959 -6.9033418 2.3509886e-038
23.937603 285.59265 -6.8704581 2.3509886e-038
28.864109 285.92126 -6.8783636 2.3509886e-038
34.233757 289.90744 -6.9742579 2.3509886e-038
36.41626 292.94061 -7.0472264 2.3509886e-038
-77.685585 266.59982 -10.981449 2.3509886e-038
-74.529213 270.03827 -11.123081 2.3509528e-038
-73.854492 271.2287 -11.172115 2.3509528e-038
-49.619072 289.66974 -11.931717 2.3509886e-038
-44.960701 288.10327 -11.867192 2.3509886e-038
-40.04998 288.2876 -11.874785 2.3509886e-038
-35.206776 289.07834 -11.907356 2.3509886e-038
-30.346874 289.96841 -11.944018 2.3509886e-038
-25.466122 290.96851 -11.985213 2.3509886e-038
-20.542015 291.83987 -12.021106 2.3509886e-038
-15.570728 292.38559 -12.043584 2.3509886e-038
-10.559101 292.33276 -12.041409 2.3509886e-038
-5.5391574 291.74667 -12.017267 2.3509886e-038
-0.54027045 291.67401 -12.014274 2.3509886e-038
4.4594846 291.81976 -12.020277 2.3509886e-038
9.4398289 291.21326 -11.995295 2.3509886e-038
14.367913 289.97104 -11.944127 2.3509886e-038
19.236528 288.47546 -11.882524 2.3509886e-038
24.05802 287.0293 -11.822955 2.3509886e-038
28.99732 287.24084 -11.831668 2.3509886e-038
34.386036 291.19699 -11.994625 2.3509886e-038
36.222755 293.60822 -12.093946 2.3509886e-038
-81.709869 266.4614 -15.541285 2.3509528e-038
-78.226418 266.86688 -15.564935 2.3509528e-038
-74.713982 270.70773 -15.78895 2.3509528e-038
-71.862526 277.61032 -16.191542 2.3509528e-038
-71.733017 278.06522 -16.218071 2.3509528e-038
-52.073849 291.93866 -17.027239 2.3509886e-038
-50.355175 290.74847 -16.957821 2.3509886e-038
-45.027336 288.53027 -16.828444 2.3509886e-038
-40.025188 288.10916 -16.803883 2.3509886e-038
-35.171391 288.78778 -16.843464 2.3509886e-038
-30.340446 289.90698 -16.908741 2.3509886e-038
-25.477518 291.09872 -16.978247 2.3509886e-038
-20.570398 292.24313 -17.044994 2.3509886e-038
-15.613053 293.18036 -17.099659 2.3509886e-038
-10.596018 293.35486 -17.109837 2.3509886e-038
-5.5592017 292.80243 -17.077616 2.3509886e-038
-0.54169351 292.44229 -17.056612 2.3509886e-038
4.4692326 292.45764 -17.057507 2.3509886e-038
9.4652491 291.99747 -17.030668 2.3509886e-038
14.406597 290.75177 -16.958014 2.3509886e-038
19.282362 289.16275 -16.865334 2.3509886e-038
24.111271 287.66461 -16.777954 2.3509886e-038
29.052536 287.78778 -16.785139 2.3509886e-038
34.424049 291.51889 -17.002756 2.3509886e-038
36.167973 293.58621 -17.123331 2.3509886e-038
-84.80407 268.8931 -20.290293 2.3509528e-038
-83.270538 268.38702 -20.252106 2.3509528e-038
-78.827789 268.91846 -20.292206 2.3509528e-038
-75.301949 272.83804 -20.587973 2.3509528e-038
-72.137932 278.67426 -21.028364 2.3509528e-038
-69.295181 283.78174 -21.413769 2.3509528e-038
-55.876755 290.74152 -21.938942 2.3509886e-038
-55.323849 290.68033 -21.934326 2.3509886e-038
-50.153698 289.58517 -21.851688 2.3509886e-038
-45.002003 288.36792 -21.759836 2.3509886e-038
-40.002663 287.94699 -21.728075 2.3509886e-038
-35.139862 288.52893 -21.771984 2.3509886e-038
-30.310301 289.61893 -21.854235 2.3509886e-038
-25.44845 290.7666 -21.940836 2.3509886e-038
-20.556133 292.04044 -22.036959 2.3509886e-038
-15.62049 293.32001 -22.133512 2.3509886e-038
-10.615508 293.89444 -22.176859 2.3509886e-038
-5.5748138 293.62473 -22.156507 2.3509886e-038
-0.54312867 293.21704 -22.125744 2.3509886e-038
4.4776807 293.01047 -22.110157 2.3509886e-038
9.4790268 292.42252 -22.065788 2.3509886e-038
14.416912 290.95996 -21.955427 2.3509886e-038
19.280087 289.12866 -21.817242 2.3509886e-038
24.112738 287.68213 -21.708086 2.3509886e-038
29.083708 288.09659 -21.739361 2.3509886e-038
34.476006 291.95889 -22.030806 2.3509886e-038
36.199398 293.89484 -22.176888 2.3509886e-038
-86.815125 271.60623 -25.14871 2.3509528e-038
-84.090355 271.02936 -25.095295 2.3509528e-038
-79.717216 271.95273 -25.180792 2.3509528e-038
-76.005692 275.38791 -25.498865 2.3509528e-038
-72.375412 279.59164 -25.8881 2.3509528e-038
-68.372932 282.85165 -26.189953 2.3509528e-038
-64.081108 285.32071 -26.418568 2.3509886e-038
-59.560764 287.09604 -26.582952 2.3509886e-038
-54.831425 288.09302 -26.675264 2.3509886e-038
-49.917141 288.2193 -26.686956 2.3509886e-038
-44.927582 287.89105 -26.656565 2.3509886e-038
-39.981842 287.79712 -26.647865 2.3509886e-038
-35.118492 288.35342 -26.699373 2.3509886e-038
-30.282124 289.3497 -26.791622 2.3509886e-038
-25.426941 290.52084 -26.900063 2.3509886e-038
-20.546999 291.91068 -27.028751 2.3509886e-038
-15.619092 293.29373 -27.156811 2.3509886e-038
-10.621945 294.07266 -27.228933 2.3509886e-038
-5.583612 294.0881 -27.230364 2.3509886e-038
-0.54411244 293.74817 -27.198889 2.3509886e-038
4.4822035 293.30643 -27.157988 2.3509886e-038
9.484458 292.59003 -27.091652 2.3509886e-038
14.421983 291.06229 -26.950197 2.3509886e-038
19.285437 289.20889 -26.778584 2.3509886e-038
24.145891 288.07767 -26.673843 2.3509886e-038
29.183649 289.08655 -26.767258 2.3509886e-038
34.648354 293.41843 -27.168358 2.3509886e-038
36.380882 295.41168 -27.352917 2.3509886e-038
-86.922882 274.76782 -30.149307 2.3509528e-038
-85.200897 274.60873 -30.131853 2.3509528e-038
-80.648186 275.12866 -30.188902 2.3509528e-038
-76.445412 276.98111 -30.392164 2.3509528e-038
-72.333527 279.42984 -30.660856 2.3509528e-038
-68.124641 281.82449 -30.923613 2.3509528e-038
-63.796387 284.05298 -31.168135 2.3509886e-038
-59.252193 285.60867 -31.338837 2.3509886e-038
-54.526318 286.48996 -31.435537 2.3509886e-038
-49.69355 286.92828 -31.483635 2.3509886e-038
-44.798866 287.06625 -31.498772 2.3509886e-038
-39.900578 287.21216 -31.514782 2.3509886e-038
-35.048946 287.78241 -31.577353 2.3509886e-038
-30.219357 288.74997 -31.683519 2.3509886e-038
-25.382082 290.0083 -31.821594 2.3509886e-038
-20.521639 291.55038 -31.990801 2.3509886e-038
-15.601926 292.97141 -32.146721 2.3509886e-038
-10.61187 293.7937 -32.236954 2.3509886e-038
-5.583416 294.07779 -32.268124 2.3509886e-038
-0.54484767 294.14511 -32.275509 2.3509886e-038
4.4893556 293.77444 -32.23484 2.3509886e-038
9.4952822 292.92395 -32.141518 2.3509886e-038
14.4357 291.33914 -31.967621 2.3509886e-038
19.316603 289.67624 -31.785156 2.3509886e-038
24.232023 289.10526 -31.722506 2.3509886e-038
29.359846 290.83191 -31.911966 2.3509886e-038
34.92453 295.7572 -32.4524 2.3509886e-038
36.600311 297.83472 -32.680359 2.3509886e-038
-84.395721 278.84482 -35.374355 2.3509528e-038
-81.64431 278.52695 -35.33403 2.3509528e-038
-76.940048 278.77332 -35.365284 2.3509528e-038
-72.426048 279.78726 -35.493916 2.3509528e-038
-68.015106 281.37137 -35.69487 2.3509528e-038
-63.550598 282.95862 -35.896233 2.3509528e-038
-58.917694 283.99631 -36.027874 2.3509886e-038
-54.195293 284.7507 -36.123577 2.3509886e-038
-49.428841 285.39984 -36.205929 2.3509886e-038
-44.590714 285.73242 -36.248119 2.3509886e-038
-39.731762 285.99701 -36.281681 2.3509886e-038
-34.918613 286.71225 -36.372421 2.3509886e-038
-30.127178 287.86917 -36.519188 2.3509886e-038
-25.318218 289.27859 -36.697987 2.3509886e-038
-20.476776 290.91302 -36.905331 2.3509886e-038
-15.575568 292.47647 -37.103672 2.3509886e-038
-10.604465 293.58868 -37.24477 2.3509886e-038
-5.5883384 294.33704 -37.339703 2.3509886e-038
-0.54605341 294.79602 -37.397934 2.3509886e-038
4.4983225 294.36124 -37.342773 2.3509886e-038
9.5058994 293.2515 -37.201988 2.3509886e-038
14.455153 291.73175 -37.009193 2.3509886e-038
19.368193 290.44989 -36.846577 2.3509886e-038
24.333136 290.31165 -36.829041 2.3509886e-038
29.543165 292.64783 -37.125412 2.3509886e-038
35.260086 298.59885 -37.88036 2.3509886e-038
36.656837 300.59863 -38.134048 2.3509886e-038
-79.362648 283.21371 -40.781162 2.3509528e-038
-78.059715 282.83017 -40.725941 2.3509528e-038
-73.003899 282.01956 -40.609215 2.3509528e-038
-68.182144 282.06235 -40.615376 2.3509528e-038
-63.436916 282.45242 -40.671547 2.3509528e-038
-58.660244 282.75534 -40.71516 2.3509528e-038
-53.906887 283.23538 -40.784283 2.3509886e-038
-49.139008 283.72638 -40.854988 2.3509886e-038
-44.291462 283.81488 -40.867729 2.3509886e-038
-39.455326 284.00714 -40.895412 2.3509886e-038
-34.692585 284.85638 -41.0177 2.3509886e-038
-29.968143 286.34961 -41.232712 2.3509886e-038
-25.222116 288.1806 -41.496365 2.3509886e-038
-20.416645 290.05875 -41.766808 2.3509886e-038
-15.543636 291.87686 -42.02861 2.3509886e-038
-10.604429 293.58771 -42.274963 2.3509886e-038
-5.5991168 294.90472 -42.464607 2.3509886e-038
-0.54730809 295.47336 -42.546486 2.3509886e-038
4.5058899 294.85641 -42.457653 2.3509886e-038
9.5146351 293.521 -42.265354 2.3509886e-038
14.472306 292.07794 -42.057564 2.3509886e-038
19.412228 291.11026 -41.918221 2.3509886e-038
24.422743 291.38071 -41.957165 2.3509886e-038
29.742901 294.62637 -42.424526 2.3509886e-038
35.721748 302.50845 -43.559494 2.3509886e-038
36.371704 303.6246 -43.720215 2.3509886e-038
-73.49411 285.27872 -45.966442 2.3509528e-038
-68.651566 284.0043 -45.761101 2.3509528e-038
-63.594109 283.15234 -45.623825 2.3509528e-038
-58.594707 282.43945 -45.508957 2.3509528e-038
-53.710854 282.20538 -45.471245 2.3509528e-038
-48.870171 282.17413 -45.466209 2.3509886e-038
-43.995571 281.91882 -45.425072 2.3509886e-038
-39.177544 282.00763 -45.439381 2.3509886e-038
-34.449612 282.86136 -45.576939 2.3509886e-038
-29.778122 284.53391 -45.846436 2.3509886e-038
-25.098438 286.76746 -46.206322 2.3509886e-038
-20.339783 288.96677 -46.560692 2.3509886e-038
-15.503689 291.12674 -46.908726 2.3509886e-038
-10.60563 293.62094 -47.310612 2.3509886e-038
-5.6104298 295.50058 -47.613476 2.3509886e-038
-0.54842776 296.07785 -47.70649 2.3509886e-038
4.5142779 295.4053 -47.598122 2.3509886e-038
9.5321865 294.06241 -47.381744 2.3509886e-038
14.504494 292.72754 -47.166656 2.3509886e-038
19.466183 291.91937 -47.036442 2.3509886e-038
24.529676 292.65652 -47.155216 2.3509886e-038
29.964451 296.82098 -47.826229 2.3509886e-038
35.478672 304.97324 -49.139786 2.3509886e-038
-67.5895 287.05759 -51.171501 2.3509528e-038
-64.081436 285.32217 -50.862141 2.3509528e-038
-58.751606 283.19574 -50.483078 2.3509528e-038
-53.669571 281.98846 -50.267872 2.3509528e-038
-48.737591 281.4086 -50.164501 2.3509886e-038
-43.862152 281.0639 -50.103058 2.3509886e-038
-39.079311 281.30054 -50.145237 2.3509886e-038
-34.364037 282.15869 -50.298214 2.3509886e-038
-29.687729 283.6702 -50.567657 2.3509886e-038
-25.020216 285.87372 -50.960461 2.3509886e-038
-20.283827 288.17178 -51.370121 2.3509886e-038
-15.469033 290.47595 -51.780869 2.3509886e-038
-10.598911 293.43494 -52.308342 2.3509886e-038
-5.6171398 295.854 -52.739567 2.3509886e-038
-0.54957157 296.69537 -52.889557 2.3509886e-038
4.5267639 296.22238 -52.805237 2.3509886e-038
9.5676908 295.15775 -52.615448 2.3509886e-038
14.580699 294.26547 -52.456394 2.3509886e-038
19.59738 293.88684 -52.388901 2.3509886e-038
24.741974 295.18936 -52.621086 2.3509886e-038
30.272181 299.86929 -53.455345 2.3509886e-038
34.274132 305.42877 -54.446388 2.3509886e-038
-60.907555 286.14899 -55.912376 2.3509528e-038
-59.159966 285.16412 -55.719933 2.3509528e-038
-53.876995 283.07831 -55.312378 2.3509528e-038
-48.847301 282.04208 -55.109901 2.3509886e-038
-43.966 281.72934 -55.048794 2.3509886e-038
-39.20005 282.16962 -55.134819 2.3509886e-038
-34.463253 282.97336 -55.291866 2.3509886e-038
-29.73 284.0741 -55.506947 2.3509886e-038
-25.021435 285.88766 -55.861309 2.3509886e-038
-20.279808 288.11469 -56.296463 2.3509886e-038
-15.467291 290.44324 -56.751453 2.3509886e-038
-10.599579 293.45343 -57.33963 2.3509886e-038
-5.6248946 296.26245 -57.888504 2.3509886e-038
-0.55113554 297.53967 -58.138069 2.3509886e-038
4.5448704 297.40723 -58.112194 2.3509886e-038
9.6166096 296.66684 -57.967518 2.3509886e-038
14.684234 296.35501 -57.90659 2.3509886e-038
19.790648 296.78516 -57.990635 2.3509886e-038
25.059847 298.98181 -58.419857 2.3509886e-038
30.705645 304.16309 -59.432262 2.3509886e-038
33.091 307.38501 -60.061806 2.3509886e-038
-54.080173 285.81467 -60.744186 2.3509528e-038
-49.260681 284.42892 -60.449673 2.3509886e-038
-44.335079 284.09436 -60.378567 2.3509886e-038
-39.489605 284.25391 -60.412476 2.3509886e-038
-34.663845 284.62036 -60.49036 2.3509886e-038
-29.859753 285.3139 -60.637756 2.3509886e-038
-25.100771 286.79413 -60.952347 2.3509886e-038
-20.341085 288.98526 -61.418026 2.3509886e-038
-15.521237 291.45624 -61.943188 2.3509886e-038
-10.633842 294.40201 -62.569252 2.3509886e-038
-5.6445193 297.29608 -63.18433 2.3509886e-038
-0.55375385 298.95328 -63.536533 2.3509886e-038
4.5730772 299.25305 -63.600243 2.3509886e-038
9.6854172 298.78949 -63.501724 2.3509886e-038
14.807509 298.84293 -63.513077 2.3509886e-038
20.012009 300.10471 -63.781246 2.3509886e-038
25.438454 303.49887 -64.502602 2.3509886e-038
31.25956 309.65005 -65.809921 2.3509886e-038
31.681339 310.23425 -65.934074 2.3509886e-038
-46.715679 289.08258 -66.391838 2.3509886e-038
-45.102638 289.01279 -66.375816 2.3509886e-038
-40.044403 288.24747 -66.200043 2.3509886e-038
-35.012409 287.48242 -66.024338 2.3509886e-038
-30.119671 287.79745 -66.096695 2.3509886e-038
-25.308851 289.17157 -66.412277 2.3509886e-038
-20.497427 291.20639 -66.879601 2.3509886e-038
-15.632977 293.55447 -67.418877 2.3509886e-038
-10.704659 296.36264 -68.063805 2.3509886e-038
-5.6837182 299.36069 -68.75235 2.3509886e-038
-0.55870104 301.62408 -69.272179 2.3509886e-038
4.6266599 302.75934 -69.532898 2.3509886e-038
9.8192434 302.91797 -69.569328 2.3509886e-038
15.036932 303.47311 -69.696831 2.3509886e-038
20.384474 305.69028 -70.206032 2.3509886e-038
26.003046 310.23483 -71.249756 2.3509886e-038
29.604475 314.26462 -72.175247 2.3509886e-038
-36.012871 292.51901 -72.193047 2.3509886e-038
-35.611355 292.40027 -72.163742 2.3509886e-038
-30.60195 292.4057 -72.165077 2.3509886e-038
-25.719522 293.86377 -72.524933 2.3509886e-038
-20.79417 295.42224 -72.909554 2.3509886e-038
-15.833278 297.31567 -73.376854 2.3509886e-038
-10.838535 300.06903 -74.056381 2.3509886e-038
-5.7622519 303.49704 -74.902397 2.3509886e-038
-0.56823486 306.77106 -75.710426 2.3509886e-038
4.7281685 309.40189 -76.359711 2.3509886e-038
10.078172 310.90576 -76.730858 2.3509886e-038
15.49651 312.74823 -77.18557 2.3509886e-038
21.11204 316.60104 -78.136436 2.3509886e-038
26.306572 321.46777 -79.337547 2.3509886e-038
-21.253725 302.92133 -79.950554 2.3509886e-038
-16.236967 304.89615 -80.471779 2.3509886e-038
-11.124543 307.98727 -81.287621 2.3509886e-038
-5.9098654 311.27182 -82.15451 2.3509886e-038
-0.5828644 314.66904 -83.051155 2.3509886e-038
4.8711934 318.76114 -84.131187 2.3509886e-038
10.441823 322.12418 -85.018799 2.3509886e-038
16.151506 325.96729 -86.033112 2.3509886e-038
18.783293 328.38074 -86.670097 2.3509886e-038
-82.91478 267.24042 -17.199219 2.3509528e-038
-85.905685 276.88031 -32.935894 2.3509528e-038
-78.076874 266.35675 -11.276591 2.3509886e-038
-82.244827 280.57556 -37.769798 2.3509528e-038
-74.534271 270.05661 -10.428116 2.3509528e-038
-78.356133 283.90417 -41.767857 2.3509528e-038
-71.846161 277.54712 -15.834455 2.3509528e-038
-73.827118 285.19971 -45.678886 2.3509528e-038
-68.701263 284.2099 -22.122276 2.3509528e-038
-69.284714 286.6236 -49.714497 2.3509528e-038
-58.311234 259.63037 44.678219 3.5733111e-043
-59.600784 265.3721 33.76482 3.5733111e-043
-64.206535 285.87915 -24.974695 2.3509886e-038
-64.455193 286.98633 -53.536861 2.3509528e-038
-54.201611 261.26376 46.17778 3.5733111e-043
-58.236767 280.71408 27.592869 3.5733111e-043
-59.753906 288.02704 -24.619587 2.3509886e-038
-59.334667 286.00623 -57.029892 2.3509528e-038
-51.193745 268.98007 45.805725 3.5733111e-043
-54.749409 287.66211 19.587872 2.3509886e-038
-55.396927 291.06427 -21.476889 2.3509886e-038
-54.390327 285.77542 -60.51326 2.3509528e-038
-48.666725 280.99945 43.922127 3.5733111e-043
-50.328491 290.59439 5.2737374 2.3509886e-038
-50.30114 290.43646 -13.783804 2.3509886e-038
-49.730141 287.13956 -64.046486 2.3509886e-038
-44.978584 288.21786 38.544788 2.3509886e-038
-45.297459 290.26117 -67.494026 2.3509886e-038
-40.740799 293.26025 31.121851 2.3418409e-038
-40.620045 292.39102 -70.282127 2.3509886e-038
-35.817051 294.0892 26.334318 2.3418409e-038
-35.634117 292.58716 -72.361748 2.3509886e-038
-27.409494 261.90134 55.045898 2.3418409e-038
-27.834768 265.9649 44.470886 2.3418409e-038
-30.86902 294.95758 25.841284 2.3418409e-038
-30.893326 295.18982 -74.797897 2.3509886e-038
-22.936995 262.07144 59.615635 2.3418409e-038
-25.394215 290.14691 36.88517 2.3418409e-038
-25.741589 294.11591 32.300228 2.3418409e-038
-26.196024 299.30814 -77.445541 2.3509886e-038
-18.653738 265.01315 60.831429 2.3418409e-038
-21.318367 302.86948 -79.917068 2.3509886e-038
-14.320395 268.90695 59.004227 2.3418409e-038
-16.390152 307.77264 -82.648132 2.3509886e-038
-9.8012981 271.35275 56.439377 2.3418409e-038
-11.33428 313.79388 -85.346504 2.3509886e-038
-4.9769545 262.13553 52.459763 2.3418409e-038
-6.0268011 317.43082 -86.625648 2.3509886e-038
-0.48227566 260.36456 50.525612 2.3509886e-038
-0.59114832 319.14127 -86.775299 2.3509886e-038
4.1196957 269.58463 49.669964 2.3509886e-038
4.9300489 322.61255 -87.378197 2.3509886e-038
9.2812719 286.32184 45.712643 2.3509886e-038
10.554651 325.60486 -87.753914 2.3509886e-038
14.54032 293.45056 24.660112 2.3509886e-038
16.240068 327.75461 -87.320572 2.3509886e-038
19.228697 288.358 18.947212 2.3509886e-038
21.858986 327.80243 -84.943428 2.3509886e-038
23.85858 284.64981 19.885036 2.3509886e-038
26.838099 320.1976 -78.285973 2.3509886e-038
27.475309 272.16412 26.512753 2.3509886e-038
31.377069 310.81409 -67.002182 2.3509886e-038
31.046759 262.91846 30.548801 2.3509886e-038
35.972626 304.63297 -46.628536 2.3509886e-038
35.296253 261.03015 31.358816 2.3509886e-038
38.849133 287.30511 5.9105921 2.3509886e-038
40.274628 264.35068 28.646481 2.3509886e-038
42.762009 280.67712 17.669323 2.3509886e-038
