# .PCD v0.7 - Point Cloud Data file format
VERSION 0.7
FIELDS x y z rgb
SIZE 4 4 4 4
TYPE F F F F
COUNT 1 1 1 1
WIDTH 793
HEIGHT 1
VIEWPOINT 0 0 0 1 0 0 0
POINTS 793
DATA ascii
-23.450283 276.61826 88.589951 2.3418052e-038
52.676888 266.30301 42.643192 9.1476764e-041
-66.926239 273.27402 70.787361 3.5733111e-043
-93.149429 282.54486 -5.3228245 2.3509528e-038
7.682663 271.87283 78.107071 2.3418409e-038
-28.692852 277.96542 90.358231 2.3418052e-038
-26.285854 276.89304 90.009628 2.3418052e-038
-21.477579 275.7626 89.642159 2.3418052e-038
-18.169256 275.96732 89.70871 2.3418052e-038
-29.319201 279.07129 85.96035 2.3418052e-038
-26.369476 277.77393 85.560722 2.3418052e-038
-21.548357 276.67139 85.221123 2.3418052e-038
-16.847046 276.83429 85.271294 2.3418052e-038
4.7906141 271.56873 83.649384 2.3418409e-038
6.6113181 270.97046 83.465103 2.3418409e-038
9.3674278 270.58157 83.345314 2.3418409e-038
-28.985039 280.32663 81.568237 2.3418052e-038
-26.509392 279.24777 81.254318 2.3418052e-038
-21.646103 277.92639 80.869835 2.3418052e-038
-16.882343 277.50079 80.745995 2.3418052e-038
-15.874479 277.61887 80.78035 2.3418052e-038
1.941589 273.53506 79.592064 2.3418409e-038
2.0105445 273.48654 79.577942 2.3418409e-038
6.6160827 271.16574 78.902641 2.3418409e-038
11.231278 270.9866 78.850525 2.3418409e-038
12.279679 271.63235 79.038422 2.3418409e-038
-71.120285 274.49701 75.192566 3.5733111e-043
-67.816391 273.06134 74.799301 3.5733111e-043
-63.922844 272.51489 74.649612 3.5733111e-043
-28.535973 281.56561 77.12886 2.3418052e-038
-26.631029 280.52908 76.844925 2.3418052e-038
-21.711271 278.76312 76.361176 2.3418052e-038
-16.922733 278.1647 76.197258 2.3418409e-038
-15.186306 278.39853 76.261314 2.3418409e-038
1.074257 274.6799 75.242668 2.3418409e-038
2.0143991 274.01086 75.059402 2.3418409e-038
6.6291394 271.7009 74.426628 2.3418409e-038
11.258634 271.64664 74.411774 2.3418409e-038
13.20874 273.40192 74.892586 2.3418409e-038
-72.829681 276.44562 71.013741 3.5733111e-043
-67.975868 273.70349 70.309341 3.5733111e-043
-63.136803 272.95468 70.116982 3.5733111e-043
-60.564316 273.4877 70.253899 3.5733111e-043
-28.351555 282.91623 72.675919 2.3418409e-038
-26.737789 281.65369 72.351601 2.3418409e-038
-21.751112 279.27463 71.740463 2.3418409e-038
-16.969835 278.93893 71.654228 2.3418409e-038
-14.67322 279.57709 71.818161 2.3418409e-038
0.82683021 275.61792 70.801125 2.3418409e-038
2.0200758 274.78305 70.586662 2.3418409e-038
6.6491909 272.52271 70.00602 2.3418409e-038
11.291249 272.43359 69.983131 2.3418409e-038
13.524853 274.60263 70.540306 2.3418409e-038
-72.565132 277.48328 66.549995 3.5733111e-043
-68.263649 274.86221 65.921364 3.5733111e-043
-63.312725 273.71524 65.646286 3.5733111e-043
-58.834496 274.59195 65.856552 3.5733111e-043
-58.277153 274.91238 65.933395 3.5733111e-043
-28.371893 284.31128 68.187576 2.3418409e-038
-26.850197 282.83777 67.834183 2.3418409e-038
-21.81642 280.11319 67.180733 2.3418409e-038
-17.036705 280.03812 67.162727 2.3418409e-038
-14.051691 280.98178 67.389046 2.3418409e-038
0.74068582 276.75653 66.375687 2.3418409e-038
2.0267973 275.69736 66.121658 2.3418409e-038
6.6676912 273.28094 65.542122 2.3418409e-038
11.323344 273.20798 65.52462 2.3418409e-038
13.612445 275.46262 66.065369 2.3418409e-038
-71.246971 277.62601 61.851482 3.5733111e-043
-68.58139 276.14157 61.520775 3.5733111e-043
-63.543232 274.71176 61.202229 3.5733111e-043
-58.929577 275.03571 61.274399 3.5733111e-043
-56.123737 276.29044 61.553936 3.5733111e-043
-28.413414 284.92804 63.478283 2.3418409e-038
-26.909115 283.4584 63.150867 2.3418409e-038
-21.866619 280.75772 62.549191 2.3418409e-038
-17.072332 280.62375 62.519341 2.3418409e-038
-13.334289 281.67453 62.753445 2.3418409e-038
0.5266428 277.55435 61.835526 2.3418409e-038
2.0297222 276.09525 61.510448 2.3418409e-038
6.6769633 273.66098 60.968128 2.3418409e-038
11.351681 273.89166 61.019516 2.3418409e-038
13.65596 276.23517 61.541622 2.3418409e-038
-69.637505 277.93784 57.182907 3.5733111e-043
-68.928101 277.53763 57.100567 3.5733111e-043
-63.769058 275.68808 56.720047 3.5733111e-043
-59.028221 275.49609 56.68055 3.5733111e-043
-54.646935 277.09402 57.009308 3.5733111e-043
-53.862743 277.78165 57.150772 3.5733111e-043
-28.372166 284.84573 58.604145 2.3418409e-038
-26.921028 283.58392 58.344536 2.3418409e-038
-21.883041 280.96857 57.806454 2.3418409e-038
-17.074045 280.65186 57.741295 2.3418409e-038
-12.758137 282.14297 58.048073 2.3418409e-038
0.005180791 277.27319 57.046173 2.3418409e-038
2.0254471 275.51367 56.684166 2.3418409e-038
6.6729722 273.49741 56.269337 2.3418409e-038
11.354983 273.97137 56.366852 2.3418409e-038
13.658869 276.2908 56.844051 2.3509886e-038
-68.262672 279.08823 52.661926 3.5733111e-043
-64.082008 277.04105 52.275635 3.5733111e-043
-59.197536 276.28635 52.133228 3.5733111e-043
-54.655865 277.13931 52.294174 3.5733111e-043
-51.325706 278.80115 52.607754 2.3509886e-038
-28.203011 284.8136 53.742264 2.3418409e-038
-26.94939 283.88269 53.566601 2.3418409e-038
-21.914965 281.37845 53.094074 2.3418409e-038
-17.081474 280.77402 52.980026 2.3418409e-038
-12.447901 282.22821 53.254414 2.3418409e-038
-0.85902625 277.18039 52.301933 2.3418409e-038
2.0212359 274.94086 51.879341 2.3418409e-038
6.6673923 273.26871 51.56382 2.3509886e-038
11.34852 273.81543 51.666985 2.3509886e-038
13.646095 276.04764 52.088188 2.3509886e-038
-67.276649 281.24448 48.274372 3.5733111e-043
-64.604012 279.29776 47.940228 3.5733111e-043
-59.42448 277.34552 47.605129 3.5733111e-043
-54.736694 277.54913 47.640083 3.5733111e-043
-50.337124 279.39111 47.956249 2.3509886e-038
-48.996098 280.72946 48.185974 2.3509886e-038
-27.867804 285.77487 49.051998 2.3418409e-038
-27.066561 285.11694 48.939064 2.3418409e-038
-21.971483 282.10413 48.421928 2.3418409e-038
-17.103632 281.13824 48.256138 2.3418409e-038
-12.367935 282.17377 48.433876 2.3418409e-038
-1.946493 277.98608 47.715084 2.3418052e-038
2.0205166 274.84302 47.175587 2.3509886e-038
6.673367 273.51358 46.947399 2.3509886e-038
11.380692 274.59164 47.132442 2.3509886e-038
13.669005 276.94592 47.536545 2.3509886e-038
49.190403 266.70264 45.778332 9.1476764e-041
51.980469 266.74399 45.785427 9.1476764e-041
56.568279 268.39352 46.068562 9.1476764e-041
-66.079124 282.44733 43.66592 3.5733111e-043
-65.124611 281.5484 43.526947 3.5733111e-043
-59.639061 278.34702 43.032017 3.5733111e-043
-54.821621 277.9798 42.975243 3.5733111e-043
-50.330196 279.35263 43.187485 2.3509886e-038
-46.791012 281.70023 43.550415 2.3509886e-038
-27.223175 286.68097 44.320431 2.3418409e-038
-27.214117 286.6713 44.318932 2.3418409e-038
-21.999437 282.46304 43.66835 2.3418052e-038
-17.10293 281.12668 43.461746 2.3418052e-038
-12.353209 282.10141 43.612442 2.3418052e-038
-12.328462 282.1076 43.613396 2.3418052e-038
-3.0250435 278.95074 43.125355 2.3418052e-038
-2.7017541 278.6575 43.080017 2.3418052e-038
2.0213892 274.96173 42.508659 2.3509886e-038
6.6860218 274.03226 42.364964 2.3509886e-038
11.425806 275.68015 42.619724 2.3509886e-038
13.59021 278.04736 42.985687 2.3509886e-038
45.412937 267.63712 41.376282 9.1476764e-041
47.421616 266.67856 41.228092 9.1476764e-041
51.918758 266.42731 41.189247 9.1476764e-041
56.402931 267.90213 41.417252 9.1476764e-041
-64.345688 282.05655 38.797234 3.5733111e-043
-59.833405 279.25406 38.411747 3.5733111e-043
-54.932495 278.54199 38.313801 3.5733111e-043
-50.334324 279.37555 38.428459 3.5733111e-043
-45.855305 281.11383 38.667564 2.3509886e-038
-44.912224 282.02158 38.792423 2.3509886e-038
-26.566284 287.12106 39.493862 2.3509886e-038
-22.041477 283.00284 38.927395 2.3418052e-038
-17.120192 281.41043 38.708359 2.3418052e-038
-12.37115 282.51111 38.859764 2.3418052e-038
-12.166298 282.56821 38.867615 2.3418052e-038
-3.903527 279.93106 38.504871 2.3418052e-038
-2.7031786 278.80444 38.349903 2.3418052e-038
2.0218122 275.01923 37.829243 2.3509886e-038
6.6931982 274.32639 37.733944 2.3509886e-038
11.460477 276.51666 38.035217 2.3509886e-038
13.26152 278.68921 38.334053 2.3509886e-038
42.602341 268.85306 36.981079 9.1476764e-041
43.153683 268.40878 36.919968 9.1476764e-041
47.459286 266.89041 36.711113 9.1476764e-041
52.101273 267.36389 36.776245 9.1476764e-041
55.143562 268.591 36.945034 9.1476764e-041
-62.29784 281.4292 33.913372 3.5733111e-043
-60.014561 280.09955 33.753143 3.5733111e-043
-55.034821 279.06085 33.627972 3.5733111e-043
-50.344395 279.43146 33.672634 3.5733111e-043
-45.786282 280.69067 33.824371 3.5733111e-043
-43.188316 282.53439 34.046551 2.3509886e-038
-26.45322 288.64069 34.782383 2.3509886e-038
-22.143141 284.30814 34.260292 2.3509886e-038
-17.169197 282.21594 34.008175 2.3418052e-038
-12.380573 282.72632 34.069675 2.3418052e-038
-11.471637 282.87689 34.087822 2.3418052e-038
-4.7276769 280.91553 33.851471 2.3509886e-038
-2.7060704 279.10272 33.633018 2.3509886e-038
2.0238304 275.29376 33.174023 2.3509886e-038
6.701684 274.67416 33.099361 2.3509886e-038
11.506543 277.62817 33.45533 2.3509886e-038
12.623896 279.2262 33.6479 2.3509886e-038
39.665787 269.48569 32.474125 9.1476764e-041
43.036495 267.67987 32.256519 9.1476764e-041
47.534657 267.31427 32.212463 9.1476764e-041
52.400482 268.89932 32.403469 9.1476764e-041
53.31004 269.47684 32.473061 9.1476764e-041
-60.424221 282.32498 29.208481 3.5733111e-043
-55.323338 280.5238 29.022139 3.5733111e-043
-50.466728 280.11044 28.979372 3.5733111e-043
-45.830662 280.96277 29.067553 3.5733111e-043
-41.383568 283.30759 29.310139 2.3509886e-038
-41.0401 283.59683 29.340065 2.3509886e-038
-27.183016 290.91757 30.097445 2.3509886e-038
-22.25531 285.74835 29.562654 2.3509886e-038
-17.217787 283.01462 29.279829 2.3509886e-038
-12.373895 282.57379 29.234222 2.3509886e-038
-7.9444757 282.45956 29.222404 2.3509886e-038
-7.6686997 282.40735 29.217003 2.3509886e-038
-7.5517082 282.38266 29.214449 2.3509886e-038
-2.7118337 279.69711 28.936611 2.3509886e-038
2.0306323 276.21902 28.576777 2.3509886e-038
6.7161331 275.26639 28.47822 2.3509886e-038
11.521441 277.98764 28.759754 2.3509886e-038
11.889108 278.47662 28.810343 2.3509886e-038
36.457767 271.1691 28.054329 9.1476764e-041
38.750996 269.61182 27.893215 9.1476764e-041
43.136902 268.30438 27.757954 9.1476764e-041
47.765537 268.61261 27.789843 9.1476764e-041
50.977993 270.02484 27.935946 9.1476764e-041
-59.008991 285.33118 24.655405 3.5733111e-043
-55.901482 283.45538 24.493317 3.5733111e-043
-50.731567 281.58041 24.331301 3.5733111e-043
-45.930023 281.5719 24.330564 3.5733111e-043
-41.309826 282.80276 24.436922 2.3509886e-038
-37.184399 286.29562 24.738741 2.3509886e-038
-29.805103 291.8566 25.219263 2.3509886e-038
-27.550329 290.21289 25.07723 2.3509886e-038
-22.293531 286.23907 24.733856 2.3509886e-038
-17.245203 283.46527 24.494171 2.3509886e-038
-12.366068 282.39505 24.401695 2.3509886e-038
-7.546174 282.17572 24.38274 2.3509886e-038
-2.7192378 280.46078 24.234554 2.3509886e-038
2.0411937 277.65564 23.992163 2.3509886e-038
6.7348609 276.03397 23.852034 2.3509886e-038
11.485703 277.12534 23.946337 2.3509886e-038
11.631504 277.24353 23.956553 2.3509886e-038
32.999504 273.44305 23.628153 9.1476764e-041
34.49527 272.29886 23.529285 9.1476764e-041
38.840607 270.23526 23.350969 9.1476764e-041
43.39397 269.90329 23.322285 9.1476764e-041
48.202423 271.06946 23.423052 9.1476764e-041
48.569038 271.30603 23.443495 9.1476764e-041
-57.715717 288.02997 19.978508 3.5733111e-043
-56.587688 286.93484 19.902548 3.5733111e-043
-51.059208 283.39896 19.65729 3.5733111e-043
-46.053341 282.32788 19.582998 2.3509886e-038
-41.293545 282.69131 19.608206 2.3509886e-038
-36.655159 284.09171 19.705339 2.3509886e-038
-32.081081 286.49304 19.871902 2.3509886e-038
-27.248505 287.03354 19.909393 2.3509886e-038
-22.247896 285.65314 19.813646 2.3509886e-038
-17.259367 283.69809 19.678038 2.3509886e-038
-12.365838 282.38983 19.587294 2.3509886e-038
-7.5416174 282.00534 19.560623 2.3509886e-038
-2.7255874 281.11569 19.498915 2.3509886e-038
2.0512223 279.01981 19.35354 2.3509886e-038
6.7561188 276.90524 19.206869 2.3509886e-038
11.470337 276.75458 19.196419 2.3509886e-038
12.479194 277.1843 19.226225 2.3509886e-038
28.940817 274.98611 19.073753 9.1476764e-041
30.076601 274.33517 19.028603 9.1476764e-041
34.512341 272.43362 18.896706 9.1476764e-041
39.010639 271.4183 18.826281 9.1476764e-041
43.747604 272.10284 18.87376 9.1476764e-041
46.264614 273.18213 18.948624 9.1476764e-041
-56.282578 289.16034 15.127559 2.3509886e-038
-51.414623 285.37167 14.929352 2.3509886e-038
-46.223415 283.37051 14.824661 2.3509886e-038
-41.333275 282.96329 14.803355 2.3509886e-038
-36.570072 283.43228 14.827891 2.3509886e-038
-31.841614 284.35449 14.876138 2.3509886e-038
-27.052361 284.96735 14.908199 2.3509886e-038
-22.187979 284.88382 14.903831 2.3509886e-038
-17.271856 283.90335 14.852537 2.3509886e-038
-12.382319 282.7662 14.793045 2.3509886e-038
-7.5496821 282.30692 14.769018 2.3509886e-038
-2.7316816 281.7442 14.739579 2.3509886e-038
2.0582392 279.97427 14.646985 2.3509886e-038
6.7770247 277.76208 14.531253 2.3509886e-038
11.492607 277.29193 14.506657 2.3509886e-038
16.172382 278.7384 14.58233 2.3509886e-038
22.836298 277.60321 14.522941 9.1476764e-041
25.514444 275.57156 14.416655 9.1476764e-041
30.006258 273.69357 14.318407 9.1476764e-041
34.587616 273.02783 14.283579 9.1476764e-041
39.225056 272.91013 14.27742 9.1476764e-041
43.679489 274.49503 14.360335 9.1476764e-041
-54.96405 289.7316 10.218338 2.3509886e-038
-51.766762 287.32617 10.133503 2.3509886e-038
-46.45121 284.767 10.043245 2.3509886e-038
-41.464165 283.85934 10.011234 2.3509886e-038
-36.657925 284.11316 10.020186 2.3509886e-038
-31.865526 284.56805 10.036229 2.3509886e-038
-27.021696 284.64435 10.038919 2.3509886e-038
-22.166752 284.6113 10.037754 2.3509886e-038
-17.285431 284.1265 10.020656 2.3509886e-038
-12.4086 283.36636 9.9938478 2.3509886e-038
-7.5650468 282.88144 9.9767456 2.3509886e-038
-2.7357299 282.16177 9.9513636 2.3509886e-038
2.0623121 280.52829 9.893754 2.3509886e-038
6.7986517 278.64847 9.8274555 2.3509886e-038
11.509586 277.7016 9.7940598 2.3509886e-038
16.234818 277.55139 9.788763 2.3509886e-038
20.90872 276.78949 9.7618923 9.1476764e-041
25.458679 274.96924 9.6976957 9.1476764e-041
30.062979 274.21094 9.6709518 9.1476764e-041
34.774609 274.50394 9.6812849 9.1476764e-041
39.550961 275.17761 9.7050438 9.1476764e-041
40.839176 275.78174 9.7263508 9.1476764e-041
-54.07975 290.38757 5.2911863 2.3509886e-038
-52.04845 288.88965 5.2638922 2.3509886e-038
-46.634422 285.89017 5.2092381 2.3509886e-038
-41.57259 284.60159 5.1857591 2.3509886e-038
-36.732403 284.69037 5.187377 2.3509886e-038
-31.899668 284.87296 5.1907034 2.3509886e-038
-27.024309 284.67188 5.1870399 2.3509886e-038
-22.165846 284.59967 5.1857238 2.3509886e-038
-17.296684 284.31149 5.1804733 2.3509886e-038
-12.420326 283.63412 5.1681304 2.3509886e-038
-7.5665541 282.93781 5.1554427 2.3509886e-038
-2.7352371 282.11093 5.1403761 2.3509886e-038
2.065383 280.94601 5.1191506 2.3509886e-038
6.8278646 279.84579 5.0991035 2.3509886e-038
11.563486 279.00211 5.0837297 2.3509886e-038
16.259901 277.98022 5.0651107 2.3509886e-038
20.907047 276.76733 5.0430102 9.1476764e-041
25.528315 275.72137 5.0239515 9.1476764e-041
30.251455 275.93005 5.0277538 9.1476764e-041
35.132835 277.3317 5.0532937 9.1476764e-041
38.229073 278.57376 5.0759249 9.1476764e-041
-100.28035 283.2084 0.33248088 2.3509528e-038
-99.209846 282.94025 0.33216608 2.3509528e-038
-94.344429 282.81409 0.33201799 2.3509528e-038
-92.208969 283.29202 0.33257905 2.3509528e-038
-53.669456 291.10437 0.34175059 2.3509886e-038
-52.236809 289.93512 0.34037793 2.3509886e-038
-46.728008 286.4639 0.33630276 2.3509886e-038
-41.617886 284.91168 0.33448052 2.3509886e-038
-36.747883 284.81039 0.33436158 2.3509886e-038
-31.886078 284.75159 0.33429256 2.3509886e-038
-27.003254 284.45007 0.3339386 2.3509886e-038
-22.154284 284.45117 0.33393988 2.3509886e-038
-17.290857 284.2157 0.33366343 2.3509886e-038
-12.413179 283.47092 0.33278909 2.3509886e-038
-7.5626431 282.79156 0.33199152 2.3509886e-038
-2.7379854 282.39441 0.3315253 2.3509886e-038
2.0728664 281.96399 0.33101997 2.3509886e-038
6.8670959 281.45374 0.33042094 2.3509886e-038
11.639451 280.83493 0.32969451 2.3509886e-038
16.356754 279.63605 0.32828701 2.3509886e-038
20.99963 277.99295 0.32635808 9.1476764e-041
25.655306 277.09293 0.32530147 9.1476764e-041
30.479649 278.01147 0.32637978 9.1476764e-041
35.604866 281.0578 0.32995611 9.1476764e-041
35.956753 281.38608 0.33034152 9.1476764e-041
-102.55978 284.06122 -4.5089588 2.3509528e-038
-99.136742 282.73175 -4.4878559 2.3509528e-038
-94.110085 282.11157 -4.4780116 2.3509528e-038
-89.60231 283.06384 -4.4931273 2.3509528e-038
-85.335358 284.92856 -4.5227265 2.3509528e-038
-84.446754 285.55292 -4.5326366 2.3509528e-038
-53.7085 292.23755 -4.6387429 2.3509886e-038
-52.428707 291.00021 -4.619103 2.3509886e-038
-46.812622 286.98264 -4.5553308 2.3509886e-038
-41.680428 285.33987 -4.5292549 2.3509886e-038
-36.786579 285.11029 -4.5256114 2.3509886e-038
-31.906691 284.93564 -4.5228386 2.3509886e-038
-27.020052 284.62701 -4.51794 2.3509886e-038
-22.166485 284.60785 -4.5176358 2.3509886e-038
-17.305801 284.46133 -4.5153098 2.3509886e-038
-12.431789 283.8959 -4.5063348 2.3509886e-038
-7.5796595 283.42786 -4.4989057 2.3509886e-038
-2.7471883 283.3436 -4.4975677 2.3509886e-038
2.0827649 283.31042 -4.4970412 2.3509886e-038
6.9060464 283.05014 -4.4929094 2.3509886e-038
11.705336 282.42459 -4.4829803 2.3509886e-038
16.439182 281.04523 -4.4610853 2.3509886e-038
21.083693 279.10574 -4.4302998 2.3509886e-038
25.771185 278.34451 -4.4182162 9.1476764e-041
30.68387 279.87421 -4.4424977 9.1476764e-041
34.163048 282.46884 -4.4836831 9.1476764e-041
-101.31056 285.02618 -9.3831568 2.3509528e-038
-99.681419 284.28516 -9.3587618 2.3509528e-038
-94.280525 282.62253 -9.3040266 2.3509528e-038
-89.533363 282.84604 -9.3113842 2.3509528e-038
-85.27877 284.73962 -9.373723 2.3509528e-038
-81.275162 287.75043 -9.4728394 2.3509528e-038
-79.81295 289.02548 -9.5148144 2.3509528e-038
-54.038647 293.73889 -9.669982 2.3509528e-038
-52.650291 292.2301 -9.6203117 2.3509528e-038
-46.91156 287.58917 -9.4675303 2.3509886e-038
-41.742085 285.76196 -9.4073782 2.3509886e-038
-36.841385 285.53506 -9.399909 2.3509886e-038
-31.981636 285.60492 -9.4022093 2.3509886e-038
-27.114529 285.62225 -9.4027786 2.3509886e-038
-22.250923 285.69202 -9.405076 2.3509886e-038
-17.382435 285.72101 -9.4060307 2.3509886e-038
-12.496364 285.37051 -9.3944921 2.3509886e-038
-7.6174259 284.84009 -9.3770294 2.3509886e-038
-2.7583728 284.49713 -9.3657398 2.3509886e-038
2.0910177 284.43301 -9.3636293 2.3509886e-038
6.9369497 284.31674 -9.3598013 2.3509886e-038
11.753304 283.58197 -9.3356123 2.3509886e-038
16.493311 281.97061 -9.2825661 2.3509886e-038
21.157413 280.0817 -9.2203817 2.3509886e-038
25.891544 279.64447 -9.2059879 2.3509886e-038
30.853434 281.42084 -9.2644663 9.1476764e-041
33.09721 283.00287 -9.3165474 9.1476764e-041
-98.250679 285.47928 -14.264687 2.3509528e-038
-94.703491 283.89041 -14.185296 2.3509528e-038
-89.702469 283.38028 -14.159805 2.3509528e-038
-85.317635 284.86938 -14.234212 2.3509528e-038
-81.221581 287.5607 -14.36869 2.3509528e-038
-77.048462 290.30737 -14.505935 2.3509528e-038
-75.269424 291.43909 -14.562484 2.3509528e-038
-54.783123 295.09311 -14.745067 2.3509528e-038
-52.807446 293.10239 -14.645596 2.3509528e-038
-47.044426 288.40369 -14.410812 2.3509528e-038
-41.801395 286.168 -14.299101 2.3509886e-038
-36.86834 285.74399 -14.277914 2.3509886e-038
-32.043926 286.16122 -14.298762 2.3509886e-038
-27.208994 286.61731 -14.321551 2.3509886e-038
-22.339094 286.8241 -14.331884 2.3509886e-038
-17.468342 287.13309 -14.347324 2.3509886e-038
-12.565943 286.95947 -14.338649 2.3509886e-038
-7.6514978 286.11414 -14.296409 2.3509886e-038
-2.7659786 285.28159 -14.254809 2.3509886e-038
2.0954697 285.0386 -14.242667 2.3509886e-038
6.9541364 285.02115 -14.241796 2.3509886e-038
11.789096 284.44556 -14.213035 2.3509886e-038
16.56027 283.11533 -14.146566 2.3509886e-038
21.271559 281.59271 -14.070486 2.3509886e-038
26.03772 281.22324 -14.052023 2.3509886e-038
30.975672 282.5358 -14.117609 2.3509886e-038
32.668869 283.39166 -14.160375 2.3509886e-038
-94.535614 286.53207 -19.201845 2.3509528e-038
-90.573624 286.13232 -19.175056 2.3509528e-038
-85.757385 286.33765 -19.188814 2.3509528e-038
-81.230042 287.59067 -19.272787 2.3509528e-038
-76.855804 289.58148 -19.4062 2.3509528e-038
-72.395134 291.49753 -19.534603 2.3509528e-038
-69.043465 292.83206 -19.624035 2.3509528e-038
-56.885025 295.7507 -19.819628 2.3509528e-038
-52.790981 293.01099 -19.636026 2.3509528e-038
-47.180462 289.23764 -19.383156 2.3509528e-038
-41.919708 286.97794 -19.231724 2.3509528e-038
-36.94397 286.33011 -19.188309 2.3509886e-038
-32.112831 286.77655 -19.218227 2.3509886e-038
-27.273226 287.29395 -19.252899 2.3509886e-038
-22.391872 287.50174 -19.266827 2.3509886e-038
-17.519434 287.9729 -19.298401 2.3509886e-038
-12.613418 288.04361 -19.303139 2.3509886e-038
-7.6778307 287.09879 -19.239822 2.3509886e-038
-2.77315 286.02124 -19.167612 2.3509886e-038
2.1002841 285.69348 -19.145647 2.3509886e-038
6.9717484 285.74301 -19.148964 2.3509886e-038
11.82997 285.43176 -19.128109 2.3509886e-038
16.639574 284.47113 -19.06373 2.3509886e-038
21.385477 283.10077 -18.971897 2.3509886e-038
26.15369 282.4758 -18.930014 2.3509886e-038
31.052389 283.23553 -18.98093 2.3509886e-038
32.56432 283.75977 -19.01606 2.3509886e-038
-91.335342 290.95251 -24.458006 2.3509528e-038
-86.649849 289.31754 -24.320568 2.3509528e-038
-81.548973 288.71982 -24.270325 2.3509528e-038
-76.876442 289.65924 -24.349293 2.3509528e-038
-72.308098 291.14713 -24.474365 2.3509528e-038
-67.593552 292.22223 -24.564743 2.3509528e-038
-62.863789 293.39746 -24.663534 2.3509528e-038
-57.951408 293.84976 -24.701555 2.3509528e-038
-52.683041 292.41187 -24.580683 2.3509528e-038
-47.303234 289.99026 -24.377121 2.3509528e-038
-42.095039 288.17822 -24.224798 2.3509528e-038
-37.081161 287.39343 -24.158825 2.3509886e-038
-32.192127 287.48468 -24.166494 2.3509886e-038
-27.319941 287.78601 -24.191824 2.3509886e-038
-22.432472 288.02301 -24.21175 2.3509886e-038
-17.551304 288.49673 -24.251572 2.3509886e-038
-12.646153 288.79117 -24.276321 2.3509886e-038
-7.703639 288.06384 -24.215181 2.3509886e-038
-2.7839646 287.13669 -24.137241 2.3509886e-038
2.1094909 286.94583 -24.121197 2.3509886e-038
7.0025077 287.00369 -24.126062 2.3509886e-038
11.875934 286.54077 -24.087151 2.3509886e-038
16.69203 285.36792 -23.988554 2.3509886e-038
21.452866 283.99289 -23.872969 2.3509886e-038
26.242388 283.43381 -23.82597 2.3509886e-038
31.165613 284.26828 -23.896118 2.3509886e-038
32.624058 284.79465 -23.940367 2.3509886e-038
-87.241531 293.82187 -29.708033 2.3509886e-038
-82.610298 292.47739 -29.572094 2.3509886e-038
-77.453102 291.832 -29.50684 2.3509528e-038
-72.510231 291.96097 -29.519878 2.3509528e-038
-67.601616 292.25708 -29.549816 2.3509528e-038
-62.671936 292.50204 -29.574587 2.3509528e-038
-57.705006 292.60037 -29.584526 2.3509528e-038
-52.583248 291.858 -29.509466 2.3509528e-038
-47.359852 290.33737 -29.355721 2.3509528e-038
-42.208458 288.95471 -29.215919 2.3509528e-038
-37.168491 288.07025 -29.126493 2.3509886e-038
-32.227318 287.79895 -29.09906 2.3509886e-038
-27.340694 288.00464 -29.119858 2.3509886e-038
-22.469261 288.49539 -29.169477 2.3509886e-038
-17.590006 289.13293 -29.233938 2.3509886e-038
-12.6789 289.53897 -29.274994 2.3509886e-038
-7.7289624 289.01077 -29.221586 2.3509886e-038
-2.7958996 288.36761 -29.156561 2.3509886e-038
2.1199782 288.37241 -29.157043 2.3509886e-038
7.0351834 288.34293 -29.154062 2.3509886e-038
11.913909 287.45703 -29.064489 2.3509886e-038
16.71961 285.83942 -28.900934 2.3509886e-038
21.503086 284.65768 -28.781452 2.3509886e-038
26.359701 284.70084 -28.785816 2.3509886e-038
31.364031 286.07809 -28.925066 2.3509886e-038
32.683868 286.65601 -28.983498 2.3509886e-038
-83.727455 298.61691 -35.283421 2.3509886e-038
-78.45591 295.61044 -34.928188 2.3509886e-038
-72.913811 293.586 -34.688984 2.3509528e-038
-67.704544 292.70209 -34.584545 2.3509528e-038
-62.620461 292.26178 -34.53252 2.3509528e-038
-57.564297 291.88687 -34.488224 2.3509528e-038
-52.446823 291.10077 -34.39534 2.3509528e-038
-47.280666 289.85193 -34.247784 2.3509528e-038
-42.169342 288.68692 -34.11013 2.3509528e-038
-37.146606 287.90063 -34.017223 2.3509886e-038
-32.210495 287.64871 -33.987457 2.3509886e-038
-27.337036 287.96609 -34.02496 2.3509886e-038
-22.487127 288.72479 -34.114601 2.3509886e-038
-17.624805 289.70493 -34.230412 2.3509886e-038
-12.71243 290.30469 -34.301277 2.3509886e-038
-7.756618 290.04489 -34.27058 2.3509886e-038
-2.808295 289.64609 -34.223461 2.3509886e-038
2.1286614 289.55353 -34.212521 2.3509886e-038
7.0563431 289.21017 -34.171955 2.3509886e-038
11.939915 288.0845 -34.038948 2.3509886e-038
16.75407 286.42856 -33.843288 2.3509886e-038
21.574003 285.5965 -33.744976 2.3509886e-038
26.508261 286.30536 -33.828735 2.3509886e-038
31.619385 288.40723 -34.077084 2.3509886e-038
32.448601 288.87076 -34.131851 2.3509886e-038
-79.511147 299.30563 -40.467125 2.3509886e-038
-79.417191 299.23242 -40.457226 2.3509886e-038
-73.404823 295.56305 -39.961109 2.3509886e-038
-67.862061 293.38306 -39.666374 2.3509886e-038
-62.56876 292.02051 -39.482151 2.3509886e-038
-57.41317 291.12054 -39.360474 2.3509528e-038
-52.270096 290.11984 -39.225178 2.3509528e-038
-47.110287 288.80743 -39.047729 2.3509528e-038
-42.015099 287.63098 -38.888672 2.3509886e-038
-37.034729 287.03354 -38.807896 2.3509886e-038
-32.141998 287.03702 -38.808365 2.3509886e-038
-27.300623 287.58252 -38.882118 2.3509886e-038
-22.472048 288.53116 -39.01038 2.3509886e-038
-17.633516 289.84811 -39.188438 2.3509886e-038
-12.741467 290.96777 -39.339813 2.3509886e-038
-7.7919393 291.36569 -39.393616 2.3509886e-038
-2.8237524 291.24036 -39.376671 2.3509886e-038
2.1375306 290.75998 -39.311722 2.3509886e-038
7.072166 289.8587 -39.189869 2.3509886e-038
11.959403 288.55469 -39.013561 2.3509886e-038
16.795765 287.14139 -38.822475 2.3509886e-038
21.660772 286.74515 -38.768906 2.3509886e-038
26.683008 288.19275 -38.964626 2.3509886e-038
32.009327 291.96399 -39.47451 2.3509886e-038
32.042248 291.99417 -39.478592 2.3509886e-038
-75.711411 299.95883 -45.668877 2.3509886e-038
-74.249519 298.9642 -45.517445 2.3509886e-038
-68.283958 295.20703 -44.945412 2.3509886e-038
-62.6423 292.36371 -44.512512 2.3509886e-038
-57.33548 290.72662 -44.263271 2.3509886e-038
-52.146477 289.43372 -44.066422 2.3509886e-038
-46.960464 287.88898 -43.831238 2.3509886e-038
-41.846424 286.47626 -43.61615 2.3509886e-038
-36.870159 285.75809 -43.506805 2.3509886e-038
-32.006706 285.82883 -43.517578 2.3509886e-038
-27.215355 286.6843 -43.647827 2.3509886e-038
-22.434414 288.04794 -43.855438 2.3509886e-038
-17.630516 289.79877 -44.122002 2.3509886e-038
-12.770655 291.63431 -44.401466 2.3509886e-038
-7.8287573 292.74243 -44.570179 2.3509886e-038
-2.8389492 292.80777 -44.580124 2.3509886e-038
2.146945 292.04059 -44.463322 2.3509886e-038
7.0936856 290.74069 -44.265411 2.3509886e-038
11.986489 289.20822 -44.032093 2.3509886e-038
16.842983 287.94864 -43.840321 2.3509886e-038
21.759443 288.05133 -43.855953 2.3509886e-038
26.89864 290.5217 -44.232071 2.3509886e-038
31.731558 295.88885 -45.049221 2.3509886e-038
-71.783295 300.9794 -50.955097 2.3509886e-038
-68.991226 298.26471 -50.495506 2.3509886e-038
-62.882343 293.48404 -49.68615 2.3509886e-038
-57.352966 290.81531 -49.234337 2.3509886e-038
-52.102531 289.18982 -48.959148 2.3509886e-038
-46.907349 287.56335 -48.683792 2.3509886e-038
-41.780594 286.02557 -48.42345 2.3509886e-038
-36.787205 285.11511 -48.269314 2.3509886e-038
-31.931822 285.16006 -48.27692 2.3509886e-038
-27.179913 286.31097 -48.471767 2.3509886e-038
-22.433306 288.03372 -48.763424 2.3509886e-038
-17.640202 289.95801 -49.089199 2.3509886e-038
-12.798302 292.26569 -49.479881 2.3509886e-038
-7.8594079 293.88855 -49.754631 2.3509886e-038
-2.8516896 294.12177 -49.794117 2.3509886e-038
2.1561732 293.29584 -49.654285 2.3509886e-038
7.1227078 291.93021 -49.423088 2.3509886e-038
12.036947 290.42569 -49.168377 2.3509886e-038
16.927994 289.40195 -48.995064 2.3509886e-038
21.90551 289.98499 -49.093765 2.3509886e-038
27.1217 292.93091 -49.592506 2.3509886e-038
31.273174 297.89044 -50.432144 2.3509886e-038
-66.829094 298.21545 -55.570908 2.3509886e-038
-63.258968 295.24179 -55.016785 2.3509886e-038
-57.586891 292.00143 -54.412956 2.3509886e-038
-52.208176 289.77618 -53.998291 2.3509886e-038
-46.965614 287.92053 -53.652504 2.3509886e-038
-41.846527 286.47696 -53.383503 2.3509886e-038
-36.866398 285.72891 -53.244102 2.3509886e-038
-32.003361 285.79898 -53.25716 2.3509886e-038
-27.235453 286.89603 -53.46159 2.3509886e-038
-22.474501 288.56265 -53.77216 2.3509886e-038
-17.668425 290.42191 -54.118622 2.3509886e-038
-12.823995 292.85242 -54.571533 2.3509886e-038
-7.8847308 294.83545 -54.941063 2.3509886e-038
-2.862926 295.28073 -55.024036 2.3509886e-038
2.164829 294.4733 -54.873573 2.3509886e-038
7.1543078 293.22534 -54.641026 2.3509886e-038
12.105569 292.08139 -54.42786 2.3509886e-038
17.067572 291.78821 -54.373226 2.3509886e-038
22.150345 293.2261 -54.641167 2.3509886e-038
27.426092 296.21851 -55.198788 2.3509886e-038
30.682356 299.17264 -55.749275 2.3509886e-038
-62.442085 298.46072 -60.704514 2.3509886e-038
-58.291801 295.57578 -60.117737 2.3509886e-038
-52.586353 291.87521 -59.365074 2.3509886e-038
-47.161716 289.12274 -58.805241 2.3509886e-038
-42.003407 287.55096 -58.485558 2.3509886e-038
-37.008324 286.82889 -58.338692 2.3509886e-038
-32.114975 286.79572 -58.331944 2.3509886e-038
-27.301895 287.59592 -58.494701 2.3509886e-038
-22.519213 289.13675 -58.80809 2.3509886e-038
-17.708229 291.07617 -59.20256 2.3509886e-038
-12.856292 293.58994 -59.713837 2.3509886e-038
-7.9113936 295.83246 -60.169945 2.3509886e-038
-2.8748593 296.51151 -60.30806 2.3509886e-038
2.1746278 295.80615 -60.164593 2.3509886e-038
7.1925793 294.79395 -59.958717 2.3509886e-038
12.193081 294.19284 -59.836464 2.3509886e-038
17.250349 294.91299 -59.982933 2.3509886e-038
22.49481 297.7861 -60.567303 2.3509886e-038
27.974731 302.14417 -61.453697 2.3509886e-038
30.212708 304.17227 -61.866199 2.3509886e-038
-57.737732 300.13022 -66.160439 2.3509886e-038
-53.417336 296.48752 -65.357437 2.3509886e-038
-47.725975 292.58188 -64.49649 2.3509886e-038
-42.34877 289.91525 -63.908657 2.3509886e-038
-37.212116 288.40833 -63.576473 2.3509886e-038
-32.259243 288.08405 -63.504993 2.3509886e-038
-27.407423 288.70755 -63.642433 2.3509886e-038
-22.605928 290.25012 -63.982479 2.3509886e-038
-17.781195 292.27554 -64.428963 2.3509886e-038
-12.905457 294.71271 -64.966202 2.3509886e-038
-7.9418311 296.97061 -65.463936 2.3509886e-038
-2.8887405 297.94321 -65.678337 2.3509886e-038
2.1882637 297.66101 -65.616127 2.3509886e-038
7.2492509 297.11667 -65.496132 2.3509886e-038
12.314828 297.13034 -65.499146 2.3509886e-038
17.483894 298.90567 -65.890495 2.3509886e-038
22.962725 303.98038 -67.009163 2.3509886e-038
28.931629 312.47922 -68.882645 2.3509886e-038
29.817026 313.8912 -69.193901 2.3509886e-038
-51.906181 303.05893 -71.972351 2.3509886e-038
-49.03828 300.62689 -71.394775 2.3509886e-038
-43.185822 295.64563 -70.211792 2.3509886e-038
-37.711769 292.28088 -69.412704 2.3509886e-038
-32.576782 290.91974 -69.089455 2.3509886e-038
-27.613674 290.88019 -69.080063 2.3509886e-038
-22.75606 292.17776 -69.388222 2.3509886e-038
-17.898256 294.19971 -69.868408 2.3509886e-038
-12.986194 296.55646 -70.428093 2.3509886e-038
-7.9935203 298.90344 -70.985474 2.3509886e-038
-2.9118874 300.33054 -71.324394 2.3509886e-038
2.2103453 300.6647 -71.403748 2.3509886e-038
7.3390594 300.79755 -71.435303 2.3509886e-038
12.501727 301.63983 -71.63533 2.3509886e-038
17.824152 304.72275 -72.367485 2.3509886e-038
23.620718 312.69089 -74.259811 2.3509886e-038
28.927023 323.68677 -76.871178 2.3509886e-038
-43.715431 304.21127 -77.431938 2.3509886e-038
-38.658886 299.6214 -76.263664 2.3509886e-038
-33.200848 296.49286 -75.467339 2.3509886e-038
-28.026493 295.22879 -75.145592 2.3509886e-038
-23.052124 295.9791 -75.336578 2.3509886e-038
-18.117426 297.80231 -75.800644 2.3509886e-038
-13.14386 300.15695 -76.399979 2.3509886e-038
-8.1000376 302.88644 -77.094734 2.3509886e-038
-2.9604137 305.33551 -77.718102 2.3509886e-038
2.2572274 307.04184 -78.15242 2.3509886e-038
7.526618 308.4848 -78.519691 2.3509886e-038
12.883387 310.84845 -79.121323 2.3509886e-038
18.495947 316.20779 -80.485458 2.3509886e-038
24.693666 326.89456 -83.205597 2.3509886e-038
26.465389 330.61633 -84.152908 2.3509886e-038
-31.021002 302.86346 -82.251839 2.3509886e-038
-28.729614 302.63541 -82.189896 2.3509886e-038
-23.660809 303.79431 -82.504639 2.3509886e-038
-18.555468 305.00253 -82.832771 2.3509886e-038
-13.442829 306.98431 -83.370979 2.3509886e-038
-8.2978182 310.2821 -84.266594 2.3509886e-038
-3.0468354 314.24902 -85.343933 2.3509886e-038
2.3417203 318.5351 -86.50795 2.3509886e-038
7.859787 322.14001 -87.486969 2.3509886e-038
13.498832 325.69781 -88.453194 2.3509886e-038
19.491692 333.23108 -90.499092 2.3509886e-038
19.638975 333.46869 -90.563614 2.3509886e-038
-99.251953 283.06033 0.779872 2.3509528e-038
-100.08342 285.43161 -11.686234 2.3509528e-038
-94.428848 283.06714 1.020573 2.3509528e-038
-95.364418 285.87167 -17.986269 2.3509528e-038
-89.775696 283.6116 -0.78141105 2.3509528e-038
-91.906708 290.34366 -23.629528 2.3509528e-038
-85.355827 284.99689 -3.7456698 2.3509528e-038
-87.829399 293.25595 -28.896381 2.3509886e-038
-81.331802 287.95096 -7.7694364 2.3509528e-038
-84.208763 298.13669 -34.57275 2.3509886e-038
-77.164131 290.74319 -12.593773 2.3509528e-038
-79.434135 299.29626 -40.557762 2.3509886e-038
-67.805946 273.01929 76.45829 3.5733111e-043
-69.092316 278.19885 55.542431 3.5733111e-043
-72.568405 292.19519 -17.046484 2.3509528e-038
-74.644493 300.55453 -47.296356 2.3509886e-038
-63.062035 272.63147 73.756218 3.5733111e-043
-65.321701 282.40048 41.379063 3.5733111e-043
-67.790848 293.0752 -20.375723 2.3509528e-038
-69.301201 299.60477 -53.266903 2.3509886e-038
-58.825573 274.55032 67.046776 3.5733111e-043
-60.477669 282.26096 29.357359 3.5733111e-043
-63.124165 294.61267 -22.133284 2.3509528e-038
-63.814758 297.83578 -58.890575 2.3509886e-038
-54.69268 277.32599 58.723049 3.5733111e-043
-56.949535 288.76965 17.377775 3.5733111e-043
-58.309933 295.66769 -21.200819 2.3509528e-038
-59.12154 299.78308 -64.67598 2.3509886e-038
-50.362015 279.52924 50.826443 2.3509886e-038
-54.288006 301.32007 -69.555855 2.3509886e-038
-45.973476 281.83826 41.607849 2.3509886e-038
-49.644306 304.34213 -73.958458 2.3509886e-038
-41.402195 283.43512 29.99119 2.3509886e-038
-44.457718 304.35291 -77.085335 2.3509886e-038
-36.966682 286.50613 24.57283 2.3509886e-038
-39.168419 303.57043 -79.478859 2.3509886e-038
-32.496181 290.19995 23.470531 2.3509886e-038
-33.878227 302.54199 -81.206253 2.3509886e-038
-26.274103 276.76926 93.756233 2.3418052e-038
-27.215536 286.68625 44.272068 2.3418409e-038
-27.675371 291.53009 28.641808 2.3509886e-038
-28.863197 304.04254 -83.292923 2.3509886e-038
-21.444719 275.3407 94.116875 2.3418052e-038
-24.065414 308.98929 -86.207283 2.3509886e-038
-16.841993 276.83755 85.249504 2.3418052e-038
-18.994183 312.21384 -88.384659 2.3509886e-038
-12.353824 282.11545 46.10429 2.3418052e-038
-13.776073 314.59436 -89.767487 2.3509886e-038
-7.551744 282.384 29.26375 2.3509886e-038
-8.5178518 318.50989 -90.764603 2.3509886e-038
-2.7018423 278.66663 44.588055 2.3418052e-038
-3.1297445 322.80023 -91.445251 2.3509886e-038
2.0104046 273.4675 79.771461 2.3418409e-038
2.4066067 327.36136 -92.130379 2.3509886e-038
6.6114106 270.97424 84.18885 2.3418409e-038
8.0584965 330.2843 -92.392097 2.3509886e-038
11.223743 270.80481 81.172791 2.3418409e-038
13.724273 331.13724 -91.786354 2.3509886e-038
16.305056 278.75217 14.507899 2.3509886e-038
19.504656 333.45273 -90.629715 2.3509886e-038
21.023066 278.30316 13.904626 2.3509886e-038
25.100153 332.27563 -86.29538 2.3509886e-038
25.568598 276.15643 16.142267 9.1476764e-041
29.518002 318.81241 -72.828751 2.3509886e-038
30.11281 274.66544 20.302984 9.1476764e-041
32.029175 292.14502 -39.68552 2.3509886e-038
34.512047 272.4313 25.537418 9.1476764e-041
35.682587 281.67133 -0.37002718 9.1476764e-041
38.788273 269.87119 31.221674 9.1476764e-041
39.780212 276.77261 7.9124188 9.1476764e-041
43.200336 268.69894 37.938343 9.1476764e-041
44.126698 274.46072 15.07687 9.1476764e-041
47.443027 266.79898 44.056854 9.1476764e-041
48.273624 271.46988 22.887997 9.1476764e-041
52.113415 267.42618 47.53447 9.1476764e-041
52.543133 269.63135 30.912073 9.1476764e-041
