# .PCD v0.7 - Point Cloud Data file format
VERSION 0.7
FIELDS x y z rgb
SIZE 4 4 4 4
TYPE F F F F
COUNT 1 1 1 1
WIDTH 404
HEIGHT 1
VIEWPOINT 0 0 0 1 0 0 0
POINTS 404
DATA ascii
0 0 0 2.3418409e-038
0 0 0 2.3418409e-038
0 0 0 2.3418409e-038
-7.3996382 314.22861 32.558403 2.3509528e-038
0 0 0 2.3418409e-038
-8.5271511 314.74036 40.179371 2.3509528e-038
-4.107101 313.60229 40.034088 2.3509528e-038
-3.1035466 313.60593 40.03455 2.3509528e-038
-12.864215 316.21036 35.530476 2.3509528e-038
-8.9126358 313.91479 35.272537 2.3509528e-038
-4.1006899 313.11273 35.182415 2.3509528e-038
0.085467912 314.2117 35.305897 2.3509528e-038
-14.618619 318.52304 30.918409 2.3509528e-038
-13.885098 317.82947 30.851086 2.3509528e-038
-8.9421682 314.95496 30.572063 2.3509528e-038
-4.1213574 314.69089 30.546431 2.3509528e-038
0.6957829 316.43176 30.715414 2.3509528e-038
1.6501738 317.15845 30.785954 2.3509528e-038
-15.725244 321.28433 26.27228 2.3509528e-038
-13.969836 319.76907 26.148375 2.3509528e-038
-9.0086489 317.29651 25.946184 2.3509528e-038
-4.1558542 317.32492 25.948507 2.3509528e-038
0.70152467 319.04303 26.089003 2.3509528e-038
2.5868967 320.54456 26.211784 2.3509528e-038
-16.172726 323.9458 21.535046 2.3509886e-038
-14.082536 322.34882 21.428883 2.3509528e-038
-9.090147 320.16696 21.28384 2.3509528e-038
-4.1944323 320.2706 21.29073 2.3509528e-038
0.70802349 321.9986 21.405602 2.3509528e-038
2.6288228 323.44125 21.501505 2.3509528e-038
-15.963105 326.67169 16.719694 2.3509886e-038
-14.213291 325.34177 16.651625 2.3509886e-038
-9.174675 323.14417 16.539146 2.3509528e-038
-4.2325253 323.17923 16.540941 2.3509528e-038
0.71512741 325.22934 16.64587 2.3509528e-038
2.3297091 326.57428 16.714706 2.3509528e-038
-15.497372 329.37723 11.820222 2.3509886e-038
-14.347871 328.4223 11.785954 2.3509886e-038
-9.2562895 326.01874 11.699697 2.3509528e-038
-4.2691031 325.97214 11.698025 2.3509528e-038
0.72270256 328.67441 11.795 2.3509528e-038
2.401176 330.44727 11.858622 2.3509528e-038
-15.059884 331.94714 6.8351936 2.3509886e-038
-14.478498 331.41235 6.8241816 2.3509886e-038
-9.3340397 328.75723 6.7695088 2.3509528e-038
-4.306591 328.83459 6.7711024 2.3509528e-038
0.73063815 332.28342 6.8421178 2.3509528e-038
3.1588621 335.19476 6.9020662 2.3509528e-038
-14.851746 334.84442 1.7732837 2.3509886e-038
-14.617576 334.59583 1.7719673 2.3509886e-038
-9.4102116 331.44009 1.755255 2.3509528e-038
-4.3452449 331.78604 1.7570871 2.3509528e-038
0.73754478 335.42444 1.7763555 2.3509528e-038
4.5048337 339.17358 1.7962103 2.3509528e-038
-15.062998 337.02118 -3.3700514 2.3509886e-038
-14.704143 336.57736 -3.3656132 2.3509886e-038
-9.4445667 332.65009 -3.3263426 2.3509886e-038
-4.3563509 332.63403 -3.3261821 2.3509528e-038
0.73721927 335.27643 -3.3526046 2.3509528e-038
5.9180875 338.28839 -3.3827229 2.3509528e-038
5.9791036 338.32391 -3.3830781 2.3509528e-038
-15.821105 331.05313 -8.3739529 2.3509886e-038
-14.400025 329.61609 -8.3376026 2.3509886e-038
-9.2646379 326.31277 -8.2540464 2.3509886e-038
-4.2631812 325.51999 -8.2339926 2.3509886e-038
0.71748751 326.3027 -8.2537918 2.3509886e-038
5.7269063 327.36017 -8.2805386 2.3509528e-038
7.3449206 327.79034 -8.2914219 2.3509528e-038
-17.898628 315.62167 -12.811164 2.3509886e-038
-13.727328 314.21811 -12.754193 2.3509886e-038
-8.8789263 312.72754 -12.693691 2.3509886e-038
-4.0800128 311.53397 -12.645244 2.3509886e-038
0.6837554 310.96182 -12.622019 2.3509886e-038
5.4425697 311.10699 -12.627912 2.3509886e-038
8.6719799 311.90204 -12.660184 2.3509886e-038
-23.974751 305.14447 -17.053188 2.3509886e-038
-22.632708 304.7027 -17.028502 2.3509886e-038
-17.894012 303.37766 -16.954451 2.3509886e-038
-13.220923 302.6265 -16.91247 2.3509886e-038
-8.5693321 301.82321 -16.867579 2.3509886e-038
-3.9393761 300.79547 -16.810141 2.3509886e-038
0.66022205 300.25925 -16.780176 2.3509886e-038
5.2652736 300.97241 -16.82003 2.3509886e-038
9.9415112 303.19122 -16.944031 2.3509886e-038
10.41099 303.55136 -16.964157 2.3509886e-038
-35.591976 302.88632 -21.559752 2.3509886e-038
-31.658459 301.88654 -21.488583 2.3509886e-038
-26.93981 300.75693 -21.408176 2.3509886e-038
-22.260187 299.6875 -21.332054 2.3509886e-038
-17.63316 298.95514 -21.279924 2.3509886e-038
-13.049109 298.6937 -21.261312 2.3509886e-038
-8.4675703 298.23898 -21.228947 2.3509886e-038
-3.8959949 297.48306 -21.175138 2.3509886e-038
0.65346313 297.18536 -21.15395 2.3509886e-038
5.2157726 298.14282 -21.222101 2.3509886e-038
9.8576441 300.63351 -21.399391 2.3509886e-038
12.328441 302.81335 -21.554554 2.3509886e-038
-43.657967 304.63373 -26.343618 2.3509886e-038
-40.971348 302.46204 -26.155819 2.3509886e-038
-36.080753 300.26233 -25.965593 2.3509886e-038
-31.409529 299.51282 -25.900778 2.3509886e-038
-26.792152 299.10849 -25.865814 2.3509886e-038
-22.196201 298.82608 -25.841393 2.3509886e-038
-17.628416 298.87469 -25.845598 2.3509886e-038
-13.055259 298.83444 -25.842115 2.3509886e-038
-8.4661856 298.19025 -25.786407 2.3509886e-038
-3.8939571 297.32745 -25.711798 2.3509886e-038
0.65311152 297.02545 -25.685678 2.3509886e-038
5.207829 297.68878 -25.743044 2.3509886e-038
9.827445 299.71249 -25.918047 2.3509886e-038
13.68286 303.10748 -26.211632 2.3509886e-038
-47.320427 306.68765 -31.212132 2.3509886e-038
-46.002228 305.14594 -31.055231 2.3509886e-038
-40.779106 301.04285 -30.637651 2.3509886e-038
-36.025688 299.80408 -30.51158 2.3509886e-038
-31.439812 299.80154 -30.511322 2.3509886e-038
-26.877474 300.061 -30.537727 2.3509886e-038
-22.310081 300.35922 -30.568077 2.3509886e-038
-17.725964 300.52853 -30.585308 2.3509886e-038
-13.096183 299.77118 -30.508232 2.3509886e-038
-8.4648466 298.1431 -30.342539 2.3509886e-038
-3.8864005 296.75046 -30.200808 2.3509886e-038
0.65150762 296.29602 -30.154558 2.3509886e-038
5.1867342 296.48294 -30.17358 2.3509886e-038
9.7577143 297.58591 -30.285831 2.3509886e-038
14.462877 300.77768 -30.610664 2.3509886e-038
14.613665 300.99539 -30.63282 2.3509886e-038
-48.031612 308.09564 -36.06786 2.3509886e-038
-46.079552 305.65884 -35.782589 2.3509886e-038
-40.862 301.65479 -35.313847 2.3509886e-038
-36.144981 300.79688 -35.213413 2.3509886e-038
-31.575199 301.09259 -35.248035 2.3509886e-038
-26.997845 301.40485 -35.284588 2.3509886e-038
-22.392281 301.46588 -35.291733 2.3509886e-038
-17.752481 300.97812 -35.234634 2.3509886e-038
-13.070657 299.18692 -35.02494 2.3509886e-038
-8.4272366 296.81839 -34.747665 2.3509886e-038
-3.8663092 295.21634 -34.56012 2.3509886e-038
0.6478672 294.64041 -34.492699 2.3509886e-038
5.1490273 294.32755 -34.45607 2.3509886e-038
9.6626692 294.68726 -34.498177 2.3509886e-038
14.27284 296.82556 -34.748505 2.3509886e-038
15.592863 298.1713 -34.906044 2.3509886e-038
-46.961109 307.40933 -40.689457 2.3509886e-038
-46.224468 306.62012 -40.584991 2.3509886e-038
-40.999199 302.66763 -40.061832 2.3509886e-038
-36.211697 301.35205 -39.887695 2.3509886e-038
-31.573538 301.07678 -39.851261 2.3509886e-038
-26.934221 300.69455 -39.800671 2.3509886e-038
-22.271847 299.84448 -39.688152 2.3509886e-038
-17.604998 298.47766 -39.507236 2.3509886e-038
-12.954398 296.52576 -39.248875 2.3509886e-038
-8.3689137 294.76419 -39.015709 2.3509886e-038
-3.8478203 293.80463 -38.888699 2.3509886e-038
0.64488268 293.28311 -38.819672 2.3509886e-038
5.1195087 292.6402 -38.734577 2.3509886e-038
9.6039019 292.89499 -38.768299 2.3509886e-038
14.20518 295.41846 -39.102318 2.3509886e-038
17.164431 298.94269 -39.56879 2.3509886e-038
-45.298618 304.72678 -44.995293 2.3509886e-038
-40.868683 301.70416 -44.548981 2.3509886e-038
-36.012703 299.69601 -44.252464 2.3509886e-038
-31.327665 298.73218 -44.110146 2.3509886e-038
-26.692291 297.99362 -44.001091 2.3509886e-038
-22.058191 296.96805 -43.849655 2.3509886e-038
-17.441139 295.69955 -43.662354 2.3509886e-038
-12.870173 294.59787 -43.499683 2.3509886e-038
-8.3446178 293.90845 -43.397881 2.3509886e-038
-3.8452594 293.60907 -43.35368 2.3509886e-038
0.64500397 293.33826 -43.31369 2.3509886e-038
5.1241889 292.90775 -43.250122 2.3509886e-038
9.6216822 293.43729 -43.328312 2.3509886e-038
14.276532 296.90234 -43.839958 2.3509886e-038
19.439281 306.70856 -45.287918 2.3509886e-038
19.882317 307.91248 -45.465687 2.3509886e-038
-44.185547 302.22406 -49.248379 2.3509886e-038
-40.666256 300.20975 -48.920139 2.3509886e-038
-35.833279 298.20291 -48.593117 2.3509886e-038
-31.182152 297.3446 -48.453251 2.3509886e-038
-26.608683 297.06021 -48.406914 2.3509886e-038
-22.024017 296.50797 -48.316917 2.3509886e-038
-17.433191 295.56482 -48.163235 2.3509886e-038
-12.886359 294.96832 -48.066036 2.3509886e-038
-8.3671856 294.70334 -48.02285 2.3509886e-038
-3.8567457 294.48615 -47.987457 2.3509886e-038
0.64690191 294.20142 -47.941059 2.3509886e-038
5.1434193 294.00699 -47.909382 2.3509886e-038
9.6681147 294.85333 -48.047295 2.3509886e-038
14.415208 299.78632 -48.851139 2.3509886e-038
19.847527 313.14975 -51.028755 2.3509886e-038
24.196934 327.62405 -53.38739 2.3509886e-038
-43.804363 302.77554 -53.969303 2.3509886e-038
-40.814156 301.30161 -53.706577 2.3509886e-038
-35.983528 299.45325 -53.377113 2.3509886e-038
-31.347614 298.92242 -53.282494 2.3509886e-038
-26.804207 299.24307 -53.339649 2.3509886e-038
-22.213175 299.05457 -53.306046 2.3509886e-038
-17.5669 297.83179 -53.088089 2.3509886e-038
-12.958878 296.6283 -52.873569 2.3509886e-038
-8.3978519 295.78342 -52.722973 2.3509886e-038
-3.8647528 295.09753 -52.600712 2.3509886e-038
0.64755476 294.49832 -52.493904 2.3509886e-038
5.1479254 294.26459 -52.45224 2.3509886e-038
9.6863728 295.41016 -52.656437 2.3509886e-038
14.522022 302.00769 -53.832443 2.3509886e-038
20.179661 318.39008 -56.752575 2.3509886e-038
26.870951 341.54074 -60.87915 2.3509886e-038
29.506058 349.88544 -62.366577 2.3509886e-038
-44.195934 308.10898 -59.632622 2.3509886e-038
-41.476322 306.18988 -59.261196 2.3509886e-038
-36.436672 303.2243 -58.687222 2.3509886e-038
-31.663633 301.93588 -58.437855 2.3509886e-038
-27.030794 301.77267 -58.406273 2.3509886e-038
-22.363323 301.07602 -58.271435 2.3509886e-038
-17.64929 299.22858 -57.913872 2.3509886e-038
-12.985848 297.24567 -57.53009 2.3509886e-038
-8.3988533 295.81873 -57.253918 2.3509886e-038
-3.8610523 294.81497 -57.059647 2.3509886e-038
0.64642972 293.98666 -56.899334 2.3509886e-038
5.1375785 293.67313 -56.83865 2.3509886e-038
9.6813984 295.25842 -57.145477 2.3509886e-038
14.583138 303.27872 -58.697754 2.3509886e-038
20.365948 321.32925 -62.191326 2.3509886e-038
27.114199 344.63254 -66.70153 2.3509886e-038
34.15406 363.45303 -70.344131 2.3509886e-038
34.715961 364.66922 -70.579514 2.3509886e-038
-44.924713 314.67294 -65.71608 2.3509886e-038
-42.187649 311.44113 -65.041145 2.3509886e-038
-36.786476 306.13531 -63.93309 2.3509886e-038
-31.793158 303.17102 -63.314022 2.3509886e-038
-27.017862 301.62833 -62.991852 2.3509886e-038
-22.286501 300.04178 -62.660507 2.3509886e-038
-17.584097 298.12329 -62.259861 2.3509886e-038
-12.946469 296.34427 -61.888329 2.3509886e-038
-8.3813572 295.20245 -61.649876 2.3509886e-038
-3.8559721 294.42706 -61.487942 2.3509886e-038
0.64577013 293.68668 -61.333321 2.3509886e-038
5.1358094 293.57202 -61.309372 2.3509886e-038
9.701128 295.86014 -61.787224 2.3509886e-038
14.665661 304.99487 -63.694916 2.3509886e-038
20.505608 323.53278 -67.56636 2.3509886e-038
27.219398 345.96964 -72.25206 2.3509886e-038
34.169495 363.61728 -75.937576 2.3509886e-038
39.795967 374.62311 -78.236031 2.3509886e-038
-44.898502 316.27454 -70.888084 2.3509886e-038
-42.305725 312.31281 -70.00013 2.3509886e-038
-36.713043 305.52426 -68.478577 2.3509886e-038
-31.657007 301.87271 -67.660141 2.3509886e-038
-26.871559 299.99496 -67.239281 2.3509886e-038
-22.183714 298.65796 -66.939598 2.3509886e-038
-17.546295 297.48239 -66.676117 2.3509886e-038
-12.952456 296.48129 -66.451736 2.3509886e-038
-8.3980112 295.78903 -66.296577 2.3509886e-038
-3.8651865 295.13065 -66.14901 2.3509886e-038
0.64742225 294.43805 -65.993782 2.3509886e-038
5.1543136 294.62973 -66.036736 2.3509886e-038
9.7624388 297.72998 -66.731613 2.3509886e-038
14.804659 307.88556 -69.007828 2.3509886e-038
20.679195 326.27161 -73.128777 2.3509886e-038
27.309265 347.11191 -77.799812 2.3509886e-038
34.184559 363.77759 -81.535172 2.3509886e-038
41.354183 378.47113 -84.828506 2.3509886e-038
44.980434 385.18637 -86.333618 2.3509886e-038
-43.789288 314.38583 -75.273407 2.3509886e-038
-42.261364 311.98532 -74.698654 2.3509886e-038
-36.681892 305.26498 -73.089607 2.3509886e-038
-31.679861 302.09064 -72.329575 2.3509886e-038
-26.949017 300.85971 -72.034859 2.3509886e-038
-22.304518 300.28433 -71.897087 2.3509886e-038
-17.677408 299.70532 -71.758453 2.3509886e-038
-13.064542 299.04694 -71.600815 2.3509886e-038
-8.4657078 298.17343 -71.391678 2.3509886e-038
-3.8890374 296.95181 -71.099182 2.3509886e-038
0.65029472 295.74442 -70.810097 2.3509886e-038
5.1747074 295.7955 -70.822327 2.3509886e-038
9.8183441 299.43497 -71.693726 2.3509886e-038
14.932491 310.54401 -74.353569 2.3509886e-038
20.847855 328.93268 -78.756363 2.3509886e-038
27.407652 348.36246 -83.40844 2.3509886e-038
34.193336 363.87097 -87.121643 2.3509886e-038
41.450432 379.35199 -90.828262 2.3509886e-038
49.008175 393.4447 -94.202484 2.3509886e-038
49.623363 394.46481 -94.446724 2.3509886e-038
-40.893936 311.39774 -79.320908 2.3509886e-038
-37.022602 308.10037 -78.480988 2.3509886e-038
-32.050034 305.62045 -77.849289 2.3509886e-038
-27.248522 304.20343 -77.488342 2.3509886e-038
-22.534927 303.38629 -77.280197 2.3509886e-038
-17.84733 302.58621 -77.076393 2.3509886e-038
-13.173636 301.5441 -76.810944 2.3509886e-038
-8.5181265 300.01968 -76.42263 2.3509886e-038
-3.9050009 298.17072 -75.951653 2.3509886e-038
0.65211284 296.57126 -75.544228 2.3509886e-038
5.1852236 296.39661 -75.499741 2.3509886e-038
9.8517199 300.45282 -76.532967 2.3509886e-038
15.059223 313.17963 -79.774803 2.3509886e-038
21.073397 332.49124 -84.69397 2.3509886e-038
27.575254 350.49274 -89.279404 2.3509886e-038
34.163567 363.5542 -92.606491 2.3509886e-038
41.326694 378.21954 -96.342125 2.3509886e-038
48.933586 392.84589 -100.06783 2.3509886e-038
52.864124 399.02469 -101.64172 2.3509886e-038
-37.029972 315.08081 -85.078377 2.3509886e-038
-32.698425 311.80341 -84.193398 2.3509886e-038
-27.587543 307.98825 -83.163231 2.3509886e-038
-22.691984 305.50073 -82.491547 2.3509886e-038
-17.924538 303.8952 -82.058022 2.3509886e-038
-13.208046 302.33176 -81.635857 2.3509886e-038
-8.5303669 300.45081 -81.12796 2.3509886e-038
-3.9106271 298.60031 -80.628288 2.3509886e-038
0.65356183 297.23026 -80.258339 2.3509886e-038
5.2013049 297.31583 -80.281448 2.3509886e-038
9.9242554 302.66498 -81.72583 2.3509886e-038
15.328878 318.78751 -86.079254 2.3509886e-038
21.503313 339.27435 -91.611122 2.3509886e-038
27.874754 354.29953 -95.668236 2.3509886e-038
34.197918 363.91974 -98.265892 2.3509886e-038
41.108971 376.22693 -101.58909 2.3509886e-038
48.608109 390.23294 -105.371 2.3509886e-038
54.220215 398.62149 -107.63609 2.3509886e-038
-31.432121 316.43707 -90.284599 2.3509886e-038
-27.928999 311.80026 -88.961647 2.3509886e-038
-22.810156 307.09167 -87.618217 2.3509886e-038
-17.977936 304.80051 -86.9645 2.3509886e-038
-13.257593 303.46588 -86.58371 2.3509886e-038
-8.5719404 301.91507 -86.141243 2.3509886e-038
-3.9337013 300.36218 -85.698174 2.3509886e-038
0.65856403 299.50519 -85.453659 2.3509886e-038
5.264586 300.93311 -85.861069 2.3509886e-038
10.164046 309.978 -88.441727 2.3509886e-038
15.878627 330.22037 -94.217201 2.3509886e-038
22.178511 349.92746 -99.839951 2.3509886e-038
28.335684 360.15808 -102.75891 2.3509886e-038
34.456539 366.67188 -104.61741 2.3509886e-038
41.072556 375.89368 -107.24854 2.3509886e-038
48.255421 387.40152 -110.53191 2.3509886e-038
53.749081 394.87198 -112.66335 2.3509886e-038
-20.904955 309.24826 -92.963585 2.3509886e-038
-18.19581 308.49438 -92.736961 2.3509886e-038
-13.484776 308.66611 -92.788582 2.3509886e-038
-8.7347727 307.65024 -92.4832 2.3509886e-038
-4.0029044 305.64627 -91.880783 2.3509886e-038
0.67113233 305.22104 -91.752953 2.3509886e-038
5.4200034 309.81705 -93.134567 2.3509886e-038
10.678478 325.6669 -97.899216 2.3509886e-038
16.702307 347.35007 -104.41742 2.3509886e-038
22.958691 362.23694 -108.89259 2.3509886e-038
28.921499 367.60406 -110.50601 2.3509886e-038
34.949478 371.91751 -111.80268 2.3509886e-038
41.307274 378.04184 -113.64372 2.3509886e-038
48.036114 385.64087 -115.92808 2.3509886e-038
51.824173 389.75073 -117.16354 2.3509886e-038
15.404311 361.93124 -114.33656 2.3509886e-038
17.644115 366.93637 -115.91772 2.3509886e-038
23.67778 373.58258 -118.01731 2.3509886e-038
29.503265 374.99854 -118.46462 2.3509886e-038
35.473316 377.49197 -119.25232 2.3509886e-038
41.639576 381.08304 -120.38676 2.3509886e-038
47.991497 385.28265 -121.71345 2.3509886e-038
48.509495 385.65164 -121.83001 2.3509886e-038
24.134354 381.85309 -126.4706 2.3509886e-038
24.200829 381.83514 -126.46465 2.3509886e-038
29.968805 380.91577 -126.16016 2.3509886e-038
35.893925 381.96793 -126.50864 2.3509886e-038
41.944279 383.87167 -127.13915 2.3509886e-038
42.984325 384.24127 -127.26158 2.3509886e-038
-46.093712 305.75278 -29.002964 2.3509886e-038
-46.173656 306.28308 -42.709778 2.3509886e-038
-41.126492 303.60736 -24.476208 2.3509886e-038
-42.299198 312.26462 -77.542778 2.3509886e-038
-36.388203 302.82092 -21.899458 2.3509886e-038
-37.738071 314.05447 -83.983421 2.3509886e-038
-31.828642 303.50937 -20.051702 2.3509886e-038
-33.277367 317.32401 -89.225273 2.3509886e-038
-27.251003 304.23111 -18.364019 2.3509886e-038
-28.103621 313.74976 -91.441437 2.3509886e-038
-22.718052 305.85168 -16.440767 2.3509886e-038
-23.025532 309.99127 -92.517082 2.3509886e-038
-18.47596 313.24408 -13.475423 2.3509886e-038
-18.243105 309.29623 -93.623886 2.3509886e-038
-13.858574 317.22229 33.254368 2.3509528e-038
-13.59294 311.14197 -94.888123 2.3509886e-038
-8.938385 314.82172 39.889385 2.3509528e-038
-8.8263865 310.87695 -95.129684 2.3509886e-038
-4.1093197 313.7717 40.553013 2.3509528e-038
-4.0432949 308.73035 -94.614845 2.3509886e-038
0.69277865 315.06546 33.675198 2.3509528e-038
0.67863864 308.63483 -94.60817 2.3509886e-038
5.9218884 338.50565 -3.1796277 2.3509528e-038
5.5256457 315.85574 -97.069145 2.3509886e-038
9.9876842 304.5994 -15.985278 2.3509886e-038
11.185314 341.12411 -106.13583 2.3509886e-038
14.493719 301.41907 -30.030087 2.3509886e-038
17.848879 371.19479 -118.59644 2.3509886e-038
19.388794 305.91196 -44.499424 2.3509886e-038
24.204321 381.89023 -126.53285 2.3509886e-038
26.639154 338.59451 -57.58884 2.3509886e-038
30.153633 383.26498 -130.07202 2.3509886e-038
34.150772 363.418 -69.715958 2.3509886e-038
36.068302 383.82358 -130.41791 2.3509886e-038
41.247791 377.49744 -80.453278 2.3509886e-038
41.975372 384.15619 -127.88512 2.3509886e-038
48.990505 393.30289 -93.289352 2.3509886e-038
47.998795 385.34125 -122.4705 2.3509886e-038
