# .PCD v0.7 - Point Cloud Data file format
VERSION 0.7
FIELDS x y z rgb
SIZE 4 4 4 4
TYPE F F F F
COUNT 1 1 1 1
WIDTH 888
HEIGHT 1
VIEWPOINT 0 0 0 1 0 0 0
POINTS 888
DATA ascii
-62.295162 314.92728 53.395855 2.3418052e-038
15.252507 323.8519 62.535278 9.1476764e-041
-19.813196 323.60593 71.632332 3.5733111e-043
-89.481232 327.57382 -30.855598 2.3509528e-038
57.653316 322.14096 31.861044 2.3418409e-038
-25.00145 324.36533 74.768272 3.5733111e-043
-21.920538 323.62918 74.598595 3.5733111e-043
-17.210602 323.43692 74.554283 3.5733111e-043
-15.853003 323.73871 74.62384 3.5733111e-043
-26.055573 325.6713 70.339966 3.5733111e-043
-21.959227 324.20035 70.022263 3.5733111e-043
-17.21302 323.48236 69.867188 3.5733111e-043
-13.522663 324.09741 70.000031 3.5733111e-043
-26.028875 326.60522 65.798767 3.5733111e-043
-21.975899 324.4465 65.363861 3.5733111e-043
-17.194525 323.13477 65.099602 3.5733111e-043
-12.532815 323.93073 65.259956 3.5733111e-043
-12.009979 324.20383 65.314972 3.5733111e-043
10.644024 324.40637 65.355782 9.1476764e-041
11.000214 324.30417 65.335182 9.1476764e-041
15.708832 324.28583 65.331497 9.1476764e-041
19.463509 325.55688 65.587563 9.1476764e-041
-65.010284 317.75772 59.401909 2.3418052e-038
-62.762676 316.29608 59.128666 2.3418052e-038
-59.632282 315.19058 58.922005 2.3418052e-038
-25.461409 327.29074 61.184017 3.5733111e-043
-21.998178 324.77542 60.713806 3.5733111e-043
-17.185966 322.97394 60.377033 3.5733111e-043
-12.536558 324.02747 60.573978 3.5733111e-043
-10.929779 325.18887 60.791096 3.5733111e-043
9.8900232 324.46448 60.655674 9.1476764e-041
10.992036 324.06308 60.580643 9.1476764e-041
15.696365 324.02847 60.574165 9.1476764e-041
20.535101 326.14481 60.969799 9.1476764e-041
21.720716 327.53156 61.229034 9.1476764e-041
-67.97805 319.935 55.162876 2.3418052e-038
-62.498787 314.96619 54.306156 2.3418052e-038
-57.568047 313.02582 53.971603 2.3418052e-038
-55.082504 313.62726 54.075306 2.3418052e-038
-24.792395 327.83136 56.524357 3.5733111e-043
-22.041752 325.41873 56.108379 3.5733111e-043
-17.194458 323.13351 55.714367 3.5733111e-043
-12.525675 323.74619 55.819996 3.5733111e-043
-9.9841347 325.26593 56.082031 3.5733111e-043
9.7264252 325.58524 56.137085 9.1476764e-041
11.019497 324.87271 56.014229 9.1476764e-041
15.712935 324.37054 55.927647 9.1476764e-041
20.557325 326.4978 56.294426 9.1476764e-041
22.509094 329.15649 56.752838 9.1476764e-041
-68.151421 320.41278 50.59227 2.3418052e-038
-62.474243 314.8425 49.712738 2.3418052e-038
-57.497112 312.64014 49.364986 2.3418052e-038
-53.120636 313.60617 49.517525 2.3418052e-038
-52.435596 314.01654 49.582321 2.3418052e-038
-24.292999 328.03421 51.795673 3.5733111e-043
-22.079664 325.97845 51.471073 3.5733111e-043
-17.202267 323.28027 51.045036 3.5733111e-043
-12.502725 323.15298 51.02494 3.5733111e-043
-9.0195541 324.7355 51.274811 3.5733111e-043
9.4759111 326.4957 51.552746 9.1476764e-041
11.037587 325.40601 51.380688 9.1476764e-041
15.724053 324.60004 51.253422 9.1476764e-041
20.581404 326.88022 51.613457 9.1476764e-041
22.489801 329.58997 52.041317 9.1476764e-041
-66.854088 319.64957 45.829853 2.3418052e-038
-62.645466 315.70538 45.264355 2.3418052e-038
-57.673332 313.5983 44.962254 2.3418052e-038
-53.212574 314.14896 45.041203 2.3418052e-038
-50.357727 315.87933 45.289295 2.3418052e-038
-24.038298 327.80267 46.99881 3.5733111e-043
-22.093046 326.17606 46.765591 3.5733111e-043
-17.207491 323.37845 46.364483 3.5733111e-043
-12.478963 322.53882 46.244102 3.5733111e-043
-7.9996166 324.12393 46.471363 3.5733111e-043
8.8151112 326.34549 46.789886 9.1476764e-041
11.018145 324.83282 46.573006 9.1476764e-041
15.704135 324.18887 46.480679 9.1476764e-041
20.56702 326.65179 46.833797 9.1476764e-041
22.215527 328.95734 47.16436 9.1476764e-041
-64.942017 318.86484 41.086838 2.3418052e-038
-62.949127 317.23572 40.876919 2.3418052e-038
-57.963276 315.17487 40.61137 2.3418052e-038
-53.378376 315.12778 40.605305 2.3418052e-038
-49.051525 316.7381 40.812798 2.3418052e-038
-48.236881 317.42722 40.901592 2.3418052e-038
-23.932871 327.56619 42.208038 3.5733111e-043
-22.100721 326.28937 42.04351 3.5733111e-043
-17.216311 323.54419 41.689789 3.5733111e-043
-12.460918 322.07245 41.500149 3.5733111e-043
-7.8039865 322.90698 41.607677 3.5733111e-043
-6.8881316 323.50308 41.68449 3.5733111e-043
7.7040381 325.44284 41.934433 9.1476764e-041
10.972176 323.4776 41.68121 9.1476764e-041
15.653292 323.13925 41.637611 9.1476764e-041
20.49527 325.51221 41.943371 9.1476764e-041
22.105433 327.64618 42.218342 9.1476764e-041
-63.307487 319.45044 36.523281 2.3418052e-038
-58.26627 316.82242 36.222816 2.3418052e-038
-53.512699 315.92081 36.119732 2.3418052e-038
-49.038139 316.65164 36.203293 2.3418052e-038
-45.871029 319.08948 36.48201 2.3418052e-038
-23.799685 328.04877 37.50634 3.5733111e-043
-22.140961 326.88342 37.373108 3.5733111e-043
-17.234749 323.89069 37.030941 3.5733111e-043
-12.455731 321.93839 36.807735 3.5733111e-043
-7.7930555 322.45465 36.866756 3.5733111e-043
-5.6525774 324.1153 37.056622 3.5733111e-043
6.4642863 325.37402 37.200535 9.1476764e-041
10.935555 322.39792 36.860271 9.1476764e-041
15.599656 322.03204 36.818436 9.1476764e-041
20.397184 323.95441 37.038227 9.1476764e-041
22.248539 326.19681 37.294605 9.1476764e-041
-62.025661 321.07715 32.046631 2.3418052e-038
-58.641598 318.86325 31.825661 2.3418052e-038
-53.690529 316.97064 31.636759 2.3418052e-038
-49.097427 317.03448 31.643133 2.3418052e-038
-44.856358 319.62009 31.901199 2.3418052e-038
-43.450134 321.4339 32.082237 2.3418052e-038
-23.394953 329.13474 32.850853 3.5733111e-043
-22.226 328.13895 32.751469 3.5733111e-043
-17.270924 324.5705 32.395302 3.5733111e-043
-12.477457 322.49991 32.188637 3.5733111e-043
-7.8165445 323.42661 32.281132 3.5733111e-043
-4.4884448 326.87329 32.625141 3.5733111e-043
5.4591937 326.98865 32.636654 2.3509886e-038
6.3235507 325.99634 32.537613 2.3509886e-038
10.931872 322.28937 32.167622 9.1476764e-041
15.57988 321.62381 32.101192 9.1476764e-041
20.343842 323.10718 32.249245 9.1476764e-041
22.52545 325.56549 32.494614 9.1476764e-041
51.736675 322.67349 32.205963 2.3418409e-038
53.042629 322.22009 32.160706 2.3418409e-038
57.788391 322.59155 32.197781 2.3418409e-038
61.760643 325.28229 32.466343 2.3418409e-038
-60.556702 322.31918 27.489925 2.3418052e-038
-59.056957 321.12177 27.3878 2.3418052e-038
-53.91795 318.31323 27.148268 2.3418052e-038
-49.208481 317.75159 27.100365 2.3418052e-038
-44.833572 319.4577 27.245878 2.3418052e-038
-41.154736 322.6445 27.517672 2.3418052e-038
-22.749649 330.34479 28.174414 3.5733111e-043
-22.348558 329.94836 28.140602 3.5733111e-043
-17.332382 325.72552 27.780445 3.5733111e-043
-12.518722 323.56647 27.596304 3.5733111e-043
-7.8489304 324.76663 27.698664 3.5733111e-043
-3.7087636 329.2356 28.079811 3.5733111e-043
4.9233236 328.47644 28.015064 2.3509886e-038
6.3379893 326.74069 27.867027 2.3509886e-038
10.943088 322.62003 27.515585 9.1476764e-041
15.582808 321.68423 27.435772 9.1476764e-041
20.337204 323.00177 27.548141 9.1476764e-041
22.609917 325.4632 27.758074 9.1476764e-041
49.212563 322.58084 27.512243 2.3418409e-038
52.921253 321.48279 27.418591 2.3418409e-038
57.661007 321.88046 27.452509 2.3418409e-038
60.595482 323.32675 27.575859 2.3418409e-038
-58.799229 323.08066 22.86314 2.3418052e-038
-54.193127 319.93781 22.640734 2.3418052e-038
-49.354008 318.69131 22.552525 2.3418052e-038
-44.876369 319.76266 22.628342 2.3418052e-038
-40.564922 322.40204 22.815117 2.3418052e-038
-39.230427 323.66071 22.904188 2.3418052e-038
-22.188065 331.61447 23.467045 3.5733111e-043
-17.411928 327.22043 23.156097 3.5733111e-043
-12.567985 324.83975 22.987625 3.5733111e-043
-7.8769336 325.92532 23.064445 3.5733111e-043
-3.3013675 330.36615 23.378708 3.5733111e-043
4.7012153 329.18216 23.29492 2.3509886e-038
6.3473568 327.2236 23.156321 2.3509886e-038
10.953842 322.93707 22.85298 9.1476764e-041
15.596484 321.96655 22.7843 9.1476764e-041
20.372547 323.56311 22.897282 9.1476764e-041
22.397614 325.71112 23.04929 9.1476764e-041
46.856579 321.35059 22.740711 2.3418409e-038
48.182526 321.01511 22.71697 2.3418409e-038
52.797527 320.73117 22.696877 2.3418409e-038
57.660351 321.8768 22.777948 2.3418409e-038
58.854984 322.56699 22.82679 2.3418409e-038
-56.943611 324.2973 18.239841 2.3418052e-038
-54.610779 322.40347 18.133324 2.3418052e-038
-49.582066 320.16391 18.00736 2.3418052e-038
-45.005119 320.68008 18.036394 2.3418052e-038
-40.659718 323.15546 18.175619 2.3418052e-038
-37.712227 326.26669 18.350609 2.3418052e-038
-21.918686 333.34637 18.748798 2.3509886e-038
-17.500469 328.88437 18.497835 3.5733111e-043
-12.617518 326.12003 18.342358 3.5733111e-043
-7.9008026 326.91293 18.386955 3.5733111e-043
-3.1918437 330.89499 18.61092 3.5733111e-043
-3.0020936 331.05881 18.620134 3.5733111e-043
4.4696908 329.66037 18.541481 2.3509886e-038
6.3529921 327.51413 18.420769 2.3509886e-038
10.964684 323.25674 18.181314 9.1476764e-041
15.626727 322.59088 18.143864 9.1476764e-041
20.458647 324.93054 18.275457 9.1476764e-041
21.910767 326.37668 18.356792 9.1476764e-041
44.254601 320.40781 18.021078 2.3418409e-038
47.93428 319.36118 17.962212 2.3418409e-038
52.629471 319.7103 17.981848 2.3418409e-038
56.996181 321.51721 18.083475 2.3418409e-038
-55.223598 326.84515 13.636744 2.3418052e-038
-50.042309 323.13583 13.481983 2.3418052e-038
-45.277843 322.62335 13.460602 2.3418052e-038
-40.827011 324.48508 13.538277 2.3418052e-038
-36.564999 328.52936 13.707015 2.3418052e-038
-35.99398 329.29037 13.738766 2.3418052e-038
-22.100286 335.7504 14.008293 2.3509886e-038
-17.590731 330.58066 13.7926 2.3509886e-038
-12.661409 327.25449 13.653823 3.5733111e-043
-7.9144201 327.47641 13.663083 3.5733111e-043
-3.1866508 330.35663 13.783252 2.3509886e-038
-2.1725607 330.93219 13.807267 2.3509886e-038
3.6583047 329.75461 13.758135 2.3509886e-038
6.3486834 327.29199 13.655389 2.3509886e-038
10.981174 323.74283 13.507309 9.1476764e-041
15.681341 323.71832 13.506286 9.1476764e-041
20.586681 326.96402 13.641705 9.1476764e-041
21.289537 327.60382 13.668398 9.1476764e-041
41.570911 321.17502 13.400174 2.3418409e-038
43.391739 320.06314 13.353784 2.3418409e-038
47.831776 318.67825 13.296003 2.3418409e-038
52.542019 319.17902 13.316896 2.3418409e-038
55.062263 320.22241 13.360429 2.3418409e-038
-53.696693 330.98697 9.0030079 2.3418052e-038
-50.843311 328.30811 8.9301414 2.3418052e-038
-45.709213 325.69699 8.8591175 2.3418052e-038
-40.972607 325.64224 8.8576279 2.3418052e-038
-36.474545 327.71664 8.914053 2.3418052e-038
-33.376419 330.33792 8.9853525 2.3418052e-038
-22.838966 336.13049 9.1429138 2.3509886e-038
-22.763599 336.0759 9.141428 2.3509886e-038
-17.630646 331.33078 9.0123596 2.3509886e-038
-12.692598 328.06061 8.9234085 2.3509886e-038
-7.9191494 327.67206 8.9128399 2.3509886e-038
-3.1743028 329.07654 8.9510422 2.3509886e-038
1.6051542 329.2135 8.9547682 2.3509886e-038
6.3379307 326.73764 8.8874235 2.3509886e-038
11.004427 324.42838 8.8246098 2.3509886e-038
15.739247 324.9137 8.8378115 9.1476764e-041
20.683168 328.49646 8.9352646 9.1476764e-041
20.843586 328.63763 8.9391041 9.1476764e-041
38.876343 323.04739 8.7870474 2.3418409e-038
39.086777 322.89633 8.782938 2.3418409e-038
43.448227 320.4798 8.717207 2.3418409e-038
47.920483 319.26926 8.6842804 2.3418409e-038
52.695538 320.11163 8.7071924 2.3418409e-038
53.307144 320.44977 8.7163906 2.3418409e-038
-52.014317 334.35965 4.239224 2.3509886e-038
-51.727226 334.01578 4.2348638 2.3509886e-038
-46.153145 328.8602 4.169498 2.3418052e-038
-41.078213 326.48157 4.1393404 2.3418052e-038
-36.328121 326.40106 4.13832 2.3418052e-038
-31.763182 328.20932 4.1612458 2.3509886e-038
-27.274746 331.5864 4.2040629 2.3509886e-038
-27.268101 331.59076 4.2041183 2.3509886e-038
-27.062679 331.72443 4.2058129 2.3509886e-038
-22.526194 332.57092 4.2165446 2.3509886e-038
-17.583139 330.43799 4.1895022 2.3509886e-038
-12.704865 328.37762 4.1633797 2.3509886e-038
-7.9245286 327.89465 4.1572561 2.3509886e-038
-3.1659505 328.21066 4.161263 2.3509886e-038
1.5989627 327.94366 4.1578774 2.3509886e-038
6.3360472 326.64056 4.1413565 2.3509886e-038
11.036572 325.3761 4.1253247 2.3509886e-038
15.777905 325.71173 4.1295795 2.3509886e-038
20.676281 328.38712 4.1634998 2.3509886e-038
21.096643 328.67252 4.167119 2.3509886e-038
35.912388 324.47025 4.1138396 2.3418409e-038
39.103661 323.0358 4.0956531 2.3418409e-038
43.596401 321.57275 4.0771036 2.3418409e-038
48.151505 320.80844 4.0674129 2.3418409e-038
51.561146 321.52945 4.0765543 2.3418409e-038
-50.29454 335.90808 -0.61913985 2.3509886e-038
-46.52599 331.51691 -0.61104614 2.3509886e-038
-41.189919 327.36942 -0.60340154 2.3418052e-038
-36.270367 325.88214 -0.6006602 2.3509886e-038
-31.574148 326.25604 -0.60134941 2.3509886e-038
-26.962608 327.79163 -0.6041798 2.3509886e-038
-22.275452 328.86902 -0.60616559 2.3509886e-038
-17.498631 328.84982 -0.60613024 2.3509886e-038
-12.708189 328.46356 -0.60541826 2.3509886e-038
-7.936378 328.38498 -0.60527343 2.3509886e-038
-3.1675434 328.37576 -0.6052565 2.3509886e-038
1.5996172 328.07791 -0.60470748 2.3509886e-038
6.350379 327.37939 -0.60341996 2.3509886e-038
11.07433 326.48926 -0.60177934 2.3509886e-038
15.795805 326.08124 -0.60102719 2.3509886e-038
20.587383 326.97519 -0.60267496 2.3509886e-038
23.099585 327.63895 -0.60389835 2.3509886e-038
31.744148 325.4248 -0.59981728 2.3418409e-038
34.562737 324.44522 -0.59801179 2.3418409e-038
39.154667 323.45715 -0.59619057 2.3418409e-038
43.781498 322.93805 -0.59523374 2.3418409e-038
48.45462 322.82794 -0.59503078 2.3418409e-038
49.755543 323.0246 -0.5953933 2.3418409e-038
-48.859802 337.2045 -5.5183754 2.3509886e-038
-46.950634 334.54266 -5.4748149 2.3509886e-038
-41.379845 328.87888 -5.3821268 2.3509886e-038
-36.340351 326.51096 -5.3433752 2.3509886e-038
-31.575895 326.27411 -5.339499 2.3509886e-038
-26.894693 326.96597 -5.3508215 2.3509886e-038
-22.202518 327.79227 -5.3643441 2.3509886e-038
-17.47645 328.43298 -5.3748293 2.3509886e-038
-12.722836 328.84213 -5.381525 2.3509886e-038
-7.9513602 329.00485 -5.3841882 2.3509886e-038
-3.1741722 329.06296 -5.385139 2.3509886e-038
1.6040398 328.98499 -5.3838625 2.3509886e-038
6.3729129 328.54111 -5.3765988 2.3509886e-038
11.111353 327.58075 -5.3608823 2.3509886e-038
15.815223 326.48209 -5.3429027 2.3509886e-038
20.524525 325.97684 -5.3346343 2.3509886e-038
25.241627 325.76135 -5.3311081 2.3509886e-038
29.89481 324.91943 -5.3173299 2.3418409e-038
34.546917 324.29672 -5.3071389 2.3418409e-038
39.246899 324.21909 -5.3058686 2.3418409e-038
43.984325 324.43414 -5.3093882 2.3418409e-038
48.101765 325.39923 -5.3251815 2.3418409e-038
-47.662708 339.17902 -10.476184 2.3509886e-038
-47.582256 339.04324 -10.471991 2.3509886e-038
-41.687214 331.32181 -10.2335 2.3509886e-038
-36.495274 327.90289 -10.1279 2.3509886e-038
-31.669996 327.24643 -10.107624 2.3509886e-038
-26.953329 327.67883 -10.120979 2.3509886e-038
-22.240122 328.34744 -10.141631 2.3509886e-038
-17.504948 328.96854 -10.160814 2.3509886e-038
-12.744888 329.41211 -10.174515 2.3509886e-038
-7.9652753 329.58063 -10.17972 2.3509886e-038
-3.1811166 329.7829 -10.185968 2.3509886e-038
1.6089219 329.98627 -10.192249 2.3509886e-038
6.3966126 329.76288 -10.185349 2.3509886e-038
11.151921 328.77676 -10.154892 2.3509886e-038
15.858644 327.37848 -10.111703 2.3509886e-038
20.544329 326.29138 -10.078126 2.3509886e-038
25.232025 325.63742 -10.057927 2.3509886e-038
29.90358 325.01474 -10.038694 2.3418409e-038
34.597984 324.77612 -10.031323 2.3418409e-038
39.358902 325.14435 -10.042697 2.3418409e-038
44.210487 326.10233 -10.072287 2.3418409e-038
46.691509 327.55771 -10.117238 2.3418409e-038
-46.436897 340.49341 -15.46139 2.3509886e-038
-42.027081 334.02301 -15.167576 2.3509886e-038
-36.67791 329.54382 -14.964183 2.3509886e-038
-31.776514 328.34708 -14.909841 2.3509886e-038
-27.02281 328.52356 -14.917852 2.3509886e-038
-22.289642 329.07855 -14.943055 2.3509886e-038
-17.53788 329.58743 -14.966163 2.3509886e-038
-12.762821 329.87561 -14.979249 2.3509886e-038
-7.9751434 329.98895 -14.984395 2.3509886e-038
-3.1851957 330.20578 -14.994241 2.3509886e-038
1.6113803 330.49051 -15.00717 2.3509886e-038
6.4097643 330.44089 -15.004916 2.3509886e-038
11.182595 329.68109 -14.970416 2.3509886e-038
15.912201 328.4841 -14.916061 2.3509886e-038
20.621191 327.51215 -14.871926 2.3509886e-038
25.328579 326.88351 -14.843381 2.3509886e-038
30.010952 326.18173 -14.811514 2.3418409e-038
34.690346 325.64313 -14.787057 2.3418409e-038
39.432716 325.75412 -14.792096 2.3418409e-038
44.345795 327.1004 -14.853229 2.3418409e-038
45.389606 327.89249 -14.889196 2.3418409e-038
-45.100372 339.92166 -20.371706 2.3509886e-038
-42.252785 335.81686 -20.125704 2.3509886e-038
-36.835682 330.96136 -19.834713 2.3509886e-038
-31.872335 329.33722 -19.737373 2.3509886e-038
-27.075855 329.1684 -19.727259 2.3509886e-038
-22.318256 329.50101 -19.74719 2.3509886e-038
-17.553383 329.87878 -19.769831 2.3509886e-038
-12.772103 330.11551 -19.784016 2.3509886e-038
-7.980854 330.22525 -19.790596 2.3509886e-038
-3.1863213 330.32248 -19.796421 2.3509886e-038
1.6113347 330.48114 -19.805931 2.3509886e-038
6.4115338 330.5321 -19.808985 2.3509886e-038
11.197688 330.12604 -19.784649 2.3509886e-038
15.955292 329.37363 -19.739557 2.3509886e-038
20.699209 328.75125 -19.702255 2.3509886e-038
25.436356 328.27444 -19.673683 2.3509886e-038
30.130051 327.4762 -19.625843 2.3509886e-038
34.782597 326.50906 -19.567881 2.3418409e-038
39.475887 326.11075 -19.54401 2.3418409e-038
44.288994 327.32425 -19.616735 2.3418409e-038
-44.130524 338.64081 -25.212648 2.3509886e-038
-42.321861 336.36584 -25.043272 2.3509886e-038
-36.939552 331.89465 -24.710381 2.3509886e-038
-31.956486 330.20676 -24.584713 2.3509886e-038
-27.130301 329.83032 -24.556684 2.3509886e-038
-22.344807 329.89297 -24.56135 2.3509886e-038
-17.564003 330.07834 -24.575151 2.3509886e-038
-12.780416 330.33038 -24.593916 2.3509886e-038
-7.9869041 330.47556 -24.604727 2.3509886e-038
-3.1876659 330.46185 -24.603706 2.3509886e-038
1.611444 330.50354 -24.60681 2.3509886e-038
6.4134383 330.63031 -24.616247 2.3509886e-038
11.208779 330.45303 -24.603048 2.3509886e-038
15.984731 329.98135 -24.567932 2.3509886e-038
20.748772 329.53839 -24.534952 2.3509886e-038
25.500807 329.10623 -24.502777 2.3509886e-038
30.205587 328.29721 -24.442541 2.3509886e-038
34.859409 327.2301 -24.363092 2.3509886e-038
39.549988 326.7229 -24.325331 2.3418409e-038
43.503746 327.423 -24.377457 2.3418409e-038
-99.713089 330.23727 -29.382629 2.3509528e-038
-98.928314 329.66971 -29.33213 2.3509528e-038
-93.512154 327.46793 -29.136227 2.3509528e-038
-89.105354 328.75421 -29.250675 2.3509528e-038
-85.158661 331.97983 -29.537672 2.3509528e-038
-81.430946 336.4975 -29.939627 2.3509528e-038
-80.896461 337.31332 -30.012217 2.3509528e-038
-44.047592 338.90805 -30.154106 2.3509886e-038
-42.392426 336.92667 -29.977814 2.3509886e-038
-37.001308 332.44949 -29.57946 2.3509886e-038
-32.008312 330.74228 -29.427561 2.3509886e-038
-27.173653 330.35736 -29.393314 2.3509886e-038
-22.378208 330.38611 -29.39587 2.3509886e-038
-17.589418 330.55597 -29.410986 2.3509886e-038
-12.800596 330.85196 -29.437323 2.3509886e-038
-8.0006914 331.04608 -29.454592 2.3509886e-038
-3.1932764 331.04349 -29.454361 2.3509886e-038
1.6142453 331.07813 -29.457443 2.3509886e-038
6.4246693 331.20926 -29.469112 2.3509886e-038
11.228827 331.04407 -29.454414 2.3509886e-038
16.01553 330.61713 -29.416428 2.3509886e-038
20.793566 330.24985 -29.383749 2.3509886e-038
25.561571 329.89047 -29.35177 2.3509886e-038
30.281311 329.12021 -29.283241 2.3509886e-038
34.950409 328.08435 -29.191074 2.3509886e-038
39.665859 327.68011 -29.155107 2.3509886e-038
42.997421 328.30762 -29.210939 2.3509886e-038
-98.530258 328.69571 -34.018753 2.3509528e-038
-93.025444 325.76352 -33.715282 2.3509528e-038
-88.285439 325.72913 -33.711723 2.3509528e-038
-84.120415 327.93237 -33.939754 2.3509528e-038
-80.252724 331.62872 -34.322308 2.3509528e-038
-76.450111 336.08307 -34.783314 2.3509528e-038
-73.390045 339.34161 -35.120564 2.3509528e-038
-45.069752 340.89194 -35.281013 2.3509886e-038
-42.481621 337.63559 -34.943993 2.3509886e-038
-37.048283 332.87158 -34.450939 2.3509886e-038
-32.046352 331.13531 -34.27124 2.3509886e-038
-27.20929 330.79062 -34.235565 2.3509886e-038
-22.414566 330.92291 -34.249256 2.3509886e-038
-17.624065 331.20709 -34.278671 2.3509886e-038
-12.827151 331.53833 -34.312954 2.3509886e-038
-8.0199604 331.84338 -34.344524 2.3509886e-038
-3.2022514 331.97391 -34.358032 2.3509886e-038
1.6187607 332.00418 -34.361168 2.3509886e-038
6.4398894 331.9939 -34.360104 2.3509886e-038
11.253931 331.78418 -34.338398 2.3509886e-038
16.057323 331.47992 -34.306908 2.3509886e-038
20.860579 331.31418 -34.289757 2.3509886e-038
25.653349 331.07492 -34.264992 2.3509886e-038
30.384901 330.24612 -34.179214 2.3509886e-038
35.054928 329.06549 -34.057026 2.3509886e-038
39.769886 328.53946 -34.002579 2.3509886e-038
42.687019 329.03433 -34.053799 2.3509886e-038
-94.53334 327.17511 -38.612556 2.3509528e-038
-93.230133 326.48032 -38.53056 2.3509528e-038
-88.184418 325.35641 -38.397915 2.3509528e-038
-83.728622 326.40503 -38.521671 2.3509528e-038
-79.556755 328.75275 -38.798744 2.3509528e-038
-75.489967 331.86218 -39.165714 2.3509528e-038
-71.433266 335.44305 -39.588322 2.3509528e-038
-67.490097 340.12021 -40.140308 2.3509528e-038
-66.973 340.8204 -40.222946 2.3509528e-038
-47.795746 343.77676 -40.57185 2.3509886e-038
-42.477673 337.60419 -39.843372 2.3509886e-038
-37.099564 333.33231 -39.339214 2.3509886e-038
-32.105118 331.74255 -39.151592 2.3509886e-038
-27.25354 331.32858 -39.102737 2.3509886e-038
-22.448259 331.42029 -39.113564 2.3509886e-038
-17.652258 331.73691 -39.150932 2.3509886e-038
-12.849186 332.10785 -39.194706 2.3509886e-038
-8.0390863 332.6347 -39.256886 2.3509886e-038
-3.2117 332.95343 -39.294498 2.3509886e-038
1.6232234 332.91946 -39.290497 2.3509886e-038
6.4534726 332.69418 -39.263905 2.3509886e-038
11.277477 332.47836 -39.238434 2.3509886e-038
16.101763 332.39728 -39.228863 2.3509886e-038
20.930708 332.42798 -39.232491 2.3509886e-038
25.737261 332.15787 -39.200611 2.3509886e-038
30.465448 331.12155 -39.078308 2.3509886e-038
35.127518 329.74689 -38.916069 2.3509886e-038
39.831463 329.04819 -38.833611 2.3509886e-038
42.576653 329.42596 -38.878197 2.3509886e-038
-88.775093 327.59918 -43.41996 2.3509528e-038
-83.997528 327.45331 -43.400631 2.3509528e-038
-79.499046 328.51428 -43.541248 2.3509528e-038
-75.152802 330.37994 -43.788521 2.3509528e-038
-70.923119 333.04745 -44.142075 2.3509528e-038
-66.753105 336.40607 -44.587223 2.3509528e-038
-62.392441 339.25842 -44.965279 2.3509528e-038
-58.009876 340.86868 -45.178699 2.3509528e-038
-54.549202 341.93451 -45.319962 2.3509528e-038
-52.979168 342.09988 -45.341885 2.3509528e-038
-47.735256 340.13339 -45.081245 2.3509528e-038
-42.331436 336.44193 -44.59198 2.3509886e-038
-37.148743 333.77417 -44.238396 2.3509886e-038
-32.190056 332.62021 -44.085445 2.3509886e-038
-27.312952 332.05087 -44.009987 2.3509886e-038
-22.47753 331.85248 -43.983692 2.3509886e-038
-17.666786 332.00995 -44.004562 2.3509886e-038
-12.862958 332.46381 -44.06472 2.3509886e-038
-8.0550528 333.29538 -44.174934 2.3509886e-038
-3.2200723 333.82138 -44.244652 2.3509886e-038
1.6272883 333.75317 -44.235611 2.3509886e-038
6.4672518 333.40451 -44.1894 2.3509886e-038
11.302383 333.21265 -44.163967 2.3509886e-038
16.142536 333.23898 -44.167461 2.3509886e-038
20.978172 333.18179 -44.159882 2.3509886e-038
25.771488 332.59958 -44.082718 2.3509886e-038
30.485857 331.34338 -43.916218 2.3509886e-038
35.156273 330.01682 -43.740395 2.3509886e-038
39.883343 329.47675 -43.668816 2.3509886e-038
42.60548 329.94699 -43.73114 2.3509886e-038
-82.417305 330.97308 -48.673466 2.3509528e-038
-80.087975 330.94791 -48.669762 2.3509528e-038
-75.490273 331.86353 -48.804417 2.3509528e-038
-71.011909 333.46439 -49.039841 2.3509528e-038
-66.52375 335.25021 -49.302471 2.3509528e-038
-61.889759 336.52512 -49.489956 2.3509528e-038
-57.098095 337.08774 -49.572701 2.3509528e-038
-52.259304 337.45151 -49.626194 2.3509528e-038
-47.245308 336.64233 -49.507195 2.3509528e-038
-42.166676 335.13248 -49.285156 2.3509528e-038
-37.171776 333.98114 -49.115833 2.3509886e-038
-32.26239 333.36765 -49.025616 2.3509886e-038
-27.37007 332.74524 -48.934082 2.3509886e-038
-22.502098 332.21518 -48.856133 2.3509886e-038
-17.673998 332.14545 -48.845875 2.3509886e-038
-12.873878 332.74606 -48.934204 2.3509886e-038
-8.0689783 333.87155 -49.099716 2.3509886e-038
-3.2281632 334.66019 -49.215698 2.3509886e-038
1.6321468 334.74966 -49.228859 2.3509886e-038
6.4878454 334.46619 -49.187168 2.3509886e-038
11.338585 334.27994 -49.159775 2.3509886e-038
16.187231 334.16171 -49.142391 2.3509886e-038
21.010355 333.69293 -49.073456 2.3509886e-038
25.777481 332.67694 -48.924042 2.3509886e-038
30.492178 331.41208 -48.738026 2.3509886e-038
35.196762 330.39691 -48.588734 2.3509886e-038
39.983608 330.30505 -48.575222 2.3509886e-038
42.430351 330.96646 -48.672493 2.3509886e-038
-77.733093 337.3548 -54.510983 2.3509528e-038
-76.740021 337.35754 -54.511425 2.3509528e-038
-71.794319 337.13849 -54.476028 2.3509528e-038
-66.792992 336.60709 -54.390163 2.3509528e-038
-61.827312 336.18555 -54.322044 2.3509528e-038
-56.924747 336.06436 -54.302464 2.3509528e-038
-52.018337 335.89554 -54.275185 2.3509528e-038
-47.053093 335.27271 -54.174545 2.3509528e-038
-42.08527 334.48547 -54.047344 2.3509528e-038
-37.170849 333.97281 -53.964508 2.3509886e-038
-32.291908 333.67264 -53.916004 2.3509886e-038
-27.398794 333.09448 -53.822582 2.3509886e-038
-22.512136 332.36337 -53.704445 2.3509886e-038
-17.674549 332.15582 -53.67091 2.3509886e-038
-12.882662 332.97308 -53.802967 2.3509886e-038
-8.0812159 334.37793 -54.029964 2.3509886e-038
-3.2362454 335.49805 -54.210957 2.3509886e-038
1.6378852 335.92661 -54.280201 2.3509886e-038
6.5141273 335.82111 -54.263157 2.3509886e-038
11.379977 335.50021 -54.211308 2.3509886e-038
16.225895 334.95984 -54.123989 2.3509886e-038
21.024368 333.91553 -53.95525 2.3509886e-038
25.767082 332.54276 -53.733429 2.3509886e-038
30.497356 331.46838 -53.55983 2.3509886e-038
35.24556 330.85498 -53.460712 2.3509886e-038
40.099991 331.26645 -53.527203 2.3509886e-038
42.030869 332.03281 -53.651031 2.3509886e-038
-74.627518 345.60446 -60.862816 2.3509886e-038
-73.372398 344.54901 -60.676949 2.3509886e-038
-67.51329 340.23706 -59.917591 2.3509528e-038
-62.08527 337.5882 -59.451111 2.3509528e-038
-57.00983 336.56665 -59.271214 2.3509528e-038
-52.021965 335.91898 -59.15715 2.3509528e-038
-47.028435 335.09702 -59.012402 2.3509528e-038
-42.054409 334.24017 -58.861504 2.3509528e-038
-37.133827 333.6402 -58.755848 2.3509886e-038
-32.253059 333.27124 -58.690872 2.3509886e-038
-27.368479 332.72592 -58.594837 2.3509886e-038
-22.488674 332.017 -58.469997 2.3509886e-038
-17.659227 331.86789 -58.443737 2.3509886e-038
-12.880892 332.92731 -58.630306 2.3509886e-038
-8.0880985 334.66275 -58.935921 2.3509886e-038
-3.2430251 336.2009 -59.206802 2.3509886e-038
1.6432776 337.03256 -59.353264 2.3509886e-038
6.5389199 337.09921 -59.365002 2.3509886e-038
11.416527 336.57776 -59.27317 2.3509886e-038
16.259214 335.64764 -59.109371 2.3509886e-038
21.044022 334.22766 -58.859303 2.3509886e-038
25.78022 332.71228 -58.592438 2.3509886e-038
30.53124 331.83664 -58.438232 2.3509886e-038
35.311901 331.47769 -58.375023 2.3509886e-038
40.203251 332.11954 -58.488049 2.3509886e-038
41.792496 332.93005 -58.630791 2.3509886e-038
-70.506767 347.77942 -66.296227 2.3509886e-038
-68.565407 345.53925 -65.869186 2.3509886e-038
-62.598454 340.3786 -64.885429 2.3509528e-038
-57.200047 337.68964 -64.372841 2.3509528e-038
-52.034473 335.99976 -64.050705 2.3509528e-038
-46.981514 334.7627 -63.814884 2.3509528e-038
-41.988869 333.71927 -63.615986 2.3509886e-038
-37.041687 332.81232 -63.443089 2.3509886e-038
-32.142784 332.13177 -63.313358 2.3509886e-038
-27.276096 331.60281 -63.212528 2.3509886e-038
-22.430523 331.15845 -63.127823 2.3509886e-038
-17.629227 331.30411 -63.155582 2.3509886e-038
-12.869279 332.62717 -63.407803 2.3509886e-038
-8.089426 334.71765 -63.806301 2.3509886e-038
-3.2475581 336.67081 -64.178627 2.3509886e-038
1.6471664 337.83014 -64.39962 2.3509886e-038
6.5563865 337.99966 -64.431946 2.3509886e-038
11.443367 337.36908 -64.311737 2.3509886e-038
16.293634 336.35818 -64.119034 2.3509886e-038
21.09103 334.9743 -63.855225 2.3509886e-038
25.847488 333.58044 -63.589512 2.3509886e-038
30.625645 332.8627 -63.452698 2.3509886e-038
35.433369 332.61795 -63.406036 2.3509886e-038
40.341717 333.2634 -63.529083 2.3509886e-038
41.58802 334.05542 -63.680061 2.3509886e-038
-65.717613 347.04257 -71.195473 2.3509886e-038
-63.395264 344.71127 -70.717216 2.3509886e-038
-57.539989 339.69653 -69.688446 2.3509528e-038
-52.052868 336.11853 -68.954422 2.3509528e-038
-46.878838 334.03107 -68.526184 2.3509886e-038
-41.868824 332.76523 -68.266495 2.3509886e-038
-36.913815 331.66339 -68.040459 2.3509886e-038
-32.011234 330.77243 -67.857674 2.3509886e-038
-27.172714 330.34595 -67.77018 2.3509886e-038
-22.371151 330.28192 -67.75705 2.3509886e-038
-17.603838 330.82697 -67.868866 2.3509886e-038
-12.860625 332.4035 -68.192291 2.3509886e-038
-8.0890913 334.7038 -68.664192 2.3509886e-038
-3.2497497 336.89801 -69.114326 2.3509886e-038
1.6492858 338.26483 -69.394737 2.3509886e-038
6.5668364 338.53839 -69.450851 2.3509886e-038
11.464162 337.98215 -69.336739 2.3509886e-038
16.331997 337.15012 -69.166054 2.3509886e-038
21.160444 336.07672 -68.945847 2.3509886e-038
25.959717 335.02884 -68.730865 2.3509886e-038
30.785364 334.59866 -68.642624 2.3509886e-038
35.647324 334.6264 -68.648315 2.3509886e-038
40.6203 335.56476 -68.84082 2.3509886e-038
41.300854 336.12292 -68.955322 2.3509886e-038
-60.818745 346.7413 -76.168983 2.3509886e-038
-58.227608 343.75598 -75.513199 2.3509886e-038
-52.313618 337.80225 -74.205338 2.3509886e-038
-46.897747 334.1658 -73.406517 2.3509886e-038
-41.803516 332.24615 -72.984825 2.3509886e-038
-36.846985 331.06296 -72.724907 2.3509886e-038
-31.96381 330.28241 -72.553452 2.3509886e-038
-27.145399 330.01389 -72.494453 2.3509886e-038
-22.359859 330.1152 -72.516716 2.3509886e-038
-17.601221 330.7778 -72.662262 2.3509886e-038
-12.858854 332.35773 -73.009331 2.3509886e-038
-8.0859728 334.57477 -73.496346 2.3509886e-038
-3.2488623 336.806 -73.986488 2.3509886e-038
1.6499386 338.39871 -74.336365 2.3509886e-038
6.5754638 338.98315 -74.464745 2.3509886e-038
11.488101 338.68793 -74.399895 2.3509886e-038
16.375221 338.04245 -74.258095 2.3509886e-038
21.235502 337.2688 -74.088158 2.3509886e-038
26.088892 336.69592 -73.962311 2.3509886e-038
30.991156 336.83536 -73.992935 2.3509886e-038
35.975964 337.71136 -74.185371 2.3509886e-038
41.121857 339.9483 -74.676758 2.3509886e-038
-55.759964 345.44681 -80.901161 2.3509886e-038
-52.997383 342.2175 -80.14489 2.3509886e-038
-47.262695 336.7662 -78.868233 2.3509886e-038
-41.940563 333.33536 -78.064758 2.3509886e-038
-36.896935 331.51172 -77.637665 2.3509886e-038
-32.006332 330.72177 -77.452667 2.3509886e-038
-27.183609 330.47839 -77.395668 2.3509886e-038
-22.386166 330.50357 -77.401573 2.3509886e-038
-17.614067 331.0192 -77.522324 2.3509886e-038
-12.859546 332.37561 -77.839989 2.3509886e-038
-8.0806322 334.35376 -78.303253 2.3509886e-038
-3.2463171 336.54214 -78.815758 2.3509886e-038
1.6500167 338.4147 -79.254303 2.3509886e-038
6.5853686 339.49374 -79.507004 2.3509886e-038
11.519776 339.62177 -79.53698 2.3509886e-038
16.432028 339.21512 -79.441757 2.3509886e-038
21.328766 338.75006 -79.332832 2.3509886e-038
26.250275 338.77869 -79.339531 2.3509886e-038
31.286963 340.05038 -79.637367 2.3509886e-038
36.583344 343.4129 -80.424835 2.3509886e-038
41.978264 349.2417 -81.789902 2.3509886e-038
-50.900311 345.48962 -85.928337 2.3509886e-038
-48.018749 342.15344 -85.098572 2.3509886e-038
-42.363121 336.69379 -83.740685 2.3509886e-038
-37.117329 333.49191 -82.944328 2.3509886e-038
-32.148136 332.18704 -82.619789 2.3509886e-038
-27.277733 331.62268 -82.479424 2.3509886e-038
-22.447012 331.40192 -82.424515 2.3509886e-038
-17.650963 331.71259 -82.501778 2.3509886e-038
-12.875895 332.79819 -82.771782 2.3509886e-038
-8.0863438 334.59015 -83.217468 2.3509886e-038
-3.2487314 336.79245 -83.765213 2.3509886e-038
1.6525784 338.94012 -84.29937 2.3509886e-038
6.6045375 340.48196 -84.682854 2.3509886e-038
11.567854 341.03915 -84.821434 2.3509886e-038
16.514297 340.91348 -84.790176 2.3509886e-038
21.45536 340.76068 -84.752174 2.3509886e-038
26.459379 341.47733 -84.93042 2.3509886e-038
31.695436 344.49002 -85.679718 2.3509886e-038
37.471031 351.74579 -87.484329 2.3509886e-038
43.903324 362.68585 -90.205292 2.3509886e-038
44.624569 364.09363 -90.55542 2.3509886e-038
-45.402317 344.75696 -90.752625 2.3509886e-038
-43.042576 342.09393 -90.05162 2.3509886e-038
-37.568211 337.543 -88.853653 2.3509886e-038
-32.454422 335.35193 -88.276878 2.3509886e-038
-27.474636 334.01651 -87.925346 2.3509886e-038
-22.580393 333.37109 -87.755447 2.3509886e-038
-17.747414 333.52515 -87.796005 2.3509886e-038
-12.937516 334.39087 -88.023895 2.3509886e-038
-8.1230078 336.10718 -88.475685 2.3509886e-038
-3.2642179 338.39792 -89.078697 2.3509886e-038
1.6614263 340.75482 -89.699112 2.3509886e-038
6.6455445 342.59601 -90.183777 2.3509886e-038
11.651025 343.49118 -90.419418 2.3509886e-038
16.64625 343.63745 -90.457924 2.3509886e-038
21.644279 343.76114 -90.490494 2.3509886e-038
26.741358 345.11646 -90.84726 2.3509886e-038
32.187237 349.83527 -92.089424 2.3509886e-038
38.382317 360.30014 -94.844162 2.3509886e-038
45.090858 372.49609 -98.054581 2.3509886e-038
48.344025 377.83749 -99.460625 2.3509886e-038
-38.503761 344.62589 -95.722717 2.3509886e-038
-38.34256 344.50043 -95.687874 2.3509886e-038
-33.013645 341.13037 -94.751816 2.3509886e-038
-27.85672 338.66162 -94.066093 2.3509886e-038
-22.854599 337.4194 -93.721054 2.3509886e-038
-17.951735 337.36493 -93.705933 2.3509886e-038
-13.074547 337.93268 -93.863632 2.3509886e-038
-8.2031889 339.4248 -94.278084 2.3509886e-038
-3.295676 341.65915 -94.898689 2.3509886e-038
1.6779501 344.1438 -95.588821 2.3509886e-038
6.717299 346.29514 -96.186371 2.3509886e-038
11.791595 347.63541 -96.558647 2.3509886e-038
16.865618 348.16599 -96.706009 2.3509886e-038
21.949089 348.6022 -96.827179 2.3509886e-038
27.144505 350.31937 -97.304131 2.3509886e-038
32.703724 355.44885 -98.728889 2.3509886e-038
38.990654 366.01068 -101.66253 2.3509886e-038
45.701824 377.5433 -104.86581 2.3509886e-038
51.968033 385.6286 -107.11157 2.3509886e-038
-26.969265 345.94431 -101.11269 2.3509886e-038
-23.359619 344.8754 -100.80027 2.3509886e-038
-18.325682 344.39249 -100.65913 2.3509886e-038
-13.322866 344.35086 -100.64697 2.3509886e-038
-8.3336 344.82089 -100.78434 2.3509886e-038
-3.3411674 346.37518 -101.23863 2.3509886e-038
1.7009611 348.86331 -101.96586 2.3509886e-038
6.8178329 351.47794 -102.73006 2.3509886e-038
11.987875 353.42206 -103.29829 2.3509886e-038
17.164839 354.34296 -103.56745 2.3509886e-038
22.346659 354.91653 -103.7351 2.3509886e-038
27.614952 356.39081 -104.16599 2.3509886e-038
33.154568 360.34894 -105.32288 2.3509886e-038
39.247772 368.42432 -107.68316 2.3509886e-038
45.825802 378.56747 -110.6478 2.3509886e-038
52.520348 387.39694 -113.22848 2.3509886e-038
54.427258 389.46704 -113.83353 2.3509886e-038
-13.174665 353.07068 -108.32281 2.3509886e-038
-8.5005131 351.72723 -107.91064 2.3509886e-038
-3.4003487 352.51044 -108.15092 2.3509886e-038
1.7324402 355.31958 -109.01278 2.3509886e-038
6.9489183 358.23575 -109.90746 2.3509886e-038
12.216047 360.14893 -110.49444 2.3509886e-038
17.480066 360.85034 -110.70963 2.3509886e-038
22.737196 361.11917 -110.79211 2.3509886e-038
28.045729 361.95032 -111.0471 2.3509886e-038
33.515484 364.27164 -111.75929 2.3509886e-038
39.342297 369.31161 -113.30556 2.3509886e-038
45.662964 377.22226 -115.73257 2.3509886e-038
52.313305 385.86978 -118.38564 2.3509886e-038
54.394772 388.38373 -119.15693 2.3509886e-038
0.10484797 363.19797 -116.70417 2.3509886e-038
1.7747983 364.00714 -116.96418 2.3509886e-038
7.1052713 366.29617 -117.69971 2.3509886e-038
12.452127 367.10898 -117.96088 2.3509886e-038
17.769297 366.82108 -117.86837 2.3509886e-038
23.069422 366.39569 -117.73167 2.3509886e-038
28.403736 366.57065 -117.7879 2.3509886e-038
33.839443 367.79266 -118.18056 2.3509886e-038
39.487267 370.67245 -119.10591 2.3509886e-038
45.479393 375.70581 -120.72325 2.3509886e-038
51.837788 382.3623 -122.86214 2.3509886e-038
51.874451 382.40369 -122.87543 2.3509886e-038
9.4814405 374.62756 -125.81708 2.3509886e-038
12.684278 373.95313 -125.59058 2.3509886e-038
18.048552 372.58591 -125.1314 2.3509886e-038
23.387875 371.45346 -124.75108 2.3509886e-038
28.750185 371.04184 -124.61283 2.3509886e-038
34.181355 371.50885 -124.76968 2.3509886e-038
39.734665 372.99484 -125.26875 2.3509886e-038
45.495396 375.83798 -126.22359 2.3509886e-038
48.879131 378.10968 -126.98653 2.3509886e-038
19.124578 377.45871 -132.24933 2.3509886e-038
23.671618 375.95996 -131.72421 2.3509886e-038
29.054441 374.96848 -131.37683 2.3509886e-038
34.482437 374.78125 -131.31123 2.3509886e-038
39.985527 375.3497 -131.51039 2.3509886e-038
43.201294 376.23151 -131.81935 2.3509886e-038
-99.138733 330.37088 -27.959696 2.3509528e-038
-98.66114 328.77936 -33.800396 2.3509528e-038
-94.566559 331.16034 -25.02421 2.3509528e-038
-93.392441 327.04868 -39.6628 2.3509528e-038
-90.469963 333.78894 -25.346687 2.3509528e-038
-88.7911 327.59479 -43.407913 2.3509528e-038
-86.045418 335.43674 -27.033838 2.3509528e-038
-84.5616 329.65228 -46.826973 2.3509528e-038
-81.544098 336.96509 -29.586418 2.3509528e-038
-80.480057 332.56812 -50.576752 2.3509528e-038
-77.112259 338.99393 -32.629368 2.3509886e-038
-77.133026 339.08527 -55.706009 2.3509528e-038
-72.268806 339.36664 -35.92305 2.3509528e-038
-73.82122 346.65659 -62.163403 2.3509886e-038
-62.823437 316.60229 59.853935 2.3418052e-038
-63.374542 319.37961 36.749123 2.3418052e-038
-67.587524 340.61115 -39.701839 2.3509528e-038
-68.955429 347.50479 -67.895958 2.3509886e-038
-57.822918 314.41168 57.496292 2.3418052e-038
-59.378845 322.87201 24.301931 2.3418052e-038
-62.735767 341.12527 -43.298885 2.3509528e-038
-63.816765 347.00317 -73.178177 2.3509886e-038
-53.144489 313.74698 50.918682 2.3418052e-038
-55.327068 326.6322 13.930407 2.3418052e-038
-57.743069 340.89545 -45.236828 2.3509528e-038
-58.638985 346.18463 -78.194878 2.3509886e-038
-49.081505 316.93167 42.598793 2.3418052e-038
-51.815987 334.58893 3.7069352 2.3509886e-038
-53.079842 342.74991 -44.921341 2.3509528e-038
-53.477798 345.31967 -83.231438 2.3509886e-038
-44.920055 320.07397 34.767788 2.3418052e-038
-47.612625 339.25961 -10.688959 2.3509886e-038
-48.270462 343.94696 -41.236988 2.3509886e-038
-48.478054 345.42618 -88.260986 2.3509886e-038
-40.615593 322.80475 26.346176 2.3418052e-038
-43.308186 344.20499 -92.252998 2.3509886e-038
-36.560932 328.4928 15.105311 2.3418052e-038
-38.359718 344.65457 -95.813461 2.3509886e-038
-31.958584 330.22842 7.107995 2.3509886e-038
-33.42635 345.39484 -98.551758 2.3509886e-038
-27.27486 331.58777 4.205462 2.3509886e-038
-28.426781 345.59198 -100.48412 2.3509886e-038
-21.885324 323.10931 77.733612 3.5733111e-043
-22.421194 331.02075 25.643227 3.5733111e-043
-22.770586 336.17905 9.3743162 2.3509886e-038
-23.53429 347.45419 -102.81577 2.3509886e-038
-17.201756 323.27066 76.172279 3.5733111e-043
-18.64674 350.42609 -105.5302 2.3509886e-038
-12.53631 324.02106 67.105705 3.5733111e-043
-13.653744 352.90295 -108.10427 2.3509886e-038
-7.8306494 324.01019 45.704254 3.5733111e-043
-8.5648241 354.38828 -110.28688 2.3509886e-038
-3.1902604 330.73083 21.378115 3.5733111e-043
-3.4553697 358.21442 -113.39619 2.3509886e-038
1.6085676 329.91357 10.683 2.3509886e-038
1.7830156 365.6925 -118.39806 2.3509886e-038
6.3139024 325.49893 36.57988 9.1476764e-041
7.230535 372.75385 -123.8448 2.3509886e-038
11.006438 324.48767 66.360382 9.1476764e-041
12.763851 376.29907 -128.34457 2.3509886e-038
15.740152 324.93237 68.53878 9.1476764e-041
18.282721 377.41998 -131.81477 2.3509886e-038
20.536667 326.16971 63.9053 9.1476764e-041
23.759146 377.3501 -134.16956 2.3509886e-038
25.327579 326.87064 -2.3118684 2.3509886e-038
29.200575 376.85443 -135.21399 2.3509886e-038
29.971855 325.75681 -1.8107105 2.3509886e-038
34.625988 376.34146 -134.88266 2.3509886e-038
34.602215 324.8158 2.3645735 2.3418409e-038
40.059124 376.04056 -133.27975 2.3509886e-038
39.087646 322.90347 9.1409006 2.3418409e-038
41.109009 339.60202 -74.304535 2.3509886e-038
43.216713 357.01376 -86.453018 2.3509886e-038
45.589512 376.61548 -130.27882 2.3509886e-038
43.444714 320.45392 16.612219 2.3418409e-038
44.381615 327.36459 -19.177008 2.3418409e-038
52.371277 386.29739 -107.98822 2.3509886e-038
51.831173 382.31351 -122.93032 2.3509886e-038
48.365822 322.23633 25.764849 2.3418409e-038
48.694649 324.42712 -3.5232418 2.3418409e-038
53.136303 322.78915 34.033142 2.3418409e-038
52.798443 320.73672 7.3515797 2.3418409e-038
58.201679 324.89862 36.690708 2.3418409e-038
57.681416 321.99435 19.784225 2.3418409e-038
