# .PCD v0.7 - Point Cloud Data file format
VERSION 0.7
FIELDS x y z rgb
SIZE 4 4 4 4
TYPE F F F F
COUNT 1 1 1 1
WIDTH 877
HEIGHT 1
VIEWPOINT 0 0 0 1 0 0 0
POINTS 877
DATA ascii
29.150183 309.46854 61.215378 2.3418052e-038
-47.462013 296.39612 55.837666 9.1476764e-041
66.114464 305.17142 22.996334 3.5733111e-043
-87.377716 319.87326 -24.104198 2.3509528e-038
-4.3188181 305.66724 73.419907 2.3418409e-038
-6.880877 305.95544 79.046547 2.3418409e-038
-4.1948471 304.87125 78.766426 2.3418409e-038
-3.8121214 304.74945 78.73497 2.3418409e-038
-9.4812775 308.59543 75.108971 2.3418409e-038
-8.8545332 308.20493 75.013931 2.3418409e-038
-4.2072492 305.77261 74.421921 2.3418409e-038
0.36871344 304.5993 74.136353 2.3418409e-038
0.72250205 304.61948 74.141273 2.3418409e-038
-9.7693548 310.15701 70.846016 2.3418409e-038
-8.892045 309.51062 70.698364 2.3418409e-038
-4.2179561 306.55075 70.02227 2.3418409e-038
0.36879867 304.66974 69.592613 2.3418409e-038
2.2977197 305.0152 69.671524 2.3418409e-038
-9.7954388 310.62225 66.302292 2.3418409e-038
-8.9041929 309.93344 66.155273 2.3418409e-038
-4.2216487 306.81912 65.490517 2.3418409e-038
0.36873829 304.61984 65.02108 2.3418409e-038
2.8482053 304.93695 65.08876 2.3418409e-038
26.627005 311.36307 66.460426 2.3418052e-038
28.229403 310.11078 66.193115 2.3418052e-038
32.301483 308.5206 65.853691 2.3418052e-038
-52.516182 299.12943 59.371204 9.1476764e-041
-48.365513 295.88828 58.727898 9.1476764e-041
-43.594738 293.58954 58.271645 9.1476764e-041
-42.110203 293.6333 58.280334 9.1476764e-041
-9.8014526 310.7995 61.687481 2.3418409e-038
-8.9098358 310.12985 61.554565 2.3418409e-038
-4.2252679 307.08215 60.949657 2.3418409e-038
0.36911374 304.93002 60.522507 2.3418409e-038
3.2357841 305.43176 60.622089 2.3418409e-038
23.990404 313.96234 62.315239 2.3418052e-038
28.241125 310.23956 61.57634 2.3418052e-038
32.768326 309.13525 61.357159 2.3418052e-038
34.828751 309.44098 61.417835 2.3418052e-038
-53.783241 301.90002 55.401691 9.1476764e-041
-48.570129 297.14011 54.528191 9.1476764e-041
-43.720676 294.43768 54.032272 9.1476764e-041
-39.852364 295.21442 54.174812 9.1476764e-041
-9.8183546 311.33615 57.133312 2.3418409e-038
-8.9252014 310.6647 57.010094 2.3418409e-038
-4.231956 307.56821 56.441856 2.3418409e-038
0.36996403 305.63245 56.086624 2.3418409e-038
3.8442407 306.88522 56.316521 2.3418409e-038
22.705851 314.54358 57.721905 2.3418052e-038
23.832645 313.33969 57.50098 2.3418052e-038
28.265709 310.50961 56.98164 2.3418052e-038
32.917286 310.54059 56.98732 2.3418052e-038
35.296032 311.54095 57.170898 2.3418052e-038
-54.055214 304.37534 51.299458 9.1476764e-041
-48.946777 299.44431 50.468384 9.1476764e-041
-44.038521 296.57819 49.985329 9.1476764e-041
-39.667366 297.09192 50.071915 9.1476764e-041
-38.407158 297.93158 50.213428 9.1476764e-041
-9.8444624 312.16333 52.612049 2.3509886e-038
-8.9476624 311.4465 52.491238 2.3418409e-038
-4.2395749 308.12195 51.930916 2.3418409e-038
0.37080541 306.32751 51.628483 2.3418409e-038
4.6028376 308.2662 51.955227 2.3418409e-038
21.819859 314.21368 52.957615 2.3418052e-038
23.767076 312.47763 52.66502 2.3418052e-038
28.268015 310.53494 52.337601 2.3418052e-038
33.060699 311.89352 52.566578 2.3418052e-038
34.9594 313.3374 52.809933 2.3418052e-038
-53.71106 306.47174 47.064926 9.1476764e-041
-49.499203 302.82394 46.504734 9.1476764e-041
-44.492645 299.63651 46.01524 9.1476764e-041
-39.935829 299.1026 45.933247 9.1476764e-041
-36.860008 301.02081 46.227829 9.1476764e-041
-9.8706446 312.99426 48.066593 2.3418409e-038
-8.9704485 312.23965 47.950706 2.3418409e-038
-4.2474632 308.69525 47.406395 2.3418409e-038
0.37128109 306.72049 47.10313 2.3418409e-038
4.9852319 308.10355 47.315521 2.3418409e-038
5.1584449 308.25824 47.339279 2.3418409e-038
21.158558 314.31839 48.269939 2.3418052e-038
23.744404 312.17953 47.941475 2.3418052e-038
28.283632 310.70648 47.715263 2.3418052e-038
33.20443 313.24948 48.105785 2.3418052e-038
34.434826 314.61316 48.315208 2.3418052e-038
-52.968811 309.40817 42.884056 9.1476764e-041
-50.156155 306.84299 42.528522 9.1476764e-041
-44.922768 302.53317 41.931183 9.1476764e-041
-40.14901 300.69922 41.676998 9.1476764e-041
-35.818687 302.14261 41.877048 9.1476764e-041
-34.923401 303.14719 42.016285 9.1476764e-041
-9.8959808 313.79694 43.492344 2.3509886e-038
-8.992938 313.02246 43.384998 2.3418409e-038
-4.2557616 309.29834 42.868835 2.3418409e-038
0.37168738 307.05612 42.558064 2.3418409e-038
4.9818292 307.89325 42.674088 2.3418409e-038
5.5992966 308.35028 42.737434 2.3418409e-038
20.575815 315.03036 43.663296 2.3418052e-038
23.744076 312.1752 43.26757 2.3418052e-038
28.291359 310.79141 43.075775 2.3418052e-038
33.304855 314.1969 43.547775 2.3418052e-038
34.100765 315.32413 43.70401 2.3418052e-038
-51.859253 311.7966 38.547523 9.1476764e-041
-50.749153 310.47083 38.383614 9.1476764e-041
-45.243031 304.69 37.66893 9.1476764e-041
-40.289749 301.75333 37.305866 9.1476764e-041
-35.794182 301.93591 37.328442 9.1476764e-041
-32.741047 303.92526 37.574387 9.1476764e-041
-9.9117041 314.29553 38.856464 2.3509886e-038
-9.0082588 313.55573 38.765003 2.3509886e-038
-4.2644744 309.93158 38.316948 2.3418409e-038
0.37248194 307.71252 38.042606 2.3418409e-038
4.9963269 308.78922 38.175716 2.3418409e-038
6.1711969 309.85052 38.306927 2.3418409e-038
19.84528 315.53387 39.009563 2.3418409e-038
23.721546 311.879 38.557709 2.3418052e-038
28.270342 310.56049 38.394699 2.3418052e-038
33.299316 314.14462 38.837807 2.3418052e-038
33.953423 315.1651 38.96397 2.3418052e-038
-50.687534 313.0531 34.016491 9.1476764e-041
-45.564888 306.85754 33.343281 9.1476764e-041
-40.468513 303.09219 32.934132 9.1476764e-041
-35.849464 302.40222 32.859161 9.1476764e-041
-31.501406 304.12933 33.046829 2.3509886e-038
-30.746513 304.89764 33.130314 2.3509886e-038
-9.9318686 314.93567 34.22105 2.3509886e-038
-9.0278845 314.23886 34.145336 2.3509886e-038
-4.2774787 310.87671 33.780003 2.3418409e-038
0.37406665 309.02167 33.578438 2.3418409e-038
5.026278 310.64032 33.754314 2.3418409e-038
6.9076633 312.62994 33.970509 2.3418409e-038
18.824574 315.48215 34.28043 2.3418409e-038
19.247932 315.07397 34.23608 2.3418409e-038
23.672951 311.24011 33.819489 2.3418052e-038
28.240383 310.23138 33.709885 2.3418052e-038
33.256653 313.74216 34.091366 2.3418052e-038
33.873352 314.70212 34.195675 2.3418052e-038
-49.603931 314.38934 29.455292 9.1476764e-041
-46.009251 309.85013 29.030008 9.1476764e-041
-40.776882 305.40173 28.613237 9.1476764e-041
-36.054932 304.13541 28.494595 9.1476764e-041
-31.61702 305.24551 28.5986 9.1476764e-041
-29.041174 307.21951 28.783545 2.3509886e-038
-9.9900723 316.78055 29.679323 2.3509886e-038
-9.078764 316.00989 29.607119 2.3509886e-038
-4.3006358 312.55969 29.283871 2.3418409e-038
0.37647659 311.01257 29.13892 2.3418409e-038
5.0610404 312.78876 29.30533 2.3418409e-038
7.4844179 315.02258 29.514618 2.3418409e-038
17.710327 315.23016 29.534065 2.3418409e-038
19.173195 313.85059 29.404814 2.3418409e-038
23.625607 310.61761 29.101915 2.3418052e-038
28.22608 310.07428 29.05101 2.3418052e-038
33.262318 313.79556 29.39966 2.3418052e-038
33.852306 314.69547 29.483973 2.3418052e-038
66.098518 304.08664 28.490025 3.5733111e-043
68.702789 304.31863 28.511761 3.5733111e-043
69.954933 304.63394 28.541302 3.5733111e-043
-48.337589 315.43527 24.831251 9.1476764e-041
-46.491516 313.09793 24.647255 9.1476764e-041
-41.148144 308.18234 24.260296 9.1476764e-041
-36.335106 306.49878 24.127764 9.1476764e-041
-31.822651 307.2308 24.18539 9.1476764e-041
-27.491091 310.25137 24.423172 2.3509886e-038
-27.345934 310.40793 24.435495 2.3509886e-038
-10.091294 319.96252 25.187639 2.3509886e-038
-9.1632576 318.9509 25.108002 2.3509886e-038
-4.3323383 314.86377 24.786263 2.3418409e-038
0.37902868 313.12088 24.649061 2.3418409e-038
5.086484 314.36121 24.7467 2.3418409e-038
7.4730315 315.9328 24.870419 2.3418409e-038
16.764072 315.20969 24.813494 2.3418409e-038
19.123999 313.04529 24.64311 2.3418409e-038
23.59021 310.15225 24.415371 2.3418052e-038
28.210876 309.90726 24.396082 2.3418052e-038
33.249043 313.67035 24.692314 2.3509886e-038
33.659855 314.28149 24.740425 2.3509886e-038
61.454121 305.3046 24.033756 3.5733111e-043
64.246574 304.79031 23.993275 3.5733111e-043
68.880943 305.10776 24.018265 3.5733111e-043
72.106522 306.79599 24.151161 3.5733111e-043
-46.693371 316.15823 20.155285 9.1476764e-041
-41.604652 311.60141 19.864784 9.1476764e-041
-36.682903 309.43256 19.726519 9.1476764e-041
-32.048 309.40643 19.724854 9.1476764e-041
-27.649569 312.03989 19.892736 9.1476764e-041
-25.745287 314.84528 20.071583 2.3509886e-038
-10.18923 322.33182 20.548855 2.3509886e-038
-9.2241402 321.07004 20.468416 2.3509886e-038
-4.35571 316.56235 20.181049 2.3509886e-038
0.38055655 314.38309 20.042118 2.3418409e-038
5.0956144 314.92551 20.0767 2.3418409e-038
7.0986156 316.01071 20.14588 2.3418409e-038
16.149387 315.7178 20.127209 2.3418052e-038
19.112728 312.86078 19.94507 2.3418052e-038
23.56811 309.86169 19.753878 2.3418052e-038
28.190308 309.6813 19.742374 2.3418052e-038
33.058483 313.18781 19.965919 2.3509886e-038
58.285366 305.26822 19.461039 3.5733111e-043
59.763901 305.19888 19.456619 3.5733111e-043
64.454201 305.77533 19.493368 3.5733111e-043
69.432327 307.55011 19.606512 3.5733111e-043
72.102348 309.50595 19.731197 3.5733111e-043
-45.144848 318.91907 15.557107 9.1476764e-041
-42.268925 316.57651 15.442835 9.1476764e-041
-37.151802 313.38788 15.287292 9.1476764e-041
-32.304634 311.88406 15.213935 9.1476764e-041
-27.77165 313.41763 15.288743 9.1476764e-041
-24.172668 319.47336 15.584146 2.3509886e-038
-10.348756 323.03665 15.757965 2.3509886e-038
-9.2425175 321.70972 15.693236 2.3509886e-038
-4.368454 317.48853 15.487324 2.3509886e-038
0.38149679 315.15982 15.373728 2.3509886e-038
5.1026435 315.35992 15.383489 2.3418052e-038
6.9429331 316.32602 15.430616 2.3418052e-038
15.566889 316.82089 15.454756 2.3418052e-038
19.133015 313.19284 15.277777 2.3418052e-038
23.57468 309.94809 15.119495 2.3418052e-038
28.182617 309.5968 15.102361 2.3418052e-038
31.932722 311.64886 15.202462 2.3509886e-038
55.108795 303.91602 14.825246 3.5733111e-043
59.578625 304.25272 14.841671 3.5733111e-043
64.529251 306.13135 14.933313 3.5733111e-043
69.886086 309.56006 15.100568 3.5733111e-043
70.586395 310.18207 15.130909 3.5733111e-043
-44.026955 324.51718 10.972188 9.1476764e-041
-43.217003 323.67722 10.943788 9.1476764e-041
-37.722054 318.19815 10.758536 9.1476764e-041
-32.581955 314.56146 10.635576 9.1476764e-041
-27.842499 314.21722 10.623937 9.1476764e-041
-23.445442 318.38297 10.764785 2.3509886e-038
-22.061405 320.8186 10.847136 2.3509886e-038
-11.040011 322.52484 10.904825 2.3509886e-038
-9.2259874 321.13437 10.857811 2.3509886e-038
-4.3740687 317.89661 10.74834 2.3509886e-038
0.38241354 315.91718 10.681414 2.3509886e-038
5.1153221 316.14355 10.689068 2.3418052e-038
8.0935669 317.61148 10.738701 2.3418052e-038
14.096869 318.11325 10.755665 2.3418052e-038
14.653488 317.7236 10.742491 2.3418052e-038
19.152407 313.51028 10.600036 2.3418052e-038
23.602116 310.30878 10.49179 2.3418052e-038
28.186741 309.64212 10.46925 2.3509886e-038
30.445423 310.39563 10.494726 2.3509886e-038
52.154751 304.60574 10.298965 3.5733111e-043
54.810173 303.07043 10.247055 3.5733111e-043
59.397652 303.32855 10.255783 3.5733111e-043
64.487259 305.93213 10.343811 3.5733111e-043
68.064919 309.18796 10.453894 3.5733111e-043
-42.961254 329.41556 6.2064781 9.1476764e-041
-38.253162 322.67822 6.0795407 9.1476764e-041
-32.834568 317.00031 5.9725637 9.1476764e-041
-27.922787 315.12329 5.9371991 2.3509886e-038
-23.306334 316.49393 5.9630232 2.3509886e-038
-18.736084 319.3511 6.0168552 2.3509886e-038
-17.573446 319.89609 6.0271235 2.3509886e-038
-13.954484 320.62494 6.0408554 2.3509886e-038
-9.187521 319.79544 6.0252261 2.3509886e-038
-4.375576 318.00616 5.9915152 2.3509886e-038
0.38339123 316.72482 5.9673738 2.3509886e-038
5.127758 316.91211 5.9709024 2.3509886e-038
9.9077139 318.06116 5.9925508 2.3418052e-038
14.616003 316.91083 5.9708781 2.3418052e-038
19.154409 313.54306 5.9074264 2.3418052e-038
23.641668 310.8288 5.856287 2.3509886e-038
28.220295 310.01074 5.8408742 2.3509886e-038
29.285057 310.19919 5.8444247 2.3509886e-038
49.256317 307.61353 5.7957087 3.5733111e-043
50.801147 306.25302 5.7700758 3.5733111e-043
54.904663 303.5929 5.7199564 3.5733111e-043
59.389095 303.28485 5.7141528 3.5733111e-043
64.584885 306.39529 5.7727561 3.5733111e-043
64.989914 306.80032 5.7803879 3.5733111e-043
-41.674114 330.71112 1.280166 2.3509886e-038
-38.623768 325.80441 1.2611723 2.3509886e-038
-33.054375 319.12244 1.2353067 2.3509886e-038
-28.032547 316.362 1.2246212 2.3509886e-038
-23.297531 316.37439 1.2246692 2.3509886e-038
-18.609674 317.19653 1.2278516 2.3509886e-038
-13.903014 318.15213 1.2315507 2.3509886e-038
-9.1525726 318.57895 1.2332029 2.3509886e-038
-4.3801279 318.33701 1.2322663 2.3509886e-038
0.38478398 317.87543 1.2304796 2.3509886e-038
5.1398754 317.66098 1.2296495 2.3509886e-038
9.8914089 317.53769 1.2291722 2.3509886e-038
14.587472 316.29224 1.2243512 2.3509886e-038
19.180433 313.96909 1.2153584 2.3509886e-038
23.72398 311.91101 1.2073917 2.3509886e-038
28.347216 311.405 1.2054329 2.3509886e-038
28.998606 311.55099 1.2059982 2.3509886e-038
45.912308 310.4295 1.2016569 3.5733111e-043
46.768158 309.9082 1.199639 3.5733111e-043
51.023052 307.59076 1.1906682 3.5733111e-043
55.252163 305.5144 1.1826307 3.5733111e-043
59.697701 304.86081 1.1801006 3.5733111e-043
62.375111 306.36285 1.1859151 3.5733111e-043
-40.65007 331.79355 -3.6825697 2.3509886e-038
-39.001392 328.98981 -3.6514513 2.3509886e-038
-33.302555 321.51849 -3.5685272 2.3509886e-038
-28.173027 317.94739 -3.5288916 2.3509886e-038
-23.366615 317.31253 -3.5218453 2.3509886e-038
-18.632444 317.58459 -3.5248652 2.3509886e-038
-13.903784 318.16974 -3.5313597 2.3509886e-038
-9.1587915 318.79544 -3.5383043 2.3509886e-038
-4.3924565 319.233 -3.5431607 2.3509886e-038
0.38651216 319.3031 -3.5439386 2.3509886e-038
5.1602893 318.92264 -3.539716 2.3509886e-038
9.9099808 318.13391 -3.530962 2.3509886e-038
14.609597 316.77194 -3.5158455 2.3509886e-038
19.238451 314.91879 -3.4952774 2.3509886e-038
23.8256 313.24704 -3.4767225 2.3509886e-038
28.484482 312.9129 -3.4730141 2.3509886e-038
29.911453 313.24252 -3.4766726 2.3509886e-038
41.590664 312.96976 -3.4736447 3.5733111e-043
42.478825 312.48264 -3.4682384 3.5733111e-043
46.841587 310.39481 -3.4450655 3.5733111e-043
51.277336 309.12369 -3.4309576 3.5733111e-043
55.705021 308.01843 -3.4186904 3.5733111e-043
60.174587 308.10382 -3.4196382 3.5733111e-043
-39.860607 333.54791 -8.6952305 2.3509886e-038
-39.454937 332.81558 -8.6761398 2.3509886e-038
-33.589706 324.29074 -8.4539061 2.3509886e-038
-28.352253 319.97003 -8.3412695 2.3509886e-038
-23.485518 318.92719 -8.3140841 2.3509886e-038
-18.725945 319.17831 -8.3206301 2.3509886e-038
-13.970872 319.70496 -8.3343592 2.3509886e-038
-9.1960421 320.09201 -8.34445 2.3509886e-038
-4.4080687 320.36765 -8.351635 2.3509886e-038
0.38803858 320.56409 -8.3567562 2.3509886e-038
5.1837463 320.37238 -8.351758 2.3509886e-038
9.9518251 319.4772 -8.3284216 2.3509886e-038
14.662613 317.92145 -8.2878656 2.3509886e-038
19.309578 316.08307 -8.2399406 2.3509886e-038
23.930019 314.6199 -8.2017975 2.3509886e-038
28.605139 314.23837 -8.1918516 2.3509886e-038
33.375084 314.85941 -8.2080421 2.3509886e-038
38.051785 314.55576 -8.2001257 2.3509886e-038
42.521568 312.79703 -8.1542778 3.5733111e-043
46.95084 311.11874 -8.1105261 3.5733111e-043
51.526443 310.62543 -8.0976667 3.5733111e-043
56.212337 310.82361 -8.1028328 3.5733111e-043
57.903496 311.29105 -8.1150179 3.5733111e-043
-39.192436 335.09921 -13.752083 2.3509886e-038
-33.855034 326.85236 -13.413641 2.3509886e-038
-28.537621 322.06201 -13.217051 2.3509886e-038
-23.620724 320.76328 -13.163753 2.3509886e-038
-18.832743 320.99863 -13.17341 2.3509886e-038
-14.044206 321.38312 -13.189189 2.3509886e-038
-9.2335987 321.39926 -13.189852 2.3509886e-038
-4.420928 321.30228 -13.185872 2.3509886e-038
0.38907126 321.41721 -13.190589 2.3509886e-038
5.2011113 321.44559 -13.191753 2.3509886e-038
9.9889631 320.6694 -13.1599 2.3509886e-038
14.715967 319.07831 -13.094603 2.3509886e-038
19.385496 317.32581 -13.022681 2.3509886e-038
24.044989 316.13147 -12.973668 2.3509886e-038
28.741161 315.73267 -12.957301 2.3509886e-038
33.476971 315.82065 -12.960912 2.3509886e-038
38.15173 315.38199 -12.942909 3.5733111e-043
42.674889 313.92487 -12.883112 3.5733111e-043
47.130413 312.30869 -12.816786 3.5733111e-043
51.7873 312.198 -12.812243 3.5733111e-043
55.333981 313.57547 -12.868773 3.5733111e-043
-93.54026 322.04333 -18.037237 2.3509528e-038
-90.782097 320.53778 -17.952913 2.3509528e-038
-86.011414 320.6412 -17.958706 2.3509528e-038
-84.891647 321.43591 -18.003218 2.3509528e-038
-38.981636 336.00244 -18.819069 2.3509886e-038
-34.016243 328.40878 -18.393759 2.3509886e-038
-28.673803 323.59891 -18.124365 2.3509886e-038
-23.729044 322.23422 -18.047928 2.3509886e-038
-18.914785 322.39703 -18.057049 2.3509886e-038
-14.094106 322.52502 -18.064219 2.3509886e-038
-9.258131 322.25317 -18.04899 2.3509886e-038
-4.430469 321.99564 -18.034569 2.3509886e-038
0.38986316 322.07141 -18.038811 2.3509886e-038
5.2119875 322.11774 -18.041407 2.3509886e-038
10.013041 321.44238 -18.003582 2.3509886e-038
14.762353 320.08408 -17.927502 2.3509886e-038
19.468357 318.68216 -17.848984 2.3509886e-038
24.173458 317.8205 -17.800722 2.3509886e-038
28.903212 317.51285 -17.783491 2.3509886e-038
33.641865 317.37619 -17.775837 2.3509886e-038
38.334084 316.8894 -17.748573 3.5733111e-043
42.904526 315.61414 -17.677147 3.5733111e-043
47.376358 313.93845 -17.583294 3.5733111e-043
52.113029 314.16165 -17.595797 3.5733111e-043
52.901215 314.6362 -17.622374 3.5733111e-043
-97.913826 325.17862 -23.080753 2.3509528e-038
-96.602654 323.96561 -22.994656 2.3509528e-038
-90.555542 319.73785 -22.694574 2.3509528e-038
-85.656532 319.31824 -22.664791 2.3509528e-038
-81.538681 321.9332 -22.850397 2.3509528e-038
-77.57959 325.54297 -23.106615 2.3509528e-038
-76.465797 326.42072 -23.168917 2.3509528e-038
-39.408218 335.80969 -23.835335 2.3509886e-038
-34.042793 328.6651 -23.32822 2.3509886e-038
-28.759848 324.56998 -23.037552 2.3509886e-038
-23.813761 323.38464 -22.953419 2.3509886e-038
-18.974066 323.40744 -22.955038 2.3509886e-038
-14.128593 323.31421 -22.948421 2.3509886e-038
-9.2780027 322.94489 -22.922205 2.3509886e-038
-4.4407735 322.74454 -22.907988 2.3509886e-038
0.39083242 322.87213 -22.917042 2.3509886e-038
5.2232666 322.81485 -22.912977 2.3509886e-038
10.032937 322.08109 -22.860895 2.3509886e-038
14.801949 320.94257 -22.780085 2.3509886e-038
19.543928 319.91919 -22.707447 2.3509886e-038
24.288357 319.33115 -22.665707 2.3509886e-038
29.050362 319.1293 -22.651382 2.3509886e-038
33.795013 318.82101 -22.629499 2.3509886e-038
38.501125 318.27023 -22.590406 3.5733111e-043
43.136631 317.32153 -22.523067 3.5733111e-043
47.686298 315.99225 -22.428715 3.5733111e-043
51.113594 316.13086 -22.438555 3.5733111e-043
-96.726624 324.95374 -27.929314 2.3509528e-038
-90.84404 320.7565 -27.568567 2.3509528e-038
-85.716705 319.54254 -27.464228 2.3509528e-038
-81.171928 320.4852 -27.545252 2.3509528e-038
-76.886559 322.63486 -27.730009 2.3509528e-038
-72.622177 325.16656 -27.947607 2.3509528e-038
-69.825951 327.29282 -28.130356 2.3509528e-038
-40.499184 335.09518 -28.800959 2.3509886e-038
-39.582981 333.89569 -28.697861 2.3509886e-038
-33.998642 328.2388 -28.211662 2.3509886e-038
-28.809023 325.12491 -27.944027 2.3509886e-038
-23.870789 324.15909 -27.861015 2.3509886e-038
-19.015507 324.1138 -27.857121 2.3509886e-038
-14.159004 324.01013 -27.848213 2.3509886e-038
-9.301796 323.77307 -27.827837 2.3509886e-038
-4.4549427 323.77435 -27.827946 2.3509886e-038
0.39219081 323.99432 -27.846853 2.3509886e-038
5.238955 323.78445 -27.828814 2.3509886e-038
10.058474 322.90088 -27.752874 2.3509886e-038
14.844444 321.86401 -27.663755 2.3509886e-038
19.615931 321.09784 -27.597906 2.3509886e-038
24.391729 320.69025 -27.562874 2.3509886e-038
29.179628 320.54938 -27.550764 2.3509886e-038
33.93169 320.11044 -27.513041 2.3509886e-038
38.643688 319.44873 -27.456167 2.3509886e-038
43.335831 318.7869 -27.399282 3.5733111e-043
48.02372 318.22815 -27.351261 3.5733111e-043
49.949402 318.40906 -27.366808 3.5733111e-043
-92.768822 324.51639 -32.749725 2.3509528e-038
-91.7668 324.01462 -32.699085 2.3509528e-038
-86.382607 322.02493 -32.498291 2.3509528e-038
-81.400444 321.38745 -32.433956 2.3509528e-038
-76.812263 322.32306 -32.528378 2.3509528e-038
-72.474358 324.50467 -32.748543 2.3509528e-038
-68.253212 327.56021 -33.056904 2.3509528e-038
-64.333389 331.99442 -33.504398 2.3509528e-038
-42.660877 334.90723 -33.798351 2.3509528e-038
-39.35574 331.97882 -33.502823 2.3509528e-038
-33.993423 328.18845 -33.120304 2.3509886e-038
-28.873711 325.85495 -32.884811 2.3509886e-038
-23.925741 324.90533 -32.788979 2.3509886e-038
-19.052176 324.73883 -32.772171 2.3509886e-038
-14.187201 324.6554 -32.763752 2.3509886e-038
-9.3251543 324.58609 -32.75676 2.3509886e-038
-4.4691577 324.80746 -32.779102 2.3509886e-038
0.39359039 325.15051 -32.813721 2.3509886e-038
5.2566266 324.87662 -32.786079 2.3509886e-038
10.092187 323.98312 -32.695908 2.3509886e-038
14.901155 323.09366 -32.606144 2.3509886e-038
19.704466 322.54709 -32.550983 2.3509886e-038
24.511532 322.26532 -32.522552 2.3509886e-038
29.31691 322.05746 -32.501572 2.3509886e-038
34.073296 321.44632 -32.439899 2.3509886e-038
38.779259 320.56946 -32.351406 2.3509886e-038
43.491226 319.93002 -32.286877 2.3509886e-038
48.29644 320.03534 -32.297504 2.3509886e-038
49.023262 320.1683 -32.310921 2.3509886e-038
-87.89521 327.04419 -37.900642 2.3509528e-038
-87.701088 326.94012 -37.888584 2.3509528e-038
-82.316795 325.00537 -37.664368 2.3509528e-038
-77.401619 324.79614 -37.640121 2.3509528e-038
-72.728561 325.64285 -37.738243 2.3509528e-038
-68.156715 327.09711 -37.906776 2.3509528e-038
-63.683048 329.28403 -38.160213 2.3509528e-038
-59.06139 331.00848 -38.360058 2.3509528e-038
-56.958477 331.66785 -38.436474 2.3509528e-038
-46.893047 334.05505 -38.713123 2.3509528e-038
-44.531898 333.52521 -38.651718 2.3509528e-038
-39.26973 331.25333 -38.388432 2.3509528e-038
-34.059937 328.8306 -38.107666 2.3509886e-038
-28.979748 327.05167 -37.901508 2.3509886e-038
-24.005056 325.98242 -37.777596 2.3509886e-038
-19.100071 325.55518 -37.728081 2.3509886e-038
-14.217918 325.35831 -37.705269 2.3509886e-038
-9.3484535 325.39709 -37.709766 2.3509886e-038
-4.4828563 325.80304 -37.756809 2.3509886e-038
0.39487511 326.21185 -37.804184 2.3509886e-038
5.2731028 325.8949 -37.767452 2.3509886e-038
10.127602 325.12003 -37.677658 2.3509886e-038
14.964967 324.47723 -37.603161 2.3509886e-038
19.805527 324.20139 -37.571194 2.3509886e-038
24.649025 324.07303 -37.556316 2.3509886e-038
29.467762 323.7146 -37.514782 2.3509886e-038
34.225601 322.88318 -37.418434 2.3509886e-038
38.926559 321.78711 -37.291409 2.3509886e-038
43.643551 321.05057 -37.206051 2.3509886e-038
48.365582 321.43369 -37.25045 2.3509886e-038
-82.276627 331.24231 -43.345844 2.3509886e-038
-78.723473 330.34299 -43.228157 2.3509528e-038
-73.550056 329.32111 -43.094437 2.3509528e-038
-68.582939 329.14264 -43.071079 2.3509528e-038
-63.78191 329.7952 -43.156471 2.3509528e-038
-58.945152 330.35706 -43.229996 2.3509528e-038
-54.072044 330.79947 -43.287891 2.3509528e-038
-49.201576 331.34891 -43.359791 2.3509528e-038
-44.261745 331.50189 -43.37981 2.3509528e-038
-39.206539 330.72028 -43.277527 2.3509528e-038
-34.129135 329.49869 -43.117672 2.3509528e-038
-29.087288 328.26532 -42.956272 2.3509886e-038
-24.095718 327.21356 -42.818642 2.3509886e-038
-19.158173 326.5455 -42.731224 2.3509886e-038
-14.256247 326.23538 -42.690643 2.3509886e-038
-9.3789873 326.4599 -42.720024 2.3509886e-038
-4.5003724 327.07605 -42.800652 2.3509886e-038
0.39635506 327.43445 -42.847553 2.3509886e-038
5.2905531 326.97336 -42.787212 2.3509886e-038
10.16233 326.23486 -42.690575 2.3509886e-038
15.023873 325.75446 -42.627712 2.3509886e-038
19.895027 325.66641 -42.616184 2.3509886e-038
24.767502 325.63071 -42.611515 2.3509886e-038
29.594179 325.10336 -42.542511 2.3509886e-038
34.354729 324.10135 -42.411388 2.3509886e-038
39.074326 323.00864 -42.268394 2.3509886e-038
43.835003 322.45892 -42.196461 2.3509886e-038
48.08131 323.02042 -42.269939 2.3509886e-038
-76.930183 337.2532 -49.181065 2.3509886e-038
-75.144745 336.46136 -49.06559 2.3509886e-038
-69.832047 335.13736 -48.872517 2.3509528e-038
-64.546112 333.74658 -48.669701 2.3509528e-038
-59.239643 332.00754 -48.416096 2.3509528e-038
-54.077457 330.83258 -48.244751 2.3509528e-038
-49.083466 330.55347 -48.204052 2.3509528e-038
-44.1222 330.45676 -48.189949 2.3509528e-038
-39.13958 330.15546 -48.146011 2.3509528e-038
-34.142429 329.62704 -48.068951 2.3509528e-038
-29.140512 328.86597 -47.95797 2.3509886e-038
-24.150156 327.95279 -47.824799 2.3509886e-038
-19.196697 327.20215 -47.715332 2.3509886e-038
-14.289027 326.98553 -47.683746 2.3509886e-038
-9.4100218 327.54013 -47.764622 2.3509886e-038
-4.5191517 328.44089 -47.895977 2.3509886e-038
0.39810658 328.88141 -47.960217 2.3509886e-038
5.3151255 328.492 -47.903435 2.3509886e-038
10.211241 327.80505 -47.803253 2.3509886e-038
15.095233 327.3017 -47.729855 2.3509886e-038
19.97867 327.03561 -47.691048 2.3509886e-038
24.844687 326.64548 -47.634155 2.3509886e-038
29.651176 325.72949 -47.50058 2.3509886e-038
34.401379 324.54144 -47.327328 2.3509886e-038
39.157154 323.69333 -47.203651 2.3509886e-038
44.008957 323.73856 -47.210243 2.3509886e-038
47.852898 324.7713 -47.360851 2.3509886e-038
-73.505852 346.57443 -55.728539 2.3509886e-038
-72.024902 345.66132 -55.581715 2.3509886e-038
-65.822449 340.34616 -54.727047 2.3509886e-038
-59.770386 334.98206 -53.864513 2.3509528e-038
-54.248867 331.8812 -53.365898 2.3509528e-038
-49.119328 330.79498 -53.191238 2.3509528e-038
-44.083176 330.16446 -53.089851 2.3509528e-038
-39.080406 329.65631 -53.008141 2.3509528e-038
-34.101131 329.2283 -52.93932 2.3509886e-038
-29.125439 328.69586 -52.853699 2.3509886e-038
-24.150389 327.95596 -52.734726 2.3509886e-038
-19.204758 327.33954 -52.635605 2.3509886e-038
-14.312047 327.5123 -52.663387 2.3509886e-038
-9.4381895 328.5206 -52.82552 2.3509886e-038
-4.5370951 329.74496 -53.022396 2.3509886e-038
0.39997348 330.42368 -53.131531 2.3509886e-038
5.3438158 330.26517 -53.106041 2.3509886e-038
10.2683 329.63678 -53.004997 2.3509886e-038
15.17088 328.94196 -52.893269 2.3509886e-038
20.051929 328.2348 -52.779564 2.3509886e-038
24.892029 327.26791 -52.624088 2.3509886e-038
29.664867 325.87991 -52.400898 2.3509886e-038
34.394661 324.47809 -52.175491 2.3509886e-038
39.19418 323.99939 -52.098511 2.3509886e-038
44.164036 324.87933 -52.240009 2.3509886e-038
47.41774 326.40891 -52.485962 2.3509886e-038
-70.328987 351.89886 -61.852615 2.3509886e-038
-67.125389 347.08319 -61.006168 2.3509886e-038
-60.371132 338.34894 -59.470966 2.3509886e-038
-54.539242 333.65765 -58.646389 2.3509886e-038
-49.244541 331.63824 -58.291443 2.3509528e-038
-44.100498 330.29422 -58.055202 2.3509528e-038
-39.034157 329.2662 -57.874508 2.3509886e-038
-34.031391 328.55502 -57.749512 2.3509886e-038
-29.064707 328.01047 -57.653793 2.3509886e-038
-24.113045 327.44885 -57.55508 2.3509886e-038
-19.189053 327.07184 -57.488815 2.3509886e-038
-14.317891 327.64606 -57.589741 2.3509886e-038
-9.4549456 329.10379 -57.845966 2.3509886e-038
-4.5507216 330.73529 -58.132729 2.3509886e-038
0.40162537 331.7883 -58.317818 2.3509886e-038
5.3707976 331.93271 -58.343201 2.3509886e-038
10.322014 331.36115 -58.242733 2.3509886e-038
15.240967 330.46158 -58.084621 2.3509886e-038
20.119102 329.33438 -57.886497 2.3509886e-038
24.936695 327.85516 -57.626495 2.3509886e-038
29.683258 326.08194 -57.314816 2.3509886e-038
34.396225 324.4928 -57.035503 2.3509886e-038
39.235184 324.33835 -57.00835 2.3509886e-038
44.324844 326.06229 -57.311367 2.3509886e-038
46.717457 327.81131 -57.618786 2.3509886e-038
-65.286308 347.22986 -66.22995 2.3509886e-038
-60.978218 341.75134 -65.184982 2.3509886e-038
-54.985928 336.39038 -64.162445 2.3509886e-038
-49.438091 332.94171 -63.50465 2.3509886e-038
-44.12553 330.48172 -63.035435 2.3509886e-038
-38.981201 328.81946 -62.718384 2.3509886e-038
-33.943863 327.70993 -62.506756 2.3509886e-038
-28.980076 327.05536 -62.381905 2.3509886e-038
-24.059938 326.72769 -62.319401 2.3509886e-038
-19.164446 326.65244 -62.30505 2.3509886e-038
-14.310839 327.48468 -62.463787 2.3509886e-038
-9.4598637 329.27502 -62.805271 2.3509886e-038
-4.5588689 331.32745 -63.196747 2.3509886e-038
0.40284395 332.79501 -63.476673 2.3509886e-038
5.392314 333.26251 -63.565842 2.3509886e-038
10.365532 332.75815 -63.469643 2.3509886e-038
15.301389 331.77167 -63.281483 2.3509886e-038
20.187325 330.45111 -63.029602 2.3509886e-038
25.000835 328.69846 -62.695301 2.3509886e-038
29.745083 326.76111 -62.325775 2.3509886e-038
34.465435 325.14575 -62.01767 2.3509886e-038
39.336002 325.17178 -62.022633 2.3509886e-038
44.528698 327.56186 -62.478508 2.3509886e-038
45.706688 328.63528 -62.683254 2.3509886e-038
-60.688034 346.38403 -71.253967 2.3509886e-038
-55.8591 341.73221 -70.297058 2.3509886e-038
-49.830978 335.58759 -69.033058 2.3509886e-038
-44.198269 331.02646 -68.094795 2.3509886e-038
-38.938202 328.45676 -67.566185 2.3509886e-038
-33.867218 326.97 -67.260345 2.3509886e-038
-28.907476 326.23605 -67.109367 2.3509886e-038
-24.020439 326.19131 -67.100166 2.3509886e-038
-19.154945 326.49048 -67.161713 2.3509886e-038
-14.313424 327.54382 -67.378387 2.3509886e-038
-9.4655437 329.47272 -67.775177 2.3509886e-038
-4.5644026 331.72961 -68.239441 2.3509886e-038
0.40370563 333.50687 -68.605026 2.3509886e-038
5.4086137 334.26987 -68.761986 2.3509886e-038
10.399337 333.84341 -68.674263 2.3509886e-038
15.35131 332.8541 -68.470757 2.3509886e-038
20.254087 331.54395 -68.201241 2.3509886e-038
25.087008 329.83142 -67.848969 2.3509886e-038
29.866634 328.09637 -67.49205 2.3509886e-038
34.643005 326.82095 -67.229691 2.3509886e-038
39.556164 326.99176 -67.264824 2.3509886e-038
44.46376 329.49759 -67.780296 2.3509886e-038
-56.398453 350.28165 -77.299423 2.3509886e-038
-50.683235 341.32712 -75.323357 2.3509886e-038
-44.538399 333.57391 -73.612389 2.3509886e-038
-39.063278 329.51181 -72.715981 2.3509886e-038
-33.923729 327.51559 -72.275459 2.3509886e-038
-28.946363 326.6749 -72.089943 2.3509886e-038
-24.058262 326.70493 -72.096558 2.3509886e-038
-19.192196 327.12543 -72.189354 2.3509886e-038
-14.339103 328.13144 -72.411362 2.3509886e-038
-9.4773102 329.88226 -72.797729 2.3509886e-038
-4.5693913 332.09219 -73.285416 2.3509886e-038
0.4044275 334.10321 -73.729195 2.3509886e-038
5.423357 335.18109 -73.967064 2.3509886e-038
10.431324 334.87024 -73.898468 2.3509886e-038
15.397577 333.8573 -73.674934 2.3509886e-038
20.317129 332.57593 -73.392159 2.3509886e-038
25.186092 331.13412 -73.073982 2.3509886e-038
30.045626 330.06265 -72.83754 2.3509886e-038
34.949989 329.71701 -72.761261 2.3509886e-038
39.978642 330.48419 -72.930557 2.3509886e-038
43.231136 332.20108 -73.309441 2.3509886e-038
-50.632206 347.42786 -81.870628 2.3509886e-038
-45.341984 339.59244 -80.024239 2.3509886e-038
-39.525719 333.41266 -78.567978 2.3509886e-038
-34.175735 329.94858 -77.751678 2.3509886e-038
-29.102173 328.43329 -77.394608 2.3509886e-038
-24.161058 328.10086 -77.316269 2.3509886e-038
-19.256353 328.21896 -77.344101 2.3509886e-038
-14.376377 328.98441 -77.524475 2.3509886e-038
-9.4954519 330.51373 -77.884857 2.3509886e-038
-4.5762324 332.58939 -78.373985 2.3509886e-038
0.40513796 334.69012 -78.869019 2.3509886e-038
5.43782 336.07492 -79.195343 2.3509886e-038
10.468272 336.0564 -79.190971 2.3509886e-038
15.457376 335.15387 -78.978302 2.3509886e-038
20.405727 334.02618 -78.712563 2.3509886e-038
25.339096 333.14575 -78.505081 2.3509886e-038
30.329628 333.18256 -78.513756 2.3509886e-038
35.472691 334.64816 -78.859131 2.3509886e-038
40.836311 337.57413 -79.54863 2.3509886e-038
42.898655 339.4769 -79.997002 2.3509886e-038
-44.852123 346.52991 -86.84655 2.3509886e-038
-40.350018 340.36588 -85.301743 2.3509886e-038
-34.660854 334.63214 -83.864754 2.3509886e-038
-29.408937 331.89529 -83.178856 2.3509886e-038
-24.350639 330.67532 -82.873116 2.3509886e-038
-19.365778 330.08408 -82.724937 2.3509886e-038
-14.439864 330.43726 -82.813446 2.3509886e-038
-9.5307436 331.74216 -83.140488 2.3509886e-038
-4.5914831 333.69775 -83.630592 2.3509886e-038
0.40651211 335.82532 -84.163795 2.3509886e-038
5.4596348 337.42316 -84.56424 2.3509886e-038
10.519713 337.70776 -84.635567 2.3509886e-038
15.542269 336.99457 -84.456825 2.3509886e-038
20.534098 336.12753 -84.239525 2.3509886e-038
25.556355 336.00214 -84.208107 2.3509886e-038
30.737753 337.66595 -84.625084 2.3509886e-038
36.289772 342.35651 -85.800629 2.3509886e-038
42.270885 349.43304 -87.574135 2.3509886e-038
44.571007 352.76978 -88.41037 2.3509886e-038
-38.39399 344.80975 -91.577232 2.3509886e-038
-35.394726 341.71729 -90.755913 2.3509886e-038
-29.962719 338.14499 -89.807152 2.3509886e-038
-24.725204 335.76181 -89.17421 2.3509886e-038
-19.603806 334.1412 -88.743797 2.3509886e-038
-14.586297 333.78815 -88.650032 2.3509886e-038
-9.6127472 334.59653 -88.864723 2.3509886e-038
-4.6270828 336.2851 -89.313187 2.3509886e-038
0.40963355 338.40399 -89.875946 2.3509886e-038
5.5025673 340.07654 -90.320145 2.3509886e-038
10.606336 340.48856 -90.429573 2.3509886e-038
15.677556 339.92792 -90.280685 2.3509886e-038
20.729443 339.32516 -90.12059 2.3509886e-038
25.852222 339.89206 -90.271156 2.3509886e-038
31.253889 343.33591 -91.185799 2.3509886e-038
37.283257 351.72897 -93.414894 2.3509886e-038
43.886234 362.78635 -96.351601 2.3509886e-038
47.92495 369.31293 -98.084976 2.3509886e-038
-30.859705 348.18945 -97.68721 2.3509886e-038
-30.852318 348.18457 -97.685844 2.3509886e-038
-25.383329 344.69901 -96.707932 2.3509886e-038
-20.067251 342.04047 -95.962067 2.3509886e-038
-14.886025 340.64703 -95.571129 2.3509886e-038
-9.7780867 340.35162 -95.488243 2.3509886e-038
-4.6954131 341.25113 -95.740608 2.3509886e-038
0.4153758 343.14777 -96.27272 2.3509886e-038
5.5798693 344.85406 -96.751434 2.3509886e-038
10.75915 345.39426 -96.903 2.3509886e-038
15.912197 345.0155 -96.79673 2.3509886e-038
21.054525 344.64651 -96.693207 2.3509886e-038
26.28709 345.6095 -96.963379 2.3509886e-038
31.852386 349.91064 -98.170105 2.3509886e-038
38.13303 359.7457 -100.92941 2.3509886e-038
44.926884 371.38892 -104.196 2.3509886e-038
51.109531 379.84369 -106.56805 2.3509886e-038
-19.729982 353.88498 -104.58274 2.3509886e-038
-15.361555 351.5289 -103.88647 2.3509886e-038
-10.031943 349.18774 -103.19459 2.3509886e-038
-4.797308 348.65659 -103.03762 2.3509886e-038
0.42395866 350.23816 -103.50501 2.3509886e-038
5.6976447 352.13293 -104.06498 2.3509886e-038
10.994864 352.96124 -104.30976 2.3509886e-038
16.26581 352.68268 -104.22744 2.3509886e-038
21.525066 352.34894 -104.1288 2.3509886e-038
26.869726 353.26968 -104.40092 2.3509886e-038
32.473591 356.73477 -105.42495 2.3509886e-038
38.652054 364.64218 -107.7618 2.3509886e-038
45.316895 374.61292 -110.70843 2.3509886e-038
52.042217 382.83279 -113.13763 2.3509886e-038
52.639843 383.42038 -113.31128 2.3509886e-038
-6.1145887 357.44846 -110.98685 2.3509886e-038
-4.918725 357.48093 -110.99693 2.3509886e-038
0.43509051 359.43433 -111.60346 2.3509886e-038
5.8474636 361.39224 -112.21139 2.3509886e-038
11.267169 361.70288 -112.30784 2.3509886e-038
16.638386 360.76105 -112.0154 2.3509886e-038
21.98851 359.93512 -111.75896 2.3509886e-038
27.401169 360.25684 -111.85884 2.3509886e-038
32.966869 362.15369 -112.44781 2.3509886e-038
38.910557 367.08087 -113.97768 2.3509886e-038
45.298317 374.45935 -116.26869 2.3509886e-038
51.905354 381.82602 -118.55602 2.3509886e-038
51.985332 381.90656 -118.58103 2.3509886e-038
5.2501497 370.99036 -120.74529 2.3509886e-038
6.0017347 370.9267 -120.72456 2.3509886e-038
11.515335 369.66959 -120.31541 2.3509886e-038
16.959549 367.72464 -119.6824 2.3509886e-038
22.370687 366.1911 -119.18327 2.3509886e-038
27.814396 365.68973 -119.0201 2.3509886e-038
33.350456 366.36752 -119.2407 2.3509886e-038
39.122467 369.08005 -120.12354 2.3509886e-038
45.22691 373.86905 -121.68221 2.3509886e-038
49.161491 377.40823 -122.83409 2.3509886e-038
14.353745 374.60339 -127.52898 2.3509886e-038
17.216833 373.30322 -127.08636 2.3509886e-038
22.684998 371.33609 -126.41667 2.3509886e-038
28.162804 370.27042 -126.05387 2.3509886e-038
33.712463 370.34424 -126.07901 2.3509886e-038
39.400047 371.69873 -126.54012 2.3509886e-038
43.911304 373.71597 -127.22686 2.3509886e-038
-96.647461 324.11588 -20.336264 2.3509528e-038
-96.919617 325.02856 -27.607517 2.3509528e-038
-90.865242 320.83136 -17.149933 2.3509528e-038
-92.022987 324.91916 -33.649635 2.3509528e-038
-86.055252 320.8046 -17.530882 2.3509528e-038
-87.744682 327.10263 -38.032921 2.3509528e-038
-82.05394 323.96756 -19.531511 2.3509528e-038
-83.551872 329.88171 -42.011974 2.3509886e-038
-77.765099 326.32141 -22.328539 2.3509528e-038
-79.641998 334.19736 -46.156586 2.3509886e-038
-72.872932 326.28928 -25.619888 2.3509528e-038
-75.753662 339.18777 -50.791401 2.3509886e-038
-68.444366 328.4776 -29.481243 2.3509528e-038
-72.771606 349.2449 -57.645298 2.3509886e-038
-64.214951 332.0343 -33.602814 2.3509528e-038
-67.661552 349.85553 -64.385124 2.3509886e-038
-59.195332 331.75919 -37.143608 2.3509528e-038
-61.675938 345.66168 -69.865417 2.3509886e-038
-48.34306 295.75092 61.974636 9.1476764e-041
-51.100967 312.62311 35.667271 9.1476764e-041
-54.25835 331.93921 -39.593143 2.3509528e-038
-57.228848 350.112 -76.389389 2.3509886e-038
-43.605507 293.66208 59.91787 9.1476764e-041
-46.92384 316.00943 20.769049 9.1476764e-041
-49.466896 333.13568 -39.783642 2.3509528e-038
-51.6735 347.99612 -81.081856 2.3509886e-038
-39.488583 295.7529 53.269394 9.1476764e-041
-43.642761 326.86594 9.1209621 9.1476764e-041
-44.696823 334.76047 -36.737335 2.3509528e-038
-46.262856 346.48938 -85.566795 2.3509886e-038
-35.844208 302.35788 43.95549 9.1476764e-041
-39.606922 334.09763 -10.352537 2.3509886e-038
-39.775181 335.51697 -25.906662 2.3509886e-038
-40.976498 345.65045 -89.82579 2.3509886e-038
-31.52784 304.38452 34.955128 9.1476764e-041
-35.74577 345.10641 -93.625481 2.3509886e-038
-27.480295 310.12955 24.780052 2.3509886e-038
-30.853115 348.19357 -97.692291 2.3509886e-038
-23.586527 320.29889 14.091431 2.3509886e-038
-25.797262 350.3201 -100.79169 2.3509886e-038
-18.778017 320.06586 6.8011208 2.3509886e-038
-20.723667 353.22888 -103.93731 2.3509886e-038
-14.009436 320.58746 5.9920669 2.3509886e-038
-15.550276 355.84753 -106.98217 2.3509886e-038
-8.8372078 307.60187 76.682091 2.3418409e-038
-10.235488 356.27261 -109.12599 2.3509886e-038
-4.1946974 304.86035 78.871773 2.3418409e-038
-4.9309735 358.37109 -111.7318 2.3509886e-038
0.36866415 304.55859 74.753464 2.3418409e-038
0.44192562 365.08093 -116.19521 2.3509886e-038
4.9895129 308.36807 49.012993 2.3418409e-038
6.0138521 371.67557 -121.42307 2.3509886e-038
9.9186029 318.41071 8.8573151 2.3418052e-038
11.660354 374.32501 -125.83498 2.3509886e-038
14.657064 317.80115 11.791317 2.3418052e-038
17.276844 374.6044 -129.08621 2.3509886e-038
19.277014 315.54999 36.262302 2.3418409e-038
22.855953 374.13452 -131.13211 2.3509886e-038
23.887259 314.05771 62.062485 2.3418052e-038
28.408098 373.49545 -131.87431 2.3509886e-038
28.244026 310.27142 67.170021 2.3418052e-038
33.971619 373.19119 -131.49544 2.3509886e-038
32.697754 308.46951 65.434006 2.3418052e-038
33.228294 313.47461 20.873281 2.3509886e-038
33.359173 314.70932 -6.7192335 2.3509886e-038
39.542412 373.04178 -129.73866 2.3509886e-038
38.04649 314.51202 -5.9989138 2.3509886e-038
45.278919 374.29898 -126.30383 2.3509886e-038
42.480061 312.4917 -2.6133528 3.5733111e-043
44.756409 329.23697 -66.643227 2.3509886e-038
51.893406 381.73813 -109.02995 2.3509886e-038
51.893288 381.73724 -118.7646 2.3509886e-038
46.75626 309.82938 2.2892091 3.5733111e-043
48.46249 321.13568 -36.158119 2.3509886e-038
50.751869 305.95593 8.0908766 3.5733111e-043
52.257908 315.03503 -19.175552 3.5733111e-043
54.956268 303.87823 14.600677 3.5733111e-043
56.566677 312.78293 -10.647519 3.5733111e-043
59.840569 305.59039 21.735668 3.5733111e-043
60.303829 307.95615 -3.1446133 3.5733111e-043
64.147415 304.31989 27.137993 3.5733111e-043
64.623657 306.57922 5.2044425 3.5733111e-043
68.730431 304.44107 29.109261 3.5733111e-043
70.002228 310.07449 13.917972 3.5733111e-043
