# .PCD v0.7 - Point Cloud Data file format
VERSION 0.7
FIELDS x y z rgb
SIZE 4 4 4 4
TYPE F F F F
COUNT 1 1 1 1
WIDTH 872
HEIGHT 1
VIEWPOINT 0 0 0 1 0 0 0
POINTS 872
DATA ascii
28.923082 307.05759 60.738476 2.3418052e-038
-47.448227 296.31 54.425907 9.1476764e-041
65.635254 302.95953 24.256508 3.5733111e-043
-87.590294 320.65143 -24.162838 2.3509528e-038
-4.2949824 303.98029 73.014709 2.3418409e-038
-9.3864985 307.55145 74.846405 2.3418409e-038
-8.757369 307.03012 74.719528 2.3418409e-038
-4.1135564 303.62714 73.891373 2.3418409e-038
-0.50891006 301.53354 73.381874 2.3418409e-038
-9.6729364 309.11435 70.597839 2.3418409e-038
-8.7943068 308.32516 70.417603 2.3418409e-038
-4.1262374 304.56314 69.558403 2.3418409e-038
0.43042561 301.70255 68.905083 2.3418409e-038
1.0403559 301.45804 68.849236 2.3418409e-038
-9.7002535 309.62326 66.07756 2.3418409e-038
-8.8070621 308.77237 65.895958 2.3418409e-038
-4.1278787 304.6843 65.023514 2.3418409e-038
0.43036497 301.66006 64.378105 2.3418409e-038
2.1634893 301.40051 64.322716 2.3418409e-038
26.647835 308.74255 65.889603 2.3418052e-038
28.067303 307.50247 65.624954 2.3418052e-038
32.488392 305.91699 65.286591 2.3418052e-038
-52.497238 299.41818 59.415951 9.1476764e-041
-48.284695 295.68918 58.675972 9.1476764e-041
-43.442486 292.89563 58.121624 9.1476764e-041
-42.733925 292.75854 58.094425 9.1476764e-041
-9.7071552 309.82935 61.481922 2.3418409e-038
-8.8121691 308.95139 61.307697 2.3418409e-038
-4.1272397 304.63715 60.451588 2.3418409e-038
0.43032596 301.63269 59.855392 2.3418409e-038
3.2288909 302.19614 59.967205 2.3418409e-038
24.174398 312.11566 61.935616 2.3418052e-038
28.087999 307.72925 61.065182 2.3418052e-038
32.535271 306.21481 60.76466 2.3418052e-038
34.609859 306.38016 60.79747 2.3418052e-038
-53.798687 302.41818 55.482628 9.1476764e-041
-48.524914 297.16025 54.51799 9.1476764e-041
-43.61478 294.05725 53.948708 9.1476764e-041
-39.823967 294.91879 54.10677 9.1476764e-041
-9.7293301 310.53781 56.972282 2.3418409e-038
-8.83183 309.64072 56.807697 2.3418409e-038
-4.1347876 305.19424 55.99194 2.3418409e-038
0.43125761 302.28574 55.458328 2.3418409e-038
4.1557913 303.73495 55.724213 2.3418409e-038
22.87195 313.48618 57.513203 2.3418052e-038
23.814335 312.1131 57.261292 2.3418052e-038
28.114298 308.01736 56.509876 2.3418052e-038
32.624531 307.05493 56.333305 2.3418052e-038
34.912991 307.50507 56.41589 2.3418052e-038
-54.032661 304.87122 51.367302 9.1476764e-041
-48.948734 299.75568 50.505394 9.1476764e-041
-43.98119 296.52765 49.96151 9.1476764e-041
-39.630051 297.19714 50.07431 9.1476764e-041
-38.140053 298.52292 50.297688 9.1476764e-041
-9.7641745 311.64926 52.509327 2.3509886e-038
-8.8630371 310.73483 52.355255 2.3509886e-038
-4.148881 306.2345 51.597004 2.3418409e-038
0.4328599 303.40887 51.120914 2.3418409e-038
4.8457198 304.75882 51.348366 2.3418409e-038
21.897381 313.75269 52.863728 2.3418052e-038
23.768465 311.5119 52.486183 2.3418052e-038
28.132925 308.22144 51.931778 2.3418052e-038
32.7281 308.02969 51.899471 2.3418052e-038
34.502712 308.72791 52.017117 2.3418052e-038
-53.536594 307.29904 47.174641 9.1476764e-041
-49.591763 303.69348 46.621136 9.1476764e-041
-44.476826 299.86929 46.034073 9.1476764e-041
-39.870583 299.00095 45.900768 9.1476764e-041
-36.480202 301.33566 46.259178 9.1476764e-041
-9.7914429 312.52029 47.976173 2.3509886e-038
-8.8881636 311.61572 47.837315 2.3418409e-038
-4.1616545 307.17734 47.155956 2.3418409e-038
0.43434751 304.4516 46.737518 2.3418409e-038
5.0075665 305.31403 46.869915 2.3418409e-038
5.3417134 305.56403 46.908291 2.3418409e-038
21.201296 314.18045 48.231033 2.3418052e-038
23.759947 311.40027 47.804237 2.3418052e-038
28.165279 308.5759 47.370655 2.3418052e-038
32.861454 309.28479 47.479477 2.3418052e-038
34.025295 310.06491 47.599239 2.3418052e-038
-52.742798 310.65253 43.037514 2.3509886e-038
-50.328232 308.20352 42.698231 9.1476764e-041
-44.941051 302.99921 41.97723 9.1476764e-041
-40.063972 300.45126 41.624237 9.1476764e-041
-35.675411 301.38586 41.753716 9.1476764e-041
-34.526611 302.46368 41.903038 9.1476764e-041
-9.8143234 313.24991 43.39735 2.3509886e-038
-8.9101133 312.38528 43.277569 2.3509886e-038
-4.1747375 308.14297 42.689846 2.3418409e-038
0.43600026 305.61005 42.338932 2.3418409e-038
5.0294366 306.64749 42.482658 2.3418409e-038
5.8812189 307.35947 42.581295 2.3418409e-038
20.663559 314.92505 43.629425 2.3418052e-038
23.75338 311.31424 43.129185 2.3418052e-038
28.174929 308.68164 42.764469 2.3418052e-038
32.983559 310.43402 43.00724 2.3418052e-038
33.742912 311.22406 43.116695 2.3418052e-038
-51.751434 313.46933 38.733616 2.3509886e-038
-51.025829 312.47552 38.610821 2.3509886e-038
-45.302414 305.43555 37.740929 9.1476764e-041
-40.219872 301.62039 37.269512 9.1476764e-041
-35.651993 301.18802 37.216087 9.1476764e-041
-32.434834 302.84409 37.420715 9.1476764e-041
-9.8364277 313.95538 38.793674 2.3509886e-038
-8.9310055 313.11777 38.690174 2.3509886e-038
-4.1870046 309.04846 38.187359 2.3418409e-038
0.43768558 306.79135 37.908459 2.3418409e-038
5.058651 308.42868 38.110771 2.3418409e-038
6.6375833 310.2074 38.330559 2.3418409e-038
19.930204 315.5835 38.994854 2.3418409e-038
23.724319 310.93335 38.420261 2.3418052e-038
28.148306 308.38995 38.105988 2.3418052e-038
32.999195 310.58118 38.376743 2.3418052e-038
33.618076 311.39636 38.477474 2.3418052e-038
-50.663681 314.92163 34.197208 2.3509886e-038
-45.678589 307.97177 33.442528 9.1476764e-041
-40.438744 303.26175 32.931072 9.1476764e-041
-35.750381 302.0192 32.796143 9.1476764e-041
-31.368912 303.38464 32.944412 9.1476764e-041
-30.486597 304.21695 33.034794 9.1476764e-041
-9.8701077 315.03107 34.209095 2.3509886e-038
-8.9613066 314.18015 34.116692 2.3509886e-038
-4.2021527 310.16656 33.680859 2.3418409e-038
0.43967903 308.18866 33.46608 2.3418409e-038
5.0880499 310.22116 33.68679 2.3418409e-038
7.3987365 313.07535 33.996723 2.3418409e-038
18.8983 315.75406 34.287601 2.3418409e-038
19.333178 315.25449 34.233353 2.3418409e-038
23.682808 310.38931 33.705048 2.3418052e-038
28.135729 308.25217 33.472973 2.3418052e-038
33.010006 310.68292 33.736931 2.3418052e-038
33.615829 311.56595 33.832817 2.3418052e-038
-49.612713 316.13925 29.595327 2.3509886e-038
-46.163265 311.2395 29.136639 9.1476764e-041
-40.78632 305.86832 28.633816 9.1476764e-041
-35.995293 304.08823 28.467173 9.1476764e-041
-31.520878 304.85437 28.538895 9.1476764e-041
-28.669386 306.72003 28.713547 9.1476764e-041
-9.9322624 317.01425 29.67724 2.3509886e-038
-9.0161457 316.10278 29.591913 2.3509886e-038
-4.2271438 312.01117 29.208878 2.3418409e-038
0.44247153 310.14603 29.034273 2.3418409e-038
5.1161366 311.93362 29.20162 2.3418409e-038
7.9029565 314.80029 29.469982 2.3418409e-038
17.788525 315.52985 29.538279 2.3418409e-038
19.257133 314.01447 29.396416 2.3418409e-038
23.653427 310.00424 29.020998 2.3418052e-038
28.177456 308.70929 28.899775 2.3418052e-038
33.142063 311.92584 29.20089 2.3418052e-038
33.722313 312.81473 29.284105 2.3418052e-038
63.19183 302.82077 28.34852 3.5733111e-043
63.904808 302.76166 28.342985 3.5733111e-043
68.587837 303.42197 28.404802 3.5733111e-043
70.089355 304.021 28.460878 3.5733111e-043
-48.297543 316.83536 24.915964 2.3509886e-038
-46.65836 314.57751 24.738409 9.1476764e-041
-41.196381 308.94348 24.295347 9.1476764e-041
-36.315765 306.79556 24.126434 9.1476764e-041
-31.750765 307.0777 24.148623 9.1476764e-041
-27.358278 309.40674 24.331776 9.1476764e-041
-26.859213 309.87088 24.368277 9.1476764e-041
-10.019525 319.77155 25.146868 2.3509886e-038
-9.0914726 318.74368 25.066034 2.3509886e-038
-4.2599993 314.43628 24.727303 2.3418409e-038
0.44560674 312.34363 24.562735 2.3418409e-038
5.1396928 313.36984 24.643436 2.3418409e-038
8.0219078 315.56564 24.816114 2.3418409e-038
16.85498 315.52225 24.812702 2.3418409e-038
19.211941 313.27753 24.636175 2.3418409e-038
23.642717 309.86386 24.367725 2.3418052e-038
28.222059 309.198 24.315363 2.3418052e-038
33.250664 312.94794 24.610256 2.3509886e-038
33.675125 313.60782 24.662149 2.3509886e-038
59.566208 303.69681 23.882748 3.5733111e-043
63.915962 302.81448 23.813364 3.5733111e-043
68.633575 303.62433 23.877048 3.5733111e-043
70.927002 304.83551 23.972296 3.5733111e-043
-46.899307 318.33145 20.266699 2.3509886e-038
-41.772224 313.2619 19.943943 9.1476764e-041
-36.734917 310.33655 19.757702 9.1476764e-041
-32.009354 309.57864 19.709448 9.1476764e-041
-27.540579 311.46844 19.829763 9.1476764e-041
-25.302034 314.54251 20.025473 9.1476764e-041
-10.108837 321.88367 20.492851 2.3509886e-038
-9.1477423 320.71646 20.418541 2.3509886e-038
-4.2855954 316.32556 20.138994 2.3509886e-038
0.4478021 313.88245 19.98345 2.3418409e-038
5.1537781 314.22864 20.005491 2.3418409e-038
7.7523174 315.84674 20.108507 2.3418409e-038
16.101723 315.96506 20.116041 2.3418052e-038
19.193508 312.97696 19.925802 2.3418052e-038
23.629459 309.69009 19.716541 2.3418052e-038
28.217596 309.14908 19.6821 2.3418052e-038
33.067753 312.50308 19.895632 2.3509886e-038
56.819389 303.67471 19.333572 3.5733111e-043
59.507641 303.45837 19.319798 3.5733111e-043
64.174965 304.04156 19.356926 3.5733111e-043
69.195587 306.1106 19.488653 3.5733111e-043
70.468422 306.97437 19.543644 3.5733111e-043
-45.787075 322.86981 15.720731 2.3509886e-038
-42.61483 319.58084 15.560589 2.3509886e-038
-37.278027 314.92474 15.33388 9.1476764e-041
-32.294449 312.33594 15.207829 9.1476764e-041
-27.686142 313.11469 15.245747 9.1476764e-041
-23.885818 318.96741 15.53072 9.1476764e-041
-10.277506 322.88333 15.721388 2.3509886e-038
-9.1748323 321.66623 15.662128 2.3509886e-038
-4.3012376 317.48013 15.458304 2.3509886e-038
0.44925976 314.90417 15.332878 2.3509886e-038
5.1640286 314.85361 15.330416 2.3418052e-038
7.414907 316.03821 15.388096 2.3418052e-038
15.147865 316.85953 15.428085 2.3418052e-038
19.19689 313.0321 15.241725 2.3418052e-038
23.63607 309.77676 15.083221 2.3418052e-038
28.218668 309.16083 15.053231 2.3418052e-038
31.899828 310.82123 15.134077 2.3509886e-038
53.923328 302.41422 14.724734 3.5733111e-043
54.721912 302.12482 14.710645 3.5733111e-043
59.34573 302.63269 14.735373 3.5733111e-043
64.344139 304.84308 14.842998 3.5733111e-043
69.126434 308.37064 15.014757 3.5733111e-043
-44.690266 328.45749 11.074243 2.3509886e-038
-43.614803 327.07996 11.027797 2.3509886e-038
-37.872322 319.94537 10.787249 2.3509886e-038
-32.584019 315.13657 10.625114 9.1476764e-041
-27.774296 314.11166 10.590559 9.1476764e-041
-23.330042 317.64447 10.709672 9.1476764e-041
-21.888775 319.85449 10.784184 9.1476764e-041
-10.981147 322.73624 10.881345 2.3509886e-038
-9.1682787 321.43646 10.837523 2.3509886e-038
-4.3080554 317.9834 10.721099 2.3509886e-038
0.4504112 315.71127 10.644492 2.3509886e-038
5.1757689 315.56943 10.639709 2.3418052e-038
8.3241358 316.922 10.685313 2.3418052e-038
12.631245 317.92108 10.718998 2.3418052e-038
14.69101 316.95233 10.686336 2.3418052e-038
19.203249 313.1358 10.557658 2.3418052e-038
23.663258 310.13306 10.456418 2.3418052e-038
28.247271 309.47421 10.434204 2.3509886e-038
30.522116 310.12796 10.456246 2.3509886e-038
51.214924 303.52155 10.233504 3.5733111e-043
54.566643 301.26761 10.157511 3.5733111e-043
59.143585 301.60187 10.16878 3.5733111e-043
64.318314 304.72073 10.273936 3.5733111e-043
66.772324 307.17969 10.356842 3.5733111e-043
-43.364609 332.12735 6.2244539 2.3509886e-038
-38.389759 324.31665 6.0780725 2.3509886e-038
-32.844841 317.65909 5.9533019 2.3509886e-038
-27.867842 315.16962 5.9066463 9.1476764e-041
-23.214567 316.07227 5.9235625 9.1476764e-041
-18.627628 318.57175 5.9704061 2.3509886e-038
-17.469246 319.19019 5.9819961 2.3509886e-038
-13.884928 320.51236 6.0067754 2.3509886e-038
-9.1282377 320.03265 5.9977856 2.3509886e-038
-4.3081613 317.99121 5.9595256 2.3509886e-038
0.45147255 316.4552 5.9307399 2.3509886e-038
5.1882906 316.33289 5.9284468 2.3509886e-038
9.9566336 317.33133 5.9471598 2.3418052e-038
14.658926 316.26013 5.9270835 2.3418052e-038
19.202799 313.12845 5.868392 2.3418052e-038
23.701107 310.62912 5.8215523 2.3509886e-038
28.298182 310.03198 5.8103609 2.3509886e-038
29.366282 310.26245 5.8146801 2.3509886e-038
48.615784 306.38156 5.7419477 3.5733111e-043
50.620777 304.67148 5.7098985 3.5733111e-043
54.688587 301.94086 5.6587238 3.5733111e-043
59.111996 301.44077 5.6493516 3.5733111e-043
63.881718 304.31793 5.7032728 3.5733111e-043
-41.988701 333.32251 1.2554333 2.3509886e-038
-38.786797 327.67081 1.2341465 2.3509886e-038
-33.08123 319.94531 1.205049 2.3509886e-038
-27.994249 316.59918 1.1924461 2.3509886e-038
-23.233706 316.33286 1.191443 2.3509886e-038
-18.53911 317.05789 1.1941737 2.3509886e-038
-13.841646 318.21674 1.1985384 2.3509886e-038
-9.0890121 318.65741 1.2001982 2.3509886e-038
-4.3113222 318.22452 1.1985677 2.3509886e-038
0.45312026 317.61017 1.1962539 2.3509886e-038
5.2023687 317.19125 1.194676 2.3509886e-038
9.9433861 316.90915 1.1936136 2.3509886e-038
14.632569 315.6915 1.1890274 2.3509886e-038
19.229523 313.56421 1.1810151 2.3509886e-038
23.783985 311.71533 1.1740514 2.3509886e-038
28.426428 311.43701 1.1730032 2.3509886e-038
29.055605 311.61575 1.1736765 2.3509886e-038
45.647877 309.40793 1.1653608 3.5733111e-043
46.665352 308.68631 1.162643 3.5733111e-043
50.88031 306.23352 1.1534047 3.5733111e-043
55.072041 304.05792 1.1452105 3.5733111e-043
59.459476 303.21277 1.1420273 3.5733111e-043
61.580376 304.29739 1.1461123 3.5733111e-043
-40.81266 333.75201 -3.7407999 2.3509886e-038
-39.146347 330.70831 -3.7066853 2.3509886e-038
-33.331413 322.36496 -3.6131701 2.3509886e-038
-28.145548 318.3103 -3.5677242 2.3509886e-038
-23.319437 317.50009 -3.5586431 2.3509886e-038
-18.580843 317.77161 -3.5616865 2.3509886e-038
-13.847029 318.34052 -3.568063 2.3509886e-038
-9.0951099 318.87119 -3.5740111 2.3509886e-038
-4.3246717 319.20987 -3.5778069 2.3509886e-038
0.45541605 319.21936 -3.577913 2.3509886e-038
5.2276244 318.73111 -3.5724406 2.3509886e-038
9.9700069 317.75757 -3.5615292 2.3509886e-038
14.661176 316.30869 -3.5452893 2.3509886e-038
19.290461 314.55789 -3.525666 2.3509886e-038
23.887651 313.07401 -3.5090342 2.3509886e-038
28.562361 312.9263 -3.5073786 2.3509886e-038
30.032026 313.36023 -3.5122426 2.3509886e-038
41.65987 312.97852 -3.5079639 3.5733111e-043
42.543251 312.36026 -3.5010343 3.5733111e-043
46.812775 309.6615 -3.4707859 3.5733111e-043
51.185963 308.07315 -3.4529831 3.5733111e-043
55.582127 306.87415 -3.4395442 3.5733111e-043
59.551155 306.77588 -3.4384427 3.5733111e-043
-39.907879 334.49908 -8.7582111 2.3509886e-038
-39.507778 333.76169 -8.738904 2.3509886e-038
-33.591881 324.88409 -8.5064611 2.3509886e-038
-28.323849 320.32678 -8.3871374 2.3509886e-038
-23.444487 319.20267 -8.3577042 2.3509886e-038
-18.679136 319.45264 -8.3642492 2.3509886e-038
-13.915654 319.91818 -8.3764391 2.3509886e-038
-9.1336966 320.22406 -8.3844461 2.3509886e-038
-4.3417897 320.47336 -8.390974 2.3509886e-038
0.45750773 320.68552 -8.3965292 2.3509886e-038
5.2559338 320.45712 -8.3905497 2.3509886e-038
10.021108 319.3862 -8.3625107 2.3509886e-038
14.722975 317.64194 -8.3168402 2.3509886e-038
19.364712 315.76865 -8.2677908 2.3509886e-038
23.990202 314.41806 -8.2324276 2.3509886e-038
28.675142 314.16193 -8.2257223 2.3509886e-038
33.471493 315.02631 -8.248354 2.3509886e-038
38.155788 314.75302 -8.2411985 2.3509886e-038
42.586273 312.67612 -8.1868191 3.5733111e-043
46.942928 310.52243 -8.1304293 3.5733111e-043
51.447983 309.65018 -8.1075907 3.5733111e-043
56.107723 309.77603 -8.1108866 3.5733111e-043
57.347965 310.16428 -8.1210508 3.5733111e-043
-39.174541 335.19418 -13.795845 2.3509886e-038
-33.82048 327.09497 -13.4625 2.3509886e-038
-28.501341 322.33411 -13.266553 2.3509886e-038
-23.578096 321.02179 -13.212542 2.3509886e-038
-18.78301 321.2291 -13.221074 2.3509886e-038
-13.986933 321.55685 -13.234564 2.3509886e-038
-9.1709652 321.53067 -13.233485 2.3509886e-038
-4.3551559 321.45993 -13.230574 2.3509886e-038
0.45886907 321.63971 -13.237973 2.3509886e-038
5.2754989 321.65002 -13.238399 2.3509886e-038
10.062198 320.69583 -13.199125 2.3509886e-038
14.781155 318.89716 -13.125096 2.3509886e-038
19.44302 317.04559 -13.04889 2.3509886e-038
24.098969 315.84354 -12.999415 2.3509886e-038
28.791039 315.43164 -12.982464 2.3509886e-038
33.529495 315.57224 -12.98825 2.3509886e-038
38.197975 315.10101 -12.968856 3.5733111e-043
42.690765 313.44333 -12.900629 3.5733111e-043
47.086254 311.47055 -12.819432 3.5733111e-043
51.641933 310.8175 -12.792556 3.5733111e-043
54.670731 311.60199 -12.824843 3.5733111e-043
-93.614021 322.49237 -18.10232 2.3509528e-038
-90.811592 320.7832 -18.006378 2.3509528e-038
-85.927864 320.48456 -17.989614 2.3509528e-038
-84.662926 321.22934 -18.031422 2.3509528e-038
-38.828865 335.47174 -18.830885 2.3509886e-038
-33.963783 328.48096 -18.438473 2.3509886e-038
-28.633629 323.83023 -18.177416 2.3509886e-038
-23.679451 322.40176 -18.097233 2.3509886e-038
-18.856548 322.48672 -18.102003 2.3509886e-038
-14.032589 322.60651 -18.108727 2.3509886e-038
-9.1952639 322.38254 -18.096155 2.3509886e-038
-4.3652525 322.20517 -18.086197 2.3509886e-038
0.4598664 322.33878 -18.093699 2.3509886e-038
5.2866526 322.33005 -18.093208 2.3509886e-038
10.086926 321.48398 -18.045715 2.3509886e-038
14.830998 319.9725 -17.960875 2.3509886e-038
19.531006 318.48032 -17.877113 2.3509886e-038
24.225798 317.50577 -17.822409 2.3509886e-038
28.935478 317.01413 -17.794811 2.3509886e-038
33.652786 316.73264 -17.779011 2.3509886e-038
38.322819 316.13089 -17.745232 3.5733111e-043
42.870441 314.76254 -17.668425 3.5733111e-043
47.297333 312.86682 -17.562012 3.5733111e-043
51.917274 312.4747 -17.540003 3.5733111e-043
52.205021 312.60016 -17.547045 3.5733111e-043
-98.386177 326.82001 -23.239275 2.3509528e-038
-96.999771 325.42825 -23.140312 2.3509528e-038
-90.749191 320.56274 -22.79434 2.3509528e-038
-85.716095 319.69473 -22.732616 2.3509528e-038
-81.472847 321.84402 -22.885445 2.3509528e-038
-77.464912 325.25171 -23.127756 2.3509528e-038
-76.429253 326.17554 -23.193449 2.3509528e-038
-39.295269 335.34439 -23.845421 2.3509886e-038
-33.993843 328.77164 -23.378052 2.3509886e-038
-28.723736 324.84927 -23.099144 2.3509886e-038
-23.764711 323.56259 -23.00765 2.3509886e-038
-18.915302 323.49158 -23.0026 2.3509886e-038
-14.06866 323.43576 -22.998631 2.3509886e-038
-9.2175922 323.16537 -22.979404 2.3509886e-038
-4.3766918 323.04953 -22.971167 2.3509886e-038
0.46108824 323.19522 -22.981525 2.3509886e-038
5.2986164 323.05951 -22.971876 2.3509886e-038
10.110088 322.22217 -22.912336 2.3509886e-038
14.878982 321.00772 -22.825981 2.3509886e-038
19.618238 319.90277 -22.74741 2.3509886e-038
24.352251 319.16309 -22.694813 2.3509886e-038
29.091869 318.72751 -22.663841 2.3509886e-038
33.807247 318.1864 -22.625364 2.3509886e-038
38.484188 317.46207 -22.573856 3.5733111e-043
43.108509 316.51047 -22.506193 3.5733111e-043
47.653381 315.22202 -22.414574 3.5733111e-043
50.658066 315.10138 -22.405996 3.5733111e-043
-97.355804 327.25964 -28.171152 2.3509528e-038
-91.287056 322.46271 -27.758224 2.3509528e-038
-85.988152 320.70938 -27.607294 2.3509528e-038
-81.283768 321.09714 -27.640673 2.3509528e-038
-76.926033 322.98907 -27.803535 2.3509528e-038
-72.834724 326.32864 -28.091011 2.3509528e-038
-70.266663 329.83557 -28.392895 2.3509528e-038
-40.539421 335.64188 -28.892715 2.3509886e-038
-39.578812 334.36176 -28.782518 2.3509886e-038
-33.976765 328.60648 -28.287092 2.3509886e-038
-28.779661 325.48178 -28.018112 2.3509886e-038
-23.825962 324.39655 -27.924692 2.3509886e-038
-18.960552 324.26541 -27.913404 2.3509886e-038
-14.103382 324.23401 -27.910702 2.3509886e-038
-9.2447214 324.11652 -27.900587 2.3509886e-038
-4.3917727 324.16266 -27.904558 2.3509886e-038
0.46270901 324.3313 -27.919075 2.3509886e-038
5.3146734 324.03851 -27.893871 2.3509886e-038
10.137622 323.0997 -27.813059 2.3509886e-038
14.925817 322.01822 -27.719959 2.3509886e-038
19.69628 321.17535 -27.647408 2.3509886e-038
24.465891 320.65247 -27.602394 2.3509886e-038
29.240541 320.35638 -27.576906 2.3509886e-038
33.96933 319.71188 -27.521427 2.3509886e-038
38.657616 318.8927 -27.450911 2.3509886e-038
43.355122 318.32117 -27.401712 3.5733111e-043
48.095856 318.14893 -27.386887 3.5733111e-043
49.776592 318.42877 -27.410976 3.5733111e-043
-93.519974 327.28793 -33.074654 2.3509528e-038
-92.485489 326.69608 -33.014843 2.3509528e-038
-86.900269 324.1113 -32.753635 2.3509528e-038
-81.712402 322.79034 -32.620144 2.3509528e-038
-76.991798 323.26523 -32.668133 2.3509528e-038
-72.669647 325.58902 -32.902966 2.3509528e-038
-68.545906 329.19998 -33.267879 2.3509528e-038
-64.568672 333.39609 -33.691925 2.3509528e-038
-42.7243 336.10501 -33.965679 2.3509528e-038
-39.404465 332.88889 -33.640667 2.3509528e-038
-33.986603 328.70166 -33.217518 2.3509886e-038
-28.849579 326.27249 -32.972038 2.3509886e-038
-23.88777 325.23807 -32.867504 2.3509886e-038
-19.002893 324.98956 -32.842388 2.3509886e-038
-14.135406 324.97025 -32.840435 2.3509886e-038
-9.2711592 325.0434 -32.847828 2.3509886e-038
-4.4073448 325.31207 -32.874981 2.3509886e-038
0.46445239 325.55328 -32.899357 2.3509886e-038
5.3331652 325.16595 -32.860214 2.3509886e-038
10.171996 324.19525 -32.762119 2.3509886e-038
14.983668 323.2663 -32.66824 2.3509886e-038
19.787413 322.66138 -32.607109 2.3509886e-038
24.590837 322.29001 -32.56958 2.3509886e-038
29.391409 322.00928 -32.541206 2.3509886e-038
34.137932 321.29871 -32.469402 2.3509886e-038
38.833916 320.34702 -32.373226 2.3509886e-038
43.559101 319.81879 -32.319847 2.3509886e-038
48.44268 320.44315 -32.382942 2.3509886e-038
49.092793 320.66724 -32.40559 2.3509886e-038
-88.740982 330.21271 -38.31506 2.3509528e-038
-88.494781 330.05835 -38.297146 2.3509528e-038
-82.873009 327.37512 -37.985809 2.3509528e-038
-77.764191 326.50824 -37.885227 2.3509528e-038
-72.981758 326.98746 -37.94083 2.3509528e-038
-68.342537 328.22324 -38.084217 2.3509528e-038
-63.772419 330.00827 -38.29134 2.3509528e-038
-59.027542 331.11279 -38.419498 2.3509528e-038
-56.857727 331.55072 -38.470314 2.3509528e-038
-46.838997 334.18561 -38.776039 2.3509528e-038
-44.51239 333.81119 -38.732601 2.3509528e-038
-39.258179 331.65308 -38.482189 2.3509528e-038
-34.041878 329.23624 -38.201759 2.3509886e-038
-28.956839 327.48553 -37.998619 2.3509886e-038
-23.97459 326.42017 -37.875004 2.3509886e-038
-19.057117 325.9169 -37.816608 2.3509886e-038
-14.167441 325.70673 -37.792225 2.3509886e-038
-9.2948771 325.87497 -37.811745 2.3509886e-038
-4.4218116 326.37988 -37.870331 2.3509886e-038
0.46609855 326.70715 -37.908306 2.3509886e-038
5.3510065 326.25378 -37.855701 2.3509886e-038
10.208421 325.35614 -37.751545 2.3509886e-038
15.048944 324.67462 -37.672466 2.3509886e-038
19.89106 324.3515 -37.634975 2.3509886e-038
24.72901 324.10092 -37.6059 2.3509886e-038
29.544506 323.68658 -37.557823 2.3509886e-038
34.303909 322.86087 -37.462013 2.3509886e-038
39.007046 321.77521 -37.336044 2.3509886e-038
43.733852 321.10187 -37.257915 2.3509886e-038
48.51783 321.83499 -37.342979 2.3509886e-038
-83.443024 334.56485 -43.830086 2.3509886e-038
-79.306725 332.98489 -43.6231 2.3509528e-038
-73.992363 331.51535 -43.430576 2.3509528e-038
-68.898018 330.89099 -43.348785 2.3509528e-038
-63.960091 330.97943 -43.360371 2.3509528e-038
-58.993481 330.92175 -43.352814 2.3509528e-038
-54.042385 330.94852 -43.356319 2.3509528e-038
-49.151806 331.38867 -43.413986 2.3509528e-038
-44.216248 331.59036 -43.440407 2.3509528e-038
-39.17136 330.91962 -43.352535 2.3509528e-038
-34.099781 329.79623 -43.20536 2.3509528e-038
-29.05991 328.65121 -43.055359 2.3509886e-038
-24.06612 327.66638 -42.926342 2.3509886e-038
-19.117764 326.95407 -42.833023 2.3509886e-038
-14.203641 326.53894 -42.778641 2.3509886e-038
-9.3215246 326.80923 -42.814049 2.3509886e-038
-4.437429 327.53262 -42.908817 2.3509886e-038
0.46776387 327.87445 -42.953598 2.3509886e-038
5.3686199 327.32764 -42.881962 2.3509886e-038
10.24342 326.47159 -42.769817 2.3509886e-038
15.107734 325.94296 -42.700562 2.3509886e-038
19.979172 325.7883 -42.680302 2.3509886e-038
24.842999 325.59488 -42.654961 2.3509886e-038
29.665258 325.00952 -42.578278 2.3509886e-038
34.429066 324.03882 -42.451107 2.3509886e-038
39.152031 322.97119 -42.311245 2.3509886e-038
43.91692 322.44595 -42.242435 2.3509886e-038
48.166405 323.14514 -42.33403 2.3509886e-038
-78.84713 341.57785 -49.863857 2.3509886e-038
-75.924408 340.17169 -49.658585 2.3509886e-038
-70.415352 338.17819 -49.367569 2.3509528e-038
-64.874275 335.71014 -49.007282 2.3509528e-038
-59.373692 333.0545 -48.61961 2.3509528e-038
-54.114944 331.39285 -48.377041 2.3509528e-038
-49.083405 330.92752 -48.309109 2.3509528e-038
-44.097858 330.70251 -48.276264 2.3509528e-038
-39.10651 330.3718 -48.227985 2.3509528e-038
-34.106415 329.86038 -48.153328 2.3509528e-038
-29.103209 329.1409 -48.048298 2.3509886e-038
-24.111605 328.28564 -47.923447 2.3509886e-038
-19.151928 327.53836 -47.814358 2.3509886e-038
-14.234282 327.24335 -47.771294 2.3509886e-038
-9.3500814 327.81042 -47.854076 2.3509886e-038
-4.4542618 328.77505 -47.994888 2.3509886e-038
0.46965662 329.20114 -48.057091 2.3509886e-038
5.3919148 328.74796 -47.990936 2.3509886e-038
10.290282 327.96518 -47.876663 2.3509886e-038
15.176002 327.41583 -47.796471 2.3509886e-038
20.05831 327.07877 -47.747265 2.3509886e-038
24.915733 326.54813 -47.669804 2.3509886e-038
29.719097 325.59937 -47.531303 2.3509886e-038
34.469543 324.41977 -47.3591 2.3509886e-038
39.220932 323.53958 -47.230614 2.3509886e-038
44.067078 323.54846 -47.231911 2.3509886e-038
47.931366 324.6926 -47.398933 2.3509886e-038
-75.805878 352.99008 -56.81575 2.3509886e-038
-72.975418 350.47324 -56.410648 2.3509886e-038
-66.307617 343.12738 -55.228291 2.3509886e-038
-59.972462 336.4133 -54.147621 2.3509886e-038
-54.314404 332.61432 -53.53616 2.3509528e-038
-49.130444 331.24469 -53.315704 2.3509528e-038
-44.068283 330.48071 -53.192741 2.3509528e-038
-39.053192 329.92133 -53.102707 2.3509528e-038
-34.065643 329.46609 -53.029434 2.3509886e-038
-29.084383 328.92798 -52.942822 2.3509886e-038
-24.106134 328.21115 -52.827438 2.3509886e-038
-19.155392 327.59763 -52.728691 2.3509886e-038
-14.254618 327.71091 -52.746922 2.3509886e-038
-9.3761854 328.72562 -52.910248 2.3509886e-038
-4.470819 329.99719 -53.114914 2.3509886e-038
0.47174251 330.66324 -53.222115 2.3509886e-038
5.4199042 330.4545 -53.188519 2.3509886e-038
10.346604 329.76025 -53.076778 2.3509886e-038
15.249342 328.99808 -52.954105 2.3509886e-038
20.125847 328.18005 -52.822433 2.3509886e-038
24.956625 327.08408 -52.64603 2.3509886e-038
29.725597 325.67059 -52.418522 2.3509886e-038
34.449726 324.23328 -52.18718 2.3509886e-038
39.239258 323.69073 -52.099854 2.3509886e-038
44.211517 324.60898 -52.24765 2.3509886e-038
47.462772 326.40482 -52.536701 2.3509886e-038
-71.660812 357.1799 -62.838814 2.3509886e-038
-67.772621 350.70844 -61.700279 2.3509886e-038
-60.681957 340.39319 -59.885517 2.3509886e-038
-54.64756 334.65454 -58.875916 2.3509886e-038
-49.267609 332.16946 -58.438717 2.3509528e-038
-44.092087 330.65921 -58.173016 2.3509528e-038
-39.009811 329.55487 -57.978725 2.3509886e-038
-33.996655 328.79883 -57.845718 2.3509886e-038
-29.023838 328.24326 -57.747974 2.3509886e-038
-24.067842 327.68982 -57.650612 2.3509886e-038
-19.137569 327.29279 -57.580761 2.3509886e-038
-14.258233 327.79401 -57.668938 2.3509886e-038
-9.3909779 329.24423 -57.924076 2.3509886e-038
-4.4835372 330.93594 -58.221703 2.3509886e-038
0.47367394 332.01706 -58.411903 2.3509886e-038
5.4472761 332.12338 -58.430603 2.3509886e-038
10.400724 331.48511 -58.318317 2.3509886e-038
15.317618 330.47113 -58.139927 2.3509886e-038
20.18778 329.18994 -57.914528 2.3509886e-038
24.995905 327.59888 -57.634605 2.3509886e-038
29.737118 325.79681 -57.317574 2.3509886e-038
34.436783 324.11145 -57.021065 2.3509886e-038
39.256813 323.83554 -56.972527 2.3509886e-038
44.346058 325.59677 -57.282379 2.3509886e-038
46.533901 327.35959 -57.59251 2.3509886e-038
-65.78614 351.72607 -67.146317 2.3509886e-038
-61.581394 345.43854 -65.945992 2.3509886e-038
-55.213631 338.12106 -64.549042 2.3509886e-038
-49.509277 333.79883 -63.723915 2.3509886e-038
-44.137127 330.99698 -63.18903 2.3509886e-038
-38.961281 329.14487 -62.835449 2.3509886e-038
-33.908024 327.94165 -62.605747 2.3509886e-038
-28.93807 327.27328 -62.478149 2.3509886e-038
-24.013233 326.94629 -62.415726 2.3509886e-038
-19.11132 326.8439 -62.396175 2.3509886e-038
-14.250354 327.61288 -62.542984 2.3509886e-038
-9.3952656 329.39459 -62.883118 2.3509886e-038
-4.4914708 331.52151 -63.289158 2.3509886e-038
0.47515529 333.05542 -63.581989 2.3509886e-038
5.4694748 333.47684 -63.662441 2.3509886e-038
10.444588 332.88312 -63.549103 2.3509886e-038
15.376857 331.74918 -63.332626 2.3509886e-038
20.252462 330.24469 -63.045406 2.3509886e-038
25.056581 328.3941 -62.69212 2.3509886e-038
29.798985 326.47461 -62.32568 2.3509886e-038
34.50391 324.74323 -61.995148 2.3509886e-038
39.342411 324.54166 -61.956669 2.3509886e-038
44.500717 326.7323 -62.374874 2.3509886e-038
45.277042 327.41861 -62.505894 2.3509886e-038
-60.105618 349.38278 -71.930901 2.3509886e-038
-56.181469 344.04797 -70.832565 2.3509886e-038
-49.914188 336.52881 -69.284523 2.3509886e-038
-44.223351 331.64362 -68.278763 2.3509886e-038
-38.932423 328.90112 -67.714134 2.3509886e-038
-33.83884 327.27255 -67.378845 2.3509886e-038
-28.867199 326.47174 -67.213974 2.3509886e-038
-23.972088 326.38611 -67.196342 2.3509886e-038
-19.09948 326.64139 -67.248894 2.3509886e-038
-14.252044 327.6517 -67.456909 2.3509886e-038
-9.4015236 329.61395 -67.860893 2.3509886e-038
-4.4975715 331.97183 -68.346329 2.3509886e-038
0.47622204 333.80313 -68.723358 2.3509886e-038
5.4860907 334.4899 -68.864754 2.3509886e-038
10.479067 333.98199 -68.760185 2.3509886e-038
15.428686 332.86737 -68.530708 2.3509886e-038
20.320192 331.34909 -68.218124 2.3509886e-038
25.142277 329.51724 -67.840981 2.3509886e-038
29.928999 327.89905 -67.507828 2.3509886e-038
34.700626 326.59467 -67.239281 2.3509886e-038
39.584122 326.53558 -67.227119 2.3509886e-038
43.938984 328.3414 -67.598892 2.3509886e-038
-54.776829 347.82837 -76.819504 2.3509886e-038
-50.582657 341.03574 -75.319321 2.3509886e-038
-44.519741 333.86633 -73.735924 2.3509886e-038
-39.076145 330.11526 -72.907486 2.3509886e-038
-33.912918 327.98901 -72.437889 2.3509886e-038
-28.910755 326.96439 -72.211594 2.3509886e-038
-24.009624 326.89719 -72.196754 2.3509886e-038
-19.135626 327.25958 -72.276794 2.3509886e-038
-14.277243 328.23105 -72.491341 2.3509886e-038
-9.4143581 330.06393 -72.896149 2.3509886e-038
-4.5033736 332.40009 -73.412102 2.3509886e-038
0.47709912 334.41791 -73.857742 2.3509886e-038
5.5005217 335.36975 -74.067963 2.3509886e-038
10.509825 334.96228 -73.977966 2.3509886e-038
15.476362 333.89597 -73.742462 2.3509886e-038
20.39271 332.53162 -73.441147 2.3509886e-038
25.260063 331.06094 -73.116341 2.3509886e-038
30.134127 330.14639 -72.91436 2.3509886e-038
35.049492 329.87808 -72.855103 2.3509886e-038
40.080029 330.6264 -73.02037 2.3509886e-038
42.842999 332.0022 -73.324219 2.3509886e-038
-49.776203 344.46063 -81.233925 2.3509886e-038
-45.193562 338.91949 -79.927162 2.3509886e-038
-39.535065 333.99222 -78.76516 2.3509886e-038
-34.186726 330.63708 -77.973923 2.3509886e-038
-29.075689 328.82968 -77.547684 2.3509886e-038
-24.118196 328.3754 -77.440552 2.3509886e-038
-19.205574 328.45584 -77.459518 2.3509886e-038
-14.318053 329.16928 -77.627769 2.3509886e-038
-9.4336128 330.73898 -77.997963 2.3509886e-038
-4.5102987 332.91125 -78.510239 2.3509886e-038
0.47794339 335.0097 -79.005112 2.3509886e-038
5.5151482 336.26157 -79.300346 2.3509886e-038
10.54594 336.11334 -79.265388 2.3509886e-038
15.536811 335.20013 -79.050026 2.3509886e-038
20.491554 334.1434 -78.800819 2.3509886e-038
25.436045 333.3674 -78.617821 2.3509886e-038
30.446043 333.56372 -78.664108 2.3509886e-038
35.612602 335.17798 -79.044807 2.3509886e-038
41.008865 338.28848 -79.778351 2.3509886e-038
42.626831 339.80304 -80.135521 2.3509886e-038
-45.028183 346.64258 -86.939377 2.3509886e-038
-40.388641 341.20322 -85.575165 2.3509886e-038
-34.701664 335.61737 -84.17421 2.3509886e-038
-29.398724 332.48303 -83.388107 2.3509886e-038
-24.322886 331.16229 -83.056862 2.3509886e-038
-19.331032 330.60141 -82.916191 2.3509886e-038
-14.392023 330.86981 -82.983505 2.3509886e-038
-9.4722652 332.09415 -83.290573 2.3509886e-038
-4.5257707 334.05325 -83.781921 2.3509886e-038
0.47960687 336.17569 -84.314232 2.3509886e-038
5.5382557 337.67044 -84.689133 2.3509886e-038
10.5997 337.82672 -84.728333 2.3509886e-038
15.624593 337.09399 -84.544556 2.3509886e-038
20.625929 336.33456 -84.354088 2.3509886e-038
25.665974 336.38086 -84.3657 2.3509886e-038
30.872324 338.23401 -84.830475 2.3509886e-038
36.450958 343.06842 -86.042961 2.3509886e-038
42.462185 350.27716 -87.850945 2.3509886e-038
44.11755 352.66891 -88.450806 2.3509886e-038
-38.134117 345.8894 -91.930077 2.3509886e-038
-35.453659 342.89026 -91.132965 2.3509886e-038
-29.937212 338.573 -89.985535 2.3509886e-038
-24.686007 336.10626 -89.329926 2.3509886e-038
-19.581564 334.88605 -89.005615 2.3509886e-038
-14.553117 334.57333 -88.922501 2.3509886e-038
-9.5608654 335.20044 -89.089172 2.3509886e-038
-4.5625782 336.77005 -89.50634 2.3509886e-038
0.48339093 338.82809 -90.053329 2.3509886e-038
5.5835161 340.43002 -90.47908 2.3509886e-038
10.692661 340.78955 -90.574646 2.3509886e-038
15.767312 340.17307 -90.410789 2.3509886e-038
20.823189 339.55115 -90.245499 2.3509886e-038
25.959581 340.22891 -90.425636 2.3509886e-038
31.389174 343.89655 -91.400414 2.3509886e-038
37.440533 352.38202 -93.655678 2.3509886e-038
44.047466 363.3544 -96.571907 2.3509886e-038
47.597626 369.05136 -98.086037 2.3509886e-038
-28.524845 345.45682 -96.988243 2.3509886e-038
-25.245522 343.72421 -96.501823 2.3509886e-038
-20.035028 342.64124 -96.197762 2.3509886e-038
-14.86836 341.82071 -95.967407 2.3509886e-038
-9.7357855 341.33307 -95.83049 2.3509886e-038
-4.6334095 341.99823 -96.017235 2.3509886e-038
0.49040124 343.74188 -96.506783 2.3509886e-038
5.6649485 345.39496 -96.970886 2.3509886e-038
10.854873 345.95944 -97.129364 2.3509886e-038
16.011677 345.44519 -96.984985 2.3509886e-038
21.147476 344.83911 -96.814835 2.3509886e-038
26.381237 345.75519 -97.072021 2.3509886e-038
31.968554 350.24417 -98.332314 2.3509886e-038
38.270206 360.19077 -101.12486 2.3509886e-038
45.067089 371.76544 -104.37449 2.3509886e-038
51.000328 379.86063 -106.64725 2.3509886e-038
-16.735651 353.93781 -104.66942 2.3509886e-038
-15.368937 353.32889 -104.48935 2.3509886e-038
-10.007828 350.87076 -103.76241 2.3509886e-038
-4.741961 350.01056 -103.50803 2.3509886e-038
0.5011639 351.28586 -103.88517 2.3509886e-038
5.7905345 353.05203 -104.40747 2.3509886e-038
11.100631 353.79211 -104.62634 2.3509886e-038
16.372711 353.23428 -104.46137 2.3509886e-038
21.62159 352.57022 -104.265 2.3509886e-038
26.963533 353.38681 -104.50648 2.3509886e-038
32.580635 356.9501 -105.56024 2.3509886e-038
38.776653 364.95737 -107.92822 2.3509886e-038
45.461868 375.02203 -110.90462 2.3509886e-038
52.213047 383.35764 -113.36971 2.3509886e-038
52.784103 383.92917 -113.53872 2.3509886e-038
-5.148736 359.62744 -111.73734 2.3509886e-038
-4.8722072 359.62418 -111.73631 2.3509886e-038
0.51498705 360.97507 -112.15604 2.3509886e-038
5.9473476 362.61301 -112.66495 2.3509886e-038
11.378078 362.6347 -112.67169 2.3509886e-038
16.748602 361.34399 -112.27066 2.3509886e-038
22.094557 360.28259 -111.94089 2.3509886e-038
27.51165 360.5705 -112.03033 2.3509886e-038
33.08585 362.48517 -112.62524 2.3509886e-038
39.039265 367.42899 -114.16129 2.3509886e-038
45.453678 374.95447 -116.49947 2.3509886e-038
52.105629 382.56897 -118.86533 2.3509886e-038
52.209282 382.67679 -118.89883 2.3509886e-038
5.3628783 372.20648 -121.21938 2.3509886e-038
6.1028862 372.09628 -121.18349 2.3509886e-038
11.622651 370.4296 -120.64069 2.3509886e-038
17.064941 368.16888 -119.90443 2.3509886e-038
22.481236 366.58795 -119.38955 2.3509886e-038
27.940935 366.19672 -119.26214 2.3509886e-038
33.486153 366.87085 -119.48168 2.3509886e-038
39.257923 369.48697 -120.33369 2.3509886e-038
45.376995 374.32187 -121.90833 2.3509886e-038
49.249096 377.97714 -123.09875 2.3509886e-038
14.8416 374.51703 -127.58017 2.3509886e-038
17.304302 373.33301 -127.17682 2.3509886e-038
22.78388 371.52298 -126.56024 2.3509886e-038
28.290342 370.77612 -126.3058 2.3509886e-038
33.852978 370.88977 -126.34453 2.3509886e-038
39.534088 372.08615 -126.75208 2.3509886e-038
43.830868 373.91641 -127.37556 2.3509886e-038
-96.915863 325.14673 -20.373138 2.3509528e-038
-97.557137 327.29816 -27.79719 2.3509528e-038
-90.869934 320.98929 -17.247948 2.3509528e-038
-92.785477 327.75574 -33.979935 2.3509528e-038
-85.964684 320.62189 -17.525946 2.3509528e-038
-88.560471 330.30334 -38.486942 2.3509528e-038
-81.873978 323.42862 -19.524471 2.3509528e-038
-84.413475 333.46048 -42.725117 2.3509886e-038
-77.608749 325.85562 -22.385138 2.3509528e-038
-80.591179 338.37793 -47.321606 2.3509886e-038
-73.065269 327.36154 -25.745747 2.3509528e-038
-77.31102 346.38422 -52.932747 2.3509886e-038
-68.976151 331.26627 -29.733435 2.3509528e-038
-74.295998 356.81546 -59.836567 2.3509886e-038
-64.423798 333.37903 -33.798874 2.3509528e-038
-68.475067 354.34348 -65.253777 2.3509886e-038
-59.142677 331.75864 -37.22699 2.3509528e-038
-62.345547 349.72501 -69.887184 2.3509886e-038
-48.208096 295.22006 61.27224 9.1476764e-041
-51.298061 314.14261 36.8974 2.3509886e-038
-54.178902 331.78452 -39.562054 2.3509528e-038
-56.992645 349.01553 -74.905197 2.3509886e-038
-43.435802 292.85056 58.813595 9.1476764e-041
-47.14613 317.86615 21.116816 2.3509886e-038
-49.386784 332.97296 -39.850018 2.3509528e-038
-51.17514 345.0303 -79.827057 2.3509886e-038
-39.425137 295.66043 53.342682 9.1476764e-041
-44.076511 330.54242 8.7727442 2.3509886e-038
-44.729179 335.43698 -36.869671 2.3509528e-038
-46.126137 345.91318 -85.675133 2.3509886e-038
-35.743614 301.96201 44.574883 9.1476764e-041
-39.627575 334.77371 -10.518222 2.3509886e-038
-39.697548 335.36484 -25.798706 2.3509886e-038
-41.069809 346.95773 -90.224564 2.3509886e-038
-31.37499 303.44342 35.076202 9.1476764e-041
-35.712059 345.3894 -93.305649 2.3509886e-038
-27.319489 308.96805 25.499638 9.1476764e-041
-30.544559 345.44177 -96.074921 2.3509886e-038
-23.467793 319.51996 14.361409 9.1476764e-041
-25.421221 346.11639 -98.515945 2.3509886e-038
-18.663372 319.18304 6.7543445 2.3509886e-038
-20.48592 350.35245 -101.89422 2.3509886e-038
-13.939531 320.4671 5.9578519 2.3509886e-038
-15.436677 354.8862 -105.57515 2.3509886e-038
-8.743042 306.52786 76.42968 2.3418409e-038
-10.187241 357.16089 -108.76717 2.3509886e-038
-4.1037369 302.90237 78.247559 2.3418409e-038
-4.8755074 359.86774 -111.93214 2.3509886e-038
0.43009883 301.47351 70.883064 2.3418409e-038
0.52299637 366.58911 -116.68324 2.3509886e-038
5.0016727 304.95468 50.112534 2.3418409e-038
6.114429 372.80002 -121.85391 2.3509886e-038
9.9655666 317.61609 9.5840187 2.3418052e-038
11.755351 374.65891 -125.88835 2.3509886e-038
14.701244 317.17313 13.930117 2.3418052e-038
17.346865 374.25128 -128.70302 2.3509886e-038
19.363571 315.75006 36.310432 2.3418409e-038
22.920183 373.74561 -130.45093 2.3509886e-038
23.848837 312.56531 61.0051 2.3418052e-038
28.497721 373.49402 -131.16466 2.3509886e-038
28.075899 307.59668 66.805931 2.3418052e-038
34.072273 373.2923 -130.84467 2.3509886e-038
32.503441 305.91522 65.269791 2.3418052e-038
33.239761 312.84534 20.722385 2.3509886e-038
33.464828 314.96365 -6.793066 2.3509886e-038
39.655186 373.22589 -129.45866 2.3509886e-038
38.165459 314.83279 -6.0091953 2.3509886e-038
45.416462 374.64746 -126.38013 2.3509886e-038
42.536449 312.3103 -2.6162126 3.5733111e-043
44.621719 327.62076 -64.929497 2.3509886e-038
52.09235 382.47147 -110.07609 2.3509886e-038
52.091972 382.46866 -119.12189 2.3509886e-038
46.623859 308.41183 2.5784576 3.5733111e-043
48.616127 321.59048 -36.28643 2.3509886e-038
50.545467 304.21823 9.0759163 3.5733111e-043
51.978806 312.84506 -18.150417 3.5733111e-043
54.826427 302.7019 16.155615 3.5733111e-043
56.336964 311.04172 -9.9875784 3.5733111e-043
59.55542 303.702 23.864693 3.5733111e-043
60.021828 306.08047 -2.3998449 3.5733111e-043
63.949883 302.97522 28.941217 3.5733111e-043
64.30085 304.63797 6.4106131 3.5733111e-043
68.752785 304.15167 29.878763 3.5733111e-043
69.656487 308.14948 16.463413 3.5733111e-043
