# .PCD v0.7 - Point Cloud Data file format
VERSION 0.7
FIELDS x y z rgb
SIZE 4 4 4 4
TYPE F F F F
COUNT 1 1 1 1
WIDTH 875
HEIGHT 1
VIEWPOINT 0 0 0 1 0 0 0
POINTS 875
DATA ascii
25.396336 317.19577 61.249985 2.3418052e-038
-51.372898 302.99591 55.653969 9.1476764e-041
65.63942 309.71161 23.338461 3.5733111e-043
-88.371109 318.02664 -26.960674 2.3509528e-038
-8.9473658 316.62793 73.070152 2.3418409e-038
-14.513068 321.01761 78.305092 2.3418409e-038
-9.6231623 316.05972 77.095726 2.3418409e-038
-5.7449908 313.98282 76.589111 2.3418409e-038
-15.962155 324.79611 74.370636 2.3418409e-038
-14.664569 323.01727 73.963326 2.3418409e-038
-9.6609898 317.30209 72.654686 2.3418409e-038
-4.8780322 314.79419 72.080429 2.3418409e-038
-3.2025676 315.3562 72.209122 2.3418409e-038
-16.186861 326.52737 69.885017 2.3418409e-038
-14.722063 324.28369 69.404808 2.3418409e-038
-9.6785774 317.87973 68.034203 2.3418409e-038
-4.8875132 315.40604 67.504761 2.3418409e-038
-1.8703848 317.29211 67.90844 2.3418409e-038
-56.925793 306.96265 61.108166 9.1476764e-041
-54.897869 305.05429 60.728264 9.1476764e-041
-49.85817 302.15308 60.150707 9.1476764e-041
-48.260319 302.02502 60.125217 9.1476764e-041
-16.244738 327.50165 65.196938 2.3418409e-038
-14.752001 324.94312 64.687607 2.3418409e-038
-9.6790333 317.89468 63.284451 2.3418409e-038
-4.8836417 315.15619 62.739285 2.3418409e-038
-0.91083461 317.19901 63.14595 2.3418409e-038
20.408649 322.96686 64.294182 2.3418052e-038
23.654182 318.73694 63.452118 2.3418052e-038
28.177807 316.02368 62.91198 2.3418052e-038
29.945665 315.96063 62.899433 2.3418052e-038
-59.51379 310.98248 57.258801 9.1476764e-041
-55.07917 306.06171 56.352776 9.1476764e-041
-49.877411 302.26968 55.654583 9.1476764e-041
-45.16618 300.99097 55.41914 9.1476764e-041
-44.733212 300.9646 55.41428 9.1476764e-041
-16.284878 328.29898 60.447151 2.3509886e-038
-14.774624 325.44144 59.921017 2.3418409e-038
-9.6799126 317.92358 58.536808 2.3418409e-038
-4.8775425 314.7626 57.9548 2.3418409e-038
-0.23152027 315.81406 58.148399 2.3418409e-038
18.992773 323.45013 59.554371 2.3418052e-038
19.154057 323.21582 59.511227 2.3418052e-038
23.591908 317.8978 58.532063 2.3418052e-038
28.179449 316.04208 58.190388 2.3418052e-038
30.740988 316.68655 58.309044 2.3418052e-038
-59.174065 311.56857 52.708336 9.1476764e-041
-55.238266 306.94577 51.926289 9.1476764e-041
-49.932682 302.60464 51.191895 9.1476764e-041
-45.086472 300.45981 50.829048 9.1476764e-041
-42.611328 300.34531 50.809681 9.1476764e-041
-16.310938 328.82486 55.62759 2.3509886e-038
-14.790337 325.78754 55.113766 2.3418409e-038
-9.6881695 318.19476 53.829292 2.3418409e-038
-4.8803167 314.94162 53.278954 2.3418409e-038
-0.17167591 315.23898 53.329258 2.3418409e-038
0.3467387 315.43481 53.362389 2.3418409e-038
18.448982 323.08652 54.656834 2.3418052e-038
19.094011 322.20258 54.507294 2.3418052e-038
23.55057 317.34079 53.684822 2.3418052e-038
28.204586 316.32404 53.512814 2.3418052e-038
30.992887 317.87872 53.775826 2.3418052e-038
-57.398846 309.5791 47.743145 9.1476764e-041
-55.324657 307.42581 47.411068 9.1476764e-041
-50.065624 303.41031 46.791798 9.1476764e-041
-45.189266 301.14481 46.442413 9.1476764e-041
-40.913177 301.27945 46.463177 9.1476764e-041
-16.289921 328.50015 50.661144 2.3509886e-038
-14.779366 325.5459 50.20554 2.3509886e-038
-9.6897879 318.24796 49.080051 2.3418409e-038
-4.8804073 314.94745 48.571049 2.3418409e-038
-0.17138363 314.7023 48.533241 2.3418409e-038
1.0842113 314.95938 48.572891 2.3418409e-038
18.167887 322.41138 49.722134 2.3418052e-038
19.041306 321.3132 49.552773 2.3418052e-038
23.511271 316.81125 48.858482 2.3418052e-038
28.202515 316.30078 48.779758 2.3418052e-038
31.080488 318.54172 49.125355 2.3418052e-038
-55.654392 308.71732 42.994488 9.1476764e-041
-55.539101 308.61743 42.980579 9.1476764e-041
-50.321537 304.96121 42.471382 9.1476764e-041
-45.396431 302.52539 42.132149 9.1476764e-041
-40.836342 302.25211 42.094093 9.1476764e-041
-39.11972 303.05426 42.205807 9.1476764e-041
-16.242641 328.3786 45.732677 2.3509886e-038
-14.781148 325.58514 45.343639 2.3509886e-038
-9.6949568 318.41769 44.345444 2.3418409e-038
-4.8787675 314.84161 43.847408 2.3418409e-038
-0.17083271 313.69067 43.687115 2.3418409e-038
1.8276533 313.56772 43.669994 2.3418409e-038
17.695028 320.80286 44.67762 2.3418052e-038
18.933603 319.49576 44.495583 2.3418052e-038
23.411959 315.47302 43.935345 2.3418052e-038
28.076666 314.88934 43.854053 2.3418052e-038
30.92148 316.90341 44.134548 2.3418052e-038
-54.430923 310.01538 38.540119 9.1476764e-041
-50.693462 307.21518 38.192005 9.1476764e-041
-45.63979 304.14716 37.810596 9.1476764e-041
-40.970135 303.24237 37.69812 9.1476764e-041
-37.00304 304.86612 37.899975 9.1476764e-041
-16.079058 328.45093 40.831963 2.3509886e-038
-14.798423 325.96567 40.523006 2.3509886e-038
-9.7005129 318.60016 39.607346 2.3418409e-038
-4.8769169 314.7222 39.125256 2.3418409e-038
-0.17043591 312.96204 38.906433 2.3418409e-038
2.3615339 312.42233 38.83934 2.3418409e-038
16.847748 318.99426 39.656342 2.3418052e-038
18.801975 317.2746 39.442558 2.3418052e-038
23.28838 313.8078 39.011578 2.3418052e-038
27.942474 313.38437 38.958939 2.3418052e-038
30.758398 315.23322 39.188782 2.3418052e-038
-53.578022 312.44501 34.170689 9.1476764e-041
-51.195267 310.25626 33.931313 9.1476764e-041
-45.940853 306.15344 33.482609 9.1476764e-041
-41.119125 304.34512 33.28484 9.1476764e-041
-36.619324 304.76599 33.330868 9.1476764e-041
-34.691525 305.66626 33.429325 9.1476764e-041
-15.552464 327.8168 35.85183 2.3509886e-038
-14.820567 326.45346 35.702724 2.3509886e-038
-9.7126465 318.99869 34.887432 2.3418409e-038
-4.881629 315.02628 34.452991 2.3418409e-038
-0.17064603 313.34787 34.269428 2.3418409e-038
2.8390989 313.00006 34.231388 2.3418409e-038
15.77577 317.95996 34.77383 2.3418409e-038
18.701244 315.57483 34.512978 2.3418052e-038
23.203465 312.66357 34.194592 2.3418052e-038
27.929157 313.23499 34.25708 2.3418052e-038
30.813099 315.88223 34.5466 2.3418052e-038
-52.822464 315.40927 29.77907 9.1476764e-041
-51.866425 314.32361 29.676565 9.1476764e-041
-46.35614 308.92099 29.166483 9.1476764e-041
-41.343266 306.00412 28.891088 9.1476764e-041
-36.704735 305.47681 28.841305 9.1476764e-041
-32.521484 306.78659 28.964966 9.1476764e-041
-14.779663 327.24896 30.896902 2.3509886e-038
-9.7463369 320.10522 30.222433 2.3418409e-038
-4.8986969 316.12772 29.846899 2.3418409e-038
-0.1713651 314.66827 29.709108 2.3418409e-038
3.1885717 314.74197 29.716064 2.3418409e-038
14.689478 317.90359 30.014568 2.3418409e-038
18.647356 314.66547 29.708843 2.3418409e-038
23.167713 312.18182 29.474354 2.3418052e-038
27.994505 313.9679 29.642981 2.3418052e-038
30.928297 317.6752 29.993006 2.3418052e-038
-51.792103 317.94464 25.264729 2.3509886e-038
-46.834965 312.11188 24.801241 9.1476764e-041
-41.621964 308.06693 24.47982 9.1476764e-041
-36.855846 306.73447 24.373938 9.1476764e-041
-32.377258 307.75656 24.455156 9.1476764e-041
-30.617649 310.26224 24.654264 9.1476764e-041
-14.162004 328.2171 26.081003 2.3509886e-038
-9.7956133 321.72363 25.565018 2.3418409e-038
-4.919744 317.48599 25.228283 2.3418409e-038
-0.17198405 315.80481 25.094692 2.3418409e-038
3.1534572 315.71695 25.087711 2.3418409e-038
13.750929 318.44186 25.304239 2.3418409e-038
14.100998 318.23843 25.288073 2.3418409e-038
18.630468 314.38052 24.981514 2.3418052e-038
23.145954 311.88867 24.783503 2.3418052e-038
27.982681 313.8353 24.938189 2.3509886e-038
30.644262 317.18781 25.204588 2.3509886e-038
61.325272 310.33163 24.659779 3.5733111e-043
64.665039 309.73624 24.612465 3.5733111e-043
69.399551 310.19901 24.649239 3.5733111e-043
70.005379 310.34985 24.661226 3.5733111e-043
-50.105934 318.23801 20.529953 9.1476764e-041
-47.240925 314.81723 20.309273 9.1476764e-041
-41.93734 310.40121 20.024389 9.1476764e-041
-37.087349 308.66113 19.912134 9.1476764e-041
-32.560459 309.49796 19.96612 9.1476764e-041
-28.748379 318.5318 20.548906 9.1476764e-041
-28.713411 318.69705 20.559566 9.1476764e-041
-13.866653 330.48621 21.320099 2.3509886e-038
-9.847723 323.43509 20.865223 2.3509886e-038
-4.9387856 318.71478 20.560707 2.3418409e-038
-0.17237461 316.52197 20.419247 2.3418409e-038
3.0362947 316.03842 20.388054 2.3418409e-038
12.965011 318.7471 20.562794 2.3418409e-038
14.099951 318.21481 20.528454 2.3418409e-038
18.631796 314.40289 20.282545 2.3418052e-038
23.126316 311.62402 20.103275 2.3418052e-038
27.879669 312.67993 20.171394 2.3509886e-038
29.823036 314.49149 20.28826 2.3509886e-038
57.478336 310.11243 20.005758 3.5733111e-043
59.999947 309.56018 19.970135 3.5733111e-043
64.737411 310.08286 20.003851 3.5733111e-043
69.802917 312.00195 20.127655 3.5733111e-043
69.949226 312.0791 20.132633 3.5733111e-043
-48.134975 317.94052 15.757121 9.1476764e-041
-47.636711 317.45477 15.733047 9.1476764e-041
-42.341278 313.39093 15.531643 9.1476764e-041
-37.409863 311.34528 15.430261 9.1476764e-041
-32.78244 311.60794 15.443276 9.1476764e-041
-28.708687 318.09201 15.764627 9.1476764e-041
-24.95537 331.40637 16.424488 2.3509886e-038
-24.112944 334.04465 16.555239 2.3509886e-038
-13.939807 331.66901 16.437502 2.3509886e-038
-9.8736515 324.28671 16.071636 2.3509886e-038
-4.9503932 319.46384 15.832616 2.3509886e-038
-0.17266421 317.05374 15.71317 2.3418409e-038
3.5084751 316.526 15.687016 2.3418409e-038
11.965275 318.78494 15.798969 2.3418052e-038
14.096179 318.1297 15.766496 2.3418052e-038
18.652258 314.7482 15.598909 2.3418052e-038
23.148579 311.92401 15.458942 2.3418052e-038
27.828794 312.10938 15.468129 2.3509886e-038
28.951128 312.84308 15.504492 2.3509886e-038
53.915874 309.55475 15.341522 3.5733111e-043
55.225704 308.74463 15.301373 3.5733111e-043
59.725842 308.14597 15.271703 3.5733111e-043
64.717178 309.98596 15.362892 3.5733111e-043
68.442528 312.55823 15.490375 3.5733111e-043
-46.60173 320.60519 11.09569 9.1476764e-041
-42.940514 317.8262 10.999513 9.1476764e-041
-37.820999 314.767 10.893639 9.1476764e-041
-32.992329 313.60303 10.853354 9.1476764e-041
-28.546236 316.29208 10.946418 9.1476764e-041
-24.390583 323.90604 11.209927 2.3509886e-038
-22.336082 328.78946 11.378936 2.3509886e-038
-14.569395 329.77005 11.412872 2.3509886e-038
-9.847084 323.41412 11.192902 2.3509886e-038
-4.9510226 319.50446 11.057595 2.3509886e-038
-0.17291617 317.51642 10.988791 2.3509886e-038
4.5727434 317.40256 10.984851 2.3418052e-038
7.4518771 317.99286 11.00528 2.3418052e-038
7.8066835 318.07758 11.008211 2.3418052e-038
9.3475914 318.39893 11.019333 2.3418052e-038
14.083416 317.84164 11.000048 2.3418052e-038
18.674227 315.1189 10.905817 2.3418052e-038
23.205917 312.69662 10.821985 2.3418052e-038
27.884056 312.72919 10.823112 2.3509886e-038
28.399347 313.06787 10.834833 2.3509886e-038
50.443569 310.27344 10.738122 3.5733111e-043
50.80595 309.94263 10.726673 3.5733111e-043
54.967869 307.30319 10.635325 3.5733111e-043
59.456699 306.75739 10.616437 3.5733111e-043
64.539009 309.13254 10.698637 3.5733111e-043
65.573547 309.96701 10.727517 3.5733111e-043
-45.609383 325.8942 6.4061751 2.3509886e-038
-43.763981 323.92114 6.3673902 2.3509886e-038
-38.293911 318.70282 6.2648125 9.1476764e-041
-33.194519 315.5249 6.2023435 9.1476764e-041
-28.483307 315.59482 6.2037177 9.1476764e-041
-24.003183 318.76138 6.2659636 2.3509886e-038
-19.501745 323.14371 6.352108 2.3509886e-038
-18.538742 323.67105 6.3624735 2.3509886e-038
-18.35096 323.74368 6.3639011 2.3509886e-038
-14.685765 323.48416 6.3587999 2.3509886e-038
-9.777235 321.12 6.3123269 2.3509886e-038
-4.9448204 319.10422 6.2727032 2.3509886e-038
-0.17319019 318.01956 6.2513814 2.3509886e-038
4.5811906 317.98889 6.2507787 2.3509886e-038
9.3424568 318.22403 6.2554007 2.3418052e-038
14.06113 317.33868 6.2379966 2.3418052e-038
18.681549 315.24246 6.1967912 2.3418052e-038
23.252287 313.32144 6.1590295 2.3509886e-038
27.952042 313.49164 6.1623755 2.3509886e-038
28.236612 313.70175 6.1665053 2.3509886e-038
47.230698 312.6124 6.1450911 3.5733111e-043
50.776833 309.76501 6.0891199 3.5733111e-043
54.998409 307.47394 6.0440831 3.5733111e-043
59.394489 306.43643 6.0236888 3.5733111e-043
62.513702 307.57199 6.0460105 3.5733111e-043
-44.574062 330.33627 1.5545082 2.3509886e-038
-38.757141 322.55807 1.5179052 2.3509886e-038
-33.39819 317.46085 1.4939184 9.1476764e-041
-28.507864 315.86691 1.4864179 2.3509886e-038
-23.854494 316.7868 1.4907466 2.3509886e-038
-19.213448 318.36661 1.4981809 2.3509886e-038
-14.490126 319.1748 1.5019841 2.3509886e-038
-9.7200298 319.24121 1.5022966 2.3509886e-038
-4.9450297 319.11774 1.5017155 2.3509886e-038
-0.17373481 319.01962 1.5012538 2.3509886e-038
4.594027 318.87991 1.5005964 2.3509886e-038
9.353179 318.5892 1.4992284 2.3509886e-038
14.073509 317.61804 1.4946584 2.3509886e-038
18.720364 315.89746 1.4865615 2.3509886e-038
23.317377 314.19855 1.4785668 2.3509886e-038
28.003176 314.06512 1.4779389 2.3509886e-038
28.753159 314.47763 1.47988 2.3509886e-038
43.990944 315.1893 1.483229 3.5733111e-043
46.611298 312.89246 1.4724206 3.5733111e-043
50.912319 310.59155 1.4615928 3.5733111e-043
55.292885 309.12024 1.454669 3.5733111e-043
59.732838 308.1821 1.4502542 3.5733111e-043
60.221069 308.27286 1.4506814 3.5733111e-043
-43.328777 332.8681 -3.4104054 2.3509886e-038
-39.205532 326.28983 -3.3430078 2.3509886e-038
-33.624249 319.60959 -3.274565 2.3509886e-038
-28.597919 316.86472 -3.2464426 2.3509886e-038
-23.862513 316.89328 -3.2467351 2.3509886e-038
-19.170464 317.65436 -3.2545331 2.3509886e-038
-14.451537 318.3248 -3.2614019 2.3509886e-038
-9.7117224 318.96832 -3.2679951 2.3509886e-038
-4.9535985 319.67072 -3.2751913 2.3509886e-038
-0.17434329 320.13696 -3.2799685 2.3509886e-038
4.6103096 320.0101 -3.2786684 2.3509886e-038
9.3794632 319.48453 -3.2732837 2.3509886e-038
14.111449 318.4743 -3.2629333 2.3509886e-038
18.779663 316.8981 -3.2467847 2.3509886e-038
23.398676 315.29404 -3.23035 2.3509886e-038
28.08758 315.01178 -3.227458 2.3509886e-038
30.782795 316.06732 -3.2382727 2.3509886e-038
39.885445 317.28787 -3.250778 2.3509886e-038
42.290257 315.55719 -3.2330461 3.5733111e-043
46.62389 312.97699 -3.2066107 3.5733111e-043
51.099773 311.73514 -3.1938872 3.5733111e-043
55.698299 311.38675 -3.1903176 3.5733111e-043
58.301273 311.5701 -3.1921966 3.5733111e-043
-42.031086 334.00848 -8.415967 2.3509886e-038
-39.62817 329.80725 -8.3101091 2.3509886e-038
-33.885708 322.09485 -8.1157818 2.3509886e-038
-28.748606 318.5343 -8.0260668 2.3509886e-038
-23.953484 318.10138 -8.0151577 2.3509886e-038
-19.238605 318.78348 -8.0323448 2.3509886e-038
-14.500088 319.39423 -8.0477343 2.3509886e-038
-9.7379103 319.82846 -8.0586748 2.3509886e-038
-4.9643006 320.36136 -8.0721025 2.3509886e-038
-0.17477596 320.93143 -8.0864658 2.3509886e-038
4.6249995 321.02979 -8.0889444 2.3509886e-038
9.4108458 320.5535 -8.0769444 2.3509886e-038
14.158497 319.5361 -8.0513086 2.3509886e-038
18.848017 318.05151 -8.0139027 2.3509886e-038
23.493839 316.57635 -7.9767323 2.3509886e-038
28.196623 316.23471 -7.9681239 2.3509886e-038
33.018341 317.13354 -7.9907718 2.3509886e-038
37.773106 317.24414 -7.9935584 2.3509886e-038
42.285511 315.52179 -7.9501605 3.5733111e-043
46.718784 313.61398 -7.9020896 3.5733111e-043
51.279446 312.83121 -7.8823662 3.5733111e-043
55.782742 313.64011 -7.9027481 3.5733111e-043
-40.752682 334.0163 -13.410184 2.3509886e-038
-39.97015 332.65338 -13.355465 2.3509886e-038
-34.151012 324.6167 -13.032806 2.3509886e-038
-28.925493 320.49423 -12.867296 2.3509886e-038
-24.069921 319.64767 -12.833307 2.3509886e-038
-19.328987 320.28113 -12.85874 2.3509886e-038
-14.562446 320.76779 -12.878279 2.3509886e-038
-9.7675934 320.80334 -12.879706 2.3509886e-038
-4.972661 320.90085 -12.883621 2.3509886e-038
-0.17500649 321.35477 -12.901845 2.3509886e-038
4.6343484 321.67868 -12.914849 2.3509886e-038
9.4354239 321.39066 -12.903286 2.3509886e-038
14.19996 320.47186 -12.866398 2.3509886e-038
18.9158 319.19537 -12.815148 2.3509886e-038
23.601128 318.02203 -12.768042 2.3509886e-038
28.318426 317.60077 -12.751127 2.3509886e-038
33.086494 317.78815 -12.758652 2.3509886e-038
37.821857 317.65359 -12.753249 3.5733111e-043
42.421268 316.53479 -12.70833 3.5733111e-043
46.905106 314.86472 -12.641281 3.5733111e-043
51.493412 314.13654 -12.612045 3.5733111e-043
53.033428 314.55344 -12.628783 3.5733111e-043
-39.678066 333.44495 -18.372698 2.3509886e-038
-34.346485 326.4747 -17.98864 2.3509886e-038
-29.069588 322.09079 -17.747089 2.3509886e-038
-24.168987 320.96323 -17.684961 2.3509886e-038
-19.40003 321.45831 -17.712238 2.3509886e-038
-14.606488 321.73792 -17.727646 2.3509886e-038
-9.7895994 321.52609 -17.715971 2.3509886e-038
-4.9807172 321.42075 -17.710169 2.3509886e-038
-0.17520799 321.72473 -17.726919 2.3509886e-038
4.6392884 322.02161 -17.743277 2.3509886e-038
9.4468613 321.78027 -17.729977 2.3509886e-038
14.223523 321.00363 -17.687187 2.3509886e-038
18.967796 320.07275 -17.635893 2.3509886e-038
23.703699 319.40417 -17.599058 2.3509886e-038
28.461893 319.20978 -17.588345 2.3509886e-038
33.217297 319.04446 -17.579237 2.3509886e-038
37.934147 318.59665 -17.554562 3.5733111e-043
42.58712 317.77231 -17.50914 3.5733111e-043
47.159679 316.57361 -17.443094 3.5733111e-043
51.127518 316.3649 -17.431593 3.5733111e-043
-96.139397 321.86679 -22.547087 2.3509528e-038
-90.61483 318.37067 -22.302181 2.3509528e-038
-86.072075 319.17648 -22.358629 2.3509528e-038
-82.17408 322.60825 -22.599026 2.3509528e-038
-81.281471 323.53189 -22.663731 2.3509528e-038
-39.408287 333.19855 -23.340889 2.3509886e-038
-34.42511 327.22208 -22.922232 2.3509886e-038
-29.170235 323.20596 -22.6409 2.3509886e-038
-24.254757 322.10223 -22.563581 2.3509886e-038
-19.454462 322.36026 -22.581656 2.3509886e-038
-14.63842 322.44128 -22.587332 2.3509886e-038
-9.8105497 322.21417 -22.571424 2.3509886e-038
-4.9923162 322.16931 -22.568279 2.3509886e-038
-0.17558104 322.40976 -22.585121 2.3509886e-038
4.645937 322.48309 -22.590261 2.3509886e-038
9.454628 322.0448 -22.559557 2.3509886e-038
14.238694 321.34601 -22.510607 2.3509886e-038
19.008188 320.75436 -22.469162 2.3509886e-038
23.778858 320.41693 -22.445524 2.3509886e-038
28.565933 320.37668 -22.442703 2.3509886e-038
33.318439 320.01593 -22.417433 2.3509886e-038
38.034512 319.43958 -22.37706 3.5733111e-043
42.756638 319.0372 -22.348871 3.5733111e-043
47.478428 318.71332 -22.326183 3.5733111e-043
50.098938 318.93726 -22.341869 3.5733111e-043
-97.517853 323.39609 -27.489428 2.3509528e-038
-96.603348 322.47128 -27.410816 2.3509528e-038
-90.452171 317.79916 -27.013674 2.3509528e-038
-85.569962 317.31458 -26.972485 2.3509528e-038
-81.371262 319.45645 -27.154549 2.3509528e-038
-77.36367 322.6626 -27.427078 2.3509528e-038
-73.526054 326.97189 -27.793377 2.3509528e-038
-40.335838 334.21326 -28.408911 2.3509886e-038
-40.120102 333.90137 -28.382401 2.3509886e-038
-34.438416 327.34857 -27.825396 2.3509886e-038
-29.23661 323.94141 -27.535782 2.3509886e-038
-24.319895 322.96729 -27.452978 2.3509886e-038
-19.49551 323.04041 -27.459192 2.3509886e-038
-14.667596 323.08392 -27.462894 2.3509886e-038
-9.8342428 322.99234 -27.455109 2.3509886e-038
-5.006866 323.10822 -27.464958 2.3509886e-038
-0.17612767 323.41348 -27.490906 2.3509886e-038
4.6575518 323.28928 -27.480347 2.3509886e-038
9.4713182 322.61334 -27.42289 2.3509886e-038
14.264722 321.93341 -27.365095 2.3509886e-038
19.055876 321.55905 -27.333273 2.3509886e-038
23.847109 321.33661 -27.314365 2.3509886e-038
28.650261 321.32242 -27.31316 2.3509886e-038
33.411358 320.90836 -27.277966 2.3509886e-038
38.14521 320.36932 -27.232145 2.3509886e-038
42.924335 320.28851 -27.225275 3.5733111e-043
47.780605 320.74179 -27.263807 3.5733111e-043
49.359001 321.08923 -27.293339 3.5733111e-043
-94.781448 322.20807 -32.205887 2.3509528e-038
-90.968811 319.61435 -31.946636 2.3509528e-038
-85.781654 318.09955 -31.795225 2.3509528e-038
-81.182213 318.71426 -31.856667 2.3509528e-038
-76.923882 320.82837 -32.067982 2.3509528e-038
-72.87677 324.16321 -32.40131 2.3509528e-038
-68.860069 328.11801 -32.796612 2.3509528e-038
-67.153305 329.45316 -32.930058 2.3509528e-038
-42.462574 335.767 -33.56115 2.3509886e-038
-39.969353 332.64676 -33.249275 2.3509886e-038
-34.429745 327.26611 -32.711456 2.3509886e-038
-29.293819 324.57532 -32.442501 2.3509886e-038
-24.375536 323.70621 -32.355633 2.3509886e-038
-19.531883 323.64313 -32.349327 2.3509886e-038
-14.695094 323.68964 -32.353973 2.3509886e-038
-9.8570118 323.74017 -32.359028 2.3509886e-038
-5.021554 324.05609 -32.390606 2.3509886e-038
-0.17674515 324.54736 -32.439709 2.3509886e-038
4.6733851 324.38831 -32.423809 2.3509886e-038
9.501133 323.62888 -32.347904 2.3509886e-038
14.31072 322.97156 -32.2822 2.3509886e-038
19.12464 322.71942 -32.257 2.3509886e-038
23.940422 322.59399 -32.244461 2.3509886e-038
28.75823 322.53329 -32.2384 2.3509886e-038
33.533108 322.07776 -32.192863 2.3509886e-038
38.280457 321.50522 -32.135635 2.3509886e-038
43.083683 321.47751 -32.132866 2.3509886e-038
48.059517 322.61404 -32.246468 2.3509886e-038
48.673351 322.87952 -32.273003 2.3509886e-038
-90.522644 323.39923 -37.160225 2.3509528e-038
-86.803169 321.88757 -36.98653 2.3509528e-038
-81.743217 320.91672 -36.874973 2.3509528e-038
-77.091606 321.52789 -36.945202 2.3509528e-038
-72.702171 323.38651 -37.158764 2.3509528e-038
-68.35511 325.71191 -37.425964 2.3509528e-038
-63.873978 327.70612 -37.655113 2.3509528e-038
-60.088352 328.957 -37.79884 2.3509528e-038
-45.784126 334.52933 -38.439133 2.3509886e-038
-45.152893 334.20123 -38.401432 2.3509886e-038
-39.716602 330.54321 -37.98111 2.3509886e-038
-34.429379 327.26263 -37.604153 2.3509886e-038
-29.37225 325.44427 -37.395214 2.3509886e-038
-24.447161 324.65738 -37.304798 2.3509886e-038
-19.578171 324.4101 -37.276379 2.3509886e-038
-14.725073 324.35001 -37.269478 2.3509886e-038
-9.8805771 324.51416 -37.288338 2.3509886e-038
-5.0373287 325.07407 -37.352673 2.3509886e-038
-0.17738798 325.72772 -37.427784 2.3509886e-038
4.6905422 325.57922 -37.410721 2.3509886e-038
9.5381136 324.88849 -37.331348 2.3509886e-038
14.370978 324.33148 -37.267349 2.3509886e-038
19.21241 324.20047 -37.252296 2.3509886e-038
24.062149 324.23425 -37.256172 2.3509886e-038
28.893177 324.04678 -37.234634 2.3509886e-038
33.675411 323.44455 -37.165432 2.3509886e-038
38.427357 322.73898 -37.084358 2.3509886e-038
43.247715 322.70145 -37.080048 2.3509886e-038
47.93692 324.48773 -37.285301 2.3509886e-038
-85.210869 326.88223 -42.447773 2.3509528e-038
-83.058319 326.07968 -42.343555 2.3509528e-038
-78.026756 325.42816 -42.258953 2.3509528e-038
-73.194427 325.57614 -42.278172 2.3509528e-038
-68.476311 326.28943 -42.370792 2.3509528e-038
-63.848309 327.57443 -42.537659 2.3509528e-038
-59.156975 328.7211 -42.686562 2.3509528e-038
-54.40366 329.69989 -42.813667 2.3509528e-038
-49.602711 330.55637 -42.924881 2.3509886e-038
-44.62756 330.31296 -42.893276 2.3509886e-038
-39.531094 328.99933 -42.722691 2.3509886e-038
-34.463673 327.58862 -42.539501 2.3509886e-038
-29.477005 326.60498 -42.41177 2.3509886e-038
-24.540098 325.89157 -42.31913 2.3509886e-038
-19.638802 325.4147 -42.257206 2.3509886e-038
-14.765693 325.24472 -42.235134 2.3509886e-038
-9.9140081 325.61212 -42.282841 2.3509886e-038
-5.0583525 326.43079 -42.389153 2.3509886e-038
-0.17810684 327.04776 -42.469265 2.3509886e-038
4.7077298 326.77225 -42.433491 2.3509886e-038
9.57551 326.16235 -42.35429 2.3509886e-038
14.435086 325.77832 -42.30442 2.3509886e-038
19.304272 325.75061 -42.300823 2.3509886e-038
24.177441 325.78778 -42.305653 2.3509886e-038
29.008575 325.341 -42.247635 2.3509886e-038
33.790169 324.54675 -42.144497 2.3509886e-038
38.559738 323.8508 -42.054119 2.3509886e-038
43.422729 324.00735 -42.074451 2.3509886e-038
47.144501 325.79233 -42.306244 2.3509886e-038
-79.732811 332.98062 -48.218201 2.3509528e-038
-74.472275 331.26013 -47.969063 2.3509528e-038
-69.304504 330.23575 -47.820721 2.3509528e-038
-64.294083 329.86148 -47.766525 2.3509528e-038
-59.315495 329.60193 -47.728939 2.3509528e-038
-54.344009 329.33841 -47.690781 2.3509528e-038
-49.395351 329.17453 -47.667049 2.3509886e-038
-44.42569 328.81882 -47.61554 2.3509886e-038
-39.448757 328.31406 -47.54245 2.3509886e-038
-34.495968 327.8956 -47.481853 2.3509886e-038
-29.558079 327.5033 -47.425041 2.3509886e-038
-24.616076 326.90057 -47.337765 2.3509886e-038
-19.68898 326.24622 -47.243008 2.3509886e-038
-14.805847 326.12921 -47.226059 2.3509886e-038
-9.9516001 326.84677 -47.329975 2.3509886e-038
-5.0816193 327.93228 -47.487164 2.3509886e-038
-0.1788962 328.49722 -47.568974 2.3509886e-038
4.7282634 328.19751 -47.52557 2.3509886e-038
9.6191683 327.64938 -47.446194 2.3509886e-038
14.503311 327.31805 -47.398216 2.3509886e-038
19.387489 327.15488 -47.374588 2.3509886e-038
24.25136 326.78384 -47.320858 2.3509886e-038
29.060772 325.92642 -47.196697 2.3509886e-038
33.831566 324.94437 -47.054493 2.3509886e-038
38.624798 324.39722 -46.975254 2.3509886e-038
43.531631 324.81995 -47.036472 2.3509886e-038
46.295998 326.1683 -47.231724 2.3509886e-038
-75.565407 340.86655 -54.456558 2.3509528e-038
-71.035583 338.48434 -54.075981 2.3509528e-038
-65.295692 335.00021 -53.51936 2.3509528e-038
-59.721226 331.85648 -53.01712 2.3509528e-038
-54.46405 330.06589 -52.731052 2.3509528e-038
-49.41629 329.31403 -52.610939 2.3509528e-038
-44.397461 328.60992 -52.498447 2.3509886e-038
-39.419476 328.0704 -52.412258 2.3509886e-038
-34.49506 327.88696 -52.382954 2.3509886e-038
-29.58123 327.7598 -52.362637 2.3509886e-038
-24.641731 327.24127 -52.279797 2.3509886e-038
-19.706968 326.54425 -52.168446 2.3509886e-038
-14.831779 326.70041 -52.193394 2.3509886e-038
-9.9808464 327.80734 -52.370232 2.3509886e-038
-5.099885 329.11105 -52.57851 2.3509886e-038
-0.17962851 329.84192 -52.695274 2.3509886e-038
4.7520008 329.84515 -52.695793 2.3509886e-038
9.6723137 329.45966 -52.634205 2.3509886e-038
14.578343 329.01141 -52.562595 2.3509886e-038
19.462967 328.42853 -52.469475 2.3509886e-038
24.298811 327.42325 -52.308868 2.3509886e-038
29.077053 326.10901 -52.098911 2.3509886e-038
33.82547 324.8858 -51.903488 2.3509886e-038
38.629543 324.43707 -51.831802 2.3509886e-038
43.581055 325.18872 -51.951885 2.3509886e-038
45.575069 326.19711 -52.112984 2.3509886e-038
-73.012878 350.44232 -61.225964 2.3509886e-038
-66.796761 342.70148 -59.873554 2.3509528e-038
-60.384579 335.5426 -58.622822 2.3509528e-038
-54.721043 331.62332 -57.938084 2.3509528e-038
-49.51712 329.98596 -57.652023 2.3509528e-038
-44.424744 328.81183 -57.446884 2.3509886e-038
-39.402531 327.92935 -57.292709 2.3509886e-038
-34.45726 327.52768 -57.222534 2.3509886e-038
-29.542929 327.33542 -57.188942 2.3509886e-038
-24.61302 326.85999 -57.105881 2.3509886e-038
-19.690634 326.27362 -57.003433 2.3509886e-038
-14.834277 326.75543 -57.087616 2.3509886e-038
-9.9932051 328.21326 -57.342308 2.3509886e-038
-5.1107755 329.81384 -57.621948 2.3509886e-038
-0.1802385 330.96201 -57.822544 2.3509886e-038
4.7751141 331.44949 -57.907711 2.3509886e-038
9.725297 331.26437 -57.875374 2.3509886e-038
14.649211 330.61078 -57.761185 2.3509886e-038
19.52948 329.55093 -57.576015 2.3509886e-038
24.344238 328.03534 -57.31123 2.3509886e-038
29.101503 326.38327 -57.022591 2.3509886e-038
33.824268 324.8743 -56.758961 2.3509886e-038
38.621796 324.37198 -56.671204 2.3509886e-038
43.627357 325.53424 -56.87426 2.3509886e-038
44.92799 326.2869 -57.005753 2.3509886e-038
-68.87262 351.6264 -66.690147 2.3509886e-038
-68.374107 350.79407 -66.532295 2.3509886e-038
-61.234161 340.26352 -64.535042 2.3509528e-038
-55.121368 334.04941 -63.356461 2.3509528e-038
-49.641899 330.81754 -62.743492 2.3509528e-038
-44.440022 328.9249 -62.384537 2.3509886e-038
-39.368916 327.6496 -62.142658 2.3509886e-038
-34.385742 326.84784 -61.990601 2.3509886e-038
-29.458622 326.40131 -61.905907 2.3509886e-038
-24.551498 326.04297 -61.837948 2.3509886e-038
-19.659908 325.76447 -61.785126 2.3509886e-038
-14.822825 326.50317 -61.925232 2.3509886e-038
-9.9942207 328.24661 -62.255894 2.3509886e-038
-5.1178885 330.27286 -62.64019 2.3509886e-038
-0.18075687 331.91382 -62.951424 2.3509886e-038
4.7945867 332.80112 -63.119709 2.3509886e-038
9.7680235 332.71973 -63.104271 2.3509886e-038
14.706035 331.89322 -62.94751 2.3509886e-038
19.589767 330.56824 -62.696213 2.3509886e-038
24.405678 328.86325 -62.372849 2.3509886e-038
29.167065 327.11856 -62.041943 2.3509886e-038
33.883564 325.44385 -61.724312 2.3509886e-038
38.671253 324.78738 -61.599808 2.3509886e-038
43.722435 326.24371 -61.876019 2.3509886e-038
44.14782 326.50635 -61.925827 2.3509886e-038
-63.46236 347.71133 -71.146362 2.3509886e-038
-62.276199 346.05386 -70.807228 2.3509886e-038
-55.794239 338.12717 -69.185318 2.3509528e-038
-49.883965 332.43066 -68.01973 2.3509528e-038
-44.457527 329.05447 -67.328926 2.3509886e-038
-39.314125 327.19357 -66.948158 2.3509886e-038
-34.30164 326.04843 -66.713844 2.3509886e-038
-29.37019 325.42145 -66.585556 2.3509886e-038
-24.49832 325.33676 -66.568222 2.3509886e-038
-19.648046 325.56793 -66.615532 2.3509886e-038
-14.825211 326.55573 -66.817642 2.3509886e-038
-9.9998674 328.43207 -67.201569 2.3509886e-038
-5.1250296 330.73367 -67.672516 2.3509886e-038
-0.1812063 332.73911 -68.082848 2.3509886e-038
4.8107729 333.92465 -68.325424 2.3509886e-038
9.8023634 333.88943 -68.318214 2.3509886e-038
14.754285 332.98215 -68.132576 2.3509886e-038
19.653465 331.6431 -67.858589 2.3509886e-038
24.492567 330.03409 -67.529358 2.3509886e-038
29.289045 328.4866 -67.212723 2.3509886e-038
34.044186 326.98654 -66.9058 2.3509886e-038
38.844028 326.23849 -66.752731 2.3509886e-038
43.057568 327.29605 -66.969124 2.3509886e-038
-58.303665 346.74973 -76.133987 2.3509886e-038
-56.883163 344.72632 -75.68972 2.3509886e-038
-50.436504 336.11282 -73.7985 2.3509886e-038
-44.654892 330.51526 -72.569473 2.3509886e-038
-39.367962 327.64166 -71.93853 2.3509886e-038
-34.314873 326.17422 -71.616333 2.3509886e-038
-29.374741 325.47189 -71.462135 2.3509886e-038
-24.51438 325.55005 -71.479286 2.3509886e-038
-19.680141 326.09973 -71.599976 2.3509886e-038
-14.85147 327.13412 -71.827095 2.3509886e-038
-10.01246 328.84564 -72.202881 2.3509886e-038
-5.1307082 331.10013 -72.697891 2.3509886e-038
-0.18152545 333.32513 -73.186417 2.3509886e-038
4.8236585 334.81909 -73.514442 2.3509886e-038
9.8311605 334.8703 -73.525688 2.3509886e-038
14.795899 333.92133 -73.317322 2.3509886e-038
19.71406 332.66559 -73.041611 2.3509886e-038
24.591236 331.36362 -72.755737 2.3509886e-038
29.45418 330.33862 -72.530685 2.3509886e-038
34.304993 329.49152 -72.344696 2.3509886e-038
39.197315 329.2056 -72.281921 2.3509886e-038
42.025364 330.10309 -72.478973 2.3509886e-038
-53.000374 343.71051 -80.605621 2.3509886e-038
-51.189983 341.13406 -80.001396 2.3509886e-038
-45.159126 334.24741 -78.386368 2.3509886e-038
-39.671055 330.16415 -77.42878 2.3509886e-038
-34.489452 327.83365 -76.88224 2.3509886e-038
-29.490345 326.75278 -76.628761 2.3509886e-038
-24.597984 326.66031 -76.607071 2.3509886e-038
-19.739237 327.07895 -76.705246 2.3509886e-038
-14.887021 327.91721 -76.90184 2.3509886e-038
-10.027884 329.35223 -77.238373 2.3509886e-038
-5.1355114 331.4101 -77.720978 2.3509886e-038
-0.1817465 333.73105 -78.265274 2.3509886e-038
4.8346276 335.58044 -78.698982 2.3509886e-038
9.8626041 335.94138 -78.78363 2.3509886e-038
14.850936 335.16342 -78.601189 2.3509886e-038
19.798717 334.09418 -78.350433 2.3509886e-038
24.729771 333.23038 -78.147858 2.3509886e-038
29.70437 333.14459 -78.127739 2.3509886e-038
34.787952 334.13025 -78.358894 2.3509886e-038
40.069218 336.52844 -78.92131 2.3509886e-038
41.972397 338.20129 -79.313614 2.3509886e-038
-47.624626 342.34702 -85.404411 2.3509886e-038
-46.045578 340.8085 -85.020599 2.3509886e-038
-40.328972 335.63971 -83.731155 2.3509886e-038
-34.894073 331.67972 -82.743263 2.3509886e-038
-29.741785 329.53873 -82.209152 2.3509886e-038
-24.759102 328.79996 -82.024857 2.3509886e-038
-19.836414 328.68918 -81.997223 2.3509886e-038
-14.942687 329.14337 -82.110535 2.3509886e-038
-10.057061 330.31052 -82.401695 2.3509886e-038
-5.1481876 332.22815 -82.880081 2.3509886e-038
-0.18223634 334.63052 -83.479393 2.3509886e-038
4.8517537 336.7692 -84.012917 2.3509886e-038
9.9083738 337.50037 -84.19532 2.3509886e-038
14.933257 337.0213 -84.075806 2.3509886e-038
19.924843 336.2225 -83.876534 2.3509886e-038
24.929785 335.92551 -83.802452 2.3509886e-038
30.075237 337.30399 -84.146339 2.3509886e-038
35.584377 341.77972 -85.262886 2.3509886e-038
41.552238 348.98386 -87.060081 2.3509886e-038
43.794369 352.38406 -87.908318 2.3509886e-038
-41.521782 344.25964 -91.028717 2.3509886e-038
-41.339436 344.04935 -90.973106 2.3509886e-038
-35.602505 338.41364 -89.482918 2.3509886e-038
-30.239552 335.05402 -88.594574 2.3509886e-038
-25.079624 333.05649 -88.066391 2.3509886e-038
-20.036255 332.00052 -87.78717 2.3509886e-038
-15.066919 331.87985 -87.755264 2.3509886e-038
-10.13051 332.72287 -87.97818 2.3509886e-038
-5.1837769 334.52481 -88.454643 2.3509886e-038
-0.18353157 337.00885 -89.111473 2.3509886e-038
4.8878827 339.27698 -89.711205 2.3509886e-038
9.9887409 340.23782 -89.965271 2.3509886e-038
15.066947 340.03845 -89.912552 2.3509886e-038
20.123417 339.57333 -89.789558 2.3509886e-038
25.227436 339.93634 -89.885551 2.3509886e-038
30.577362 342.93552 -90.678589 2.3509886e-038
36.558823 351.13904 -92.847755 2.3509886e-038
43.148388 362.38937 -95.822556 2.3509886e-038
47.185143 369.02448 -97.577003 2.3509886e-038
-33.367622 346.73169 -96.866478 2.3509886e-038
-31.14698 345.10831 -96.412949 2.3509886e-038
-25.669954 340.89603 -95.236168 2.3509886e-038
-20.415312 338.28152 -94.505753 2.3509886e-038
-15.316137 337.36938 -94.250923 2.3509886e-038
-10.281161 337.67078 -94.335121 2.3509886e-038
-5.2540684 339.06094 -94.723495 2.3509886e-038
-0.18593362 341.41965 -95.382446 2.3509886e-038
4.9528551 343.7868 -96.043762 2.3509886e-038
10.130522 345.0672 -96.401466 2.3509886e-038
15.29958 345.28864 -96.463333 2.3509886e-038
20.459829 345.25009 -96.45256 2.3509886e-038
25.685301 346.10599 -96.691673 2.3509886e-038
31.188095 349.7851 -97.719505 2.3509886e-038
37.362389 358.85712 -100.25396 2.3509886e-038
44.108963 370.45697 -103.49461 2.3509886e-038
50.301086 379.24615 -105.95004 2.3509886e-038
-21.61928 348.56149 -102.58913 2.3509886e-038
-21.015347 348.22406 -102.48982 2.3509886e-038
-15.718077 346.22293 -101.90085 2.3509886e-038
-10.512594 345.27188 -101.62093 2.3509886e-038
-5.3554931 345.60617 -101.71932 2.3509886e-038
-0.18938001 347.74805 -102.34972 2.3509886e-038
5.0484591 350.42285 -103.13697 2.3509886e-038
10.336779 352.09274 -103.62846 2.3509886e-038
15.623398 352.59674 -103.77679 2.3509886e-038
20.90395 352.74445 -103.82027 2.3509886e-038
26.236349 353.53131 -104.05186 2.3509886e-038
31.765234 356.25787 -104.85435 2.3509886e-038
37.816662 363.22034 -106.90355 2.3509886e-038
44.430084 373.15396 -109.82722 2.3509886e-038
51.229897 382.26212 -112.50795 2.3509886e-038
51.959198 383.06635 -112.74466 2.3509886e-038
-5.7814913 353.36462 -109.28611 2.3509886e-038
-5.476788 353.43372 -109.30748 2.3509886e-038
-0.19399302 356.21866 -110.16879 2.3509886e-038
5.1769776 359.3436 -111.13524 2.3509886e-038
10.582441 360.46054 -111.48068 2.3509886e-038
15.955059 360.08182 -111.36356 2.3509886e-038
21.315472 359.68869 -111.24197 2.3509886e-038
26.715115 359.9826 -111.33287 2.3509886e-038
32.220219 361.36069 -111.75907 2.3509886e-038
38.056942 365.52817 -113.04797 2.3509886e-038
44.392426 372.83768 -115.30859 2.3509886e-038
51.076595 381.11819 -117.86954 2.3509886e-038
51.429382 381.51599 -117.99256 2.3509886e-038
5.204524 369.85675 -119.9165 2.3509886e-038
5.3286567 369.87192 -119.92142 2.3509886e-038
10.830947 368.92517 -119.61446 2.3509886e-038
16.247904 366.69092 -118.89005 2.3509886e-038
21.648653 365.31097 -118.44265 2.3509886e-038
27.089869 365.03235 -118.35231 2.3509886e-038
32.598633 365.60474 -118.53789 2.3509886e-038
38.295746 367.82181 -119.25672 2.3509886e-038
44.328617 372.30176 -120.70924 2.3509886e-038
49.261467 377.06506 -122.25361 2.3509886e-038
13.747433 374.17535 -126.91115 2.3509886e-038
16.502827 372.44415 -126.32397 2.3509886e-038
21.947012 370.34561 -125.6122 2.3509886e-038
27.423824 369.53238 -125.33636 2.3509886e-038
32.955166 369.60336 -125.36044 2.3509886e-038
38.59042 370.65207 -125.71615 2.3509886e-038
44.417858 373.05127 -126.52988 2.3509886e-038
45.801476 373.89053 -126.81454 2.3509886e-038
25.617336 373.45453 -132.25032 2.3509886e-038
27.683031 373.02515 -132.09825 2.3509886e-038
33.224899 372.62854 -131.95781 2.3509886e-038
37.504314 372.93613 -132.06674 2.3509886e-038
-96.507721 322.15207 -23.011997 2.3509528e-038
-96.775169 323.04483 -29.358711 2.3509528e-038
-90.984268 319.66864 -19.894053 2.3509528e-038
-91.825783 322.62527 -35.707096 2.3509528e-038
-86.481392 320.69437 -20.337553 2.3509528e-038
-87.733208 325.3364 -40.086643 2.3509528e-038
-82.293907 323.07867 -22.116148 2.3509528e-038
-83.574829 328.10748 -43.99971 2.3509528e-038
-77.865692 324.75638 -24.650614 2.3509528e-038
-79.812737 332.87698 -48.129368 2.3509528e-038
-73.510612 326.98254 -27.806009 2.3509528e-038
-76.182228 338.86621 -53.066914 2.3509528e-038
-69.118164 329.34784 -31.457771 2.3509528e-038
-73.348511 349.50543 -60.42664 2.3509886e-038
-64.134705 329.04376 -35.051979 2.3509528e-038
-68.477242 351.32321 -67.030327 2.3509886e-038
-54.860859 304.8486 61.913925 9.1476764e-041
-55.562069 308.74506 42.705452 9.1476764e-041
-59.220669 329.07501 -38.364651 2.3509528e-038
-62.511131 347.35934 -72.014015 2.3509886e-038
-49.862309 302.17816 61.202484 9.1476764e-041
-52.311691 317.02206 27.260174 9.1476764e-041
-54.517384 330.3891 -40.594536 2.3509886e-038
-57.156246 346.38129 -77.208572 2.3509886e-038
-45.200954 301.22272 56.249443 9.1476764e-041
-47.748039 318.19669 14.739151 9.1476764e-041
-49.836189 332.11227 -40.858837 2.3509886e-038
-51.442802 342.81888 -81.865105 2.3509886e-038
-40.728973 301.45743 45.993378 9.1476764e-041
-44.614544 330.21661 1.7250923 2.3509886e-038
-45.254879 334.95612 -37.813404 2.3509886e-038
-46.319103 342.83304 -86.719383 2.3509886e-038
-36.653191 305.04788 37.225166 9.1476764e-041
-40.097729 333.71518 -16.215487 2.3509886e-038
-40.130039 333.98407 -27.660908 2.3509886e-038
-41.363861 344.25262 -91.136604 2.3509886e-038
-32.300262 307.02469 28.486488 9.1476764e-041
-36.287247 344.9223 -94.640991 2.3509886e-038
-28.747276 318.51959 20.624935 9.1476764e-041
-31.39501 347.85648 -98.263168 2.3509886e-038
-25.038198 332.50632 17.324291 2.3509886e-038
-26.216801 348.15814 -100.71583 2.3509886e-038
-19.527777 323.57504 6.6251783 2.3509886e-038
-21.044907 348.71387 -102.84013 2.3509886e-038
-14.579178 321.13635 78.24118 2.3418409e-038
-14.856624 327.24765 31.38854 2.3509886e-038
-14.915788 328.55087 10.03451 2.3509886e-038
-15.903625 350.31003 -105.08315 2.3509886e-038
-9.6010275 315.3327 79.449364 2.3418409e-038
-10.700724 351.45074 -107.14165 2.3509886e-038
-4.866785 314.06839 75.378143 2.3418409e-038
-5.4795756 353.61362 -109.46552 2.3509886e-038
-0.17194742 315.73755 57.66106 2.3418409e-038
-0.19641466 360.66541 -113.79247 2.3509886e-038
4.5680127 317.07422 13.115808 2.3418052e-038
5.3309999 370.03455 -120.05688 2.3509886e-038
9.3480101 318.41318 11.647234 2.3418052e-038
10.98445 374.15381 -125.13372 2.3509886e-038
14.099828 318.21204 27.173609 2.3418409e-038
16.569576 373.95056 -128.53151 2.3509886e-038
19.168194 323.45438 60.424866 2.3418052e-038
22.147835 373.73441 -131.22356 2.3509886e-038
23.708548 319.46951 67.778702 2.3418052e-038
27.700993 373.26718 -132.62828 2.3509886e-038
28.179739 316.04535 66.407104 2.3418052e-038
33.254326 372.95856 -132.77467 2.3509886e-038
33.023861 317.18655 -4.8891301 2.3509886e-038
38.832207 372.97437 -131.68724 2.3509886e-038
37.839592 317.80252 -4.6260781 2.3509886e-038
44.45887 373.39572 -128.18033 2.3509886e-038
42.374161 316.18326 -0.61332232 3.5733111e-043
43.779408 326.66879 -63.780674 2.3509886e-038
51.072495 381.08762 -108.27396 2.3509886e-038
50.991623 380.48419 -119.05374 2.3509886e-038
46.644608 313.11609 5.2833676 3.5733111e-043
48.242081 323.83957 -35.236378 2.3509886e-038
50.827572 310.07452 11.264624 3.5733111e-043
51.727165 315.56253 -15.638494 3.5733111e-043
55.404354 309.74341 17.29213 3.5733111e-043
56.085312 313.55035 -7.4002056 3.5733111e-043
60.168037 310.42743 23.363758 3.5733111e-043
59.84663 308.76917 0.55975389 3.5733111e-043
64.686241 309.83777 27.553637 3.5733111e-043
64.487053 308.8837 9.1462908 3.5733111e-043
69.310509 309.80103 26.90225 3.5733111e-043
69.856277 312.24045 19.64851 3.5733111e-043
