# .PCD v0.7 - Point Cloud Data file format
VERSION 0.7
FIELDS x y z rgb
SIZE 4 4 4 4
TYPE F F F F
COUNT 1 1 1 1
WIDTH 779
HEIGHT 1
VIEWPOINT 0 0 0 1 0 0 0
POINTS 779
DATA ascii
-42.63348 292.00775 78.390594 2.3418052e-038
-10.727896 284.72775 68.390335 9.1476764e-041
-91.574684 294.60269 62.437283 3.5733111e-043
-119.86192 299.41086 -14.101402 2.3509528e-038
32.952267 279.86624 26.361814 2.3418409e-038
-47.545963 291.32233 79.703064 2.3418052e-038
-45.339828 291.08496 79.63813 2.3418052e-038
-40.783058 292.43835 80.0084 2.3418052e-038
-37.687149 295.17133 80.756111 2.3418052e-038
-48.703548 292.14661 75.165764 2.3418052e-038
-45.371731 291.28976 74.945313 2.3418052e-038
-40.749832 292.20007 75.179527 2.3418052e-038
-36.710514 295.53903 76.038589 2.3418052e-038
-13.921147 284.10797 73.097527 9.1476764e-041
-11.811518 283.64487 72.978371 9.1476764e-041
-8.3553028 285.01807 73.331673 9.1476764e-041
-49.093994 292.96408 70.59996 2.3418052e-038
-45.388733 291.39893 70.222778 2.3418052e-038
-40.673565 291.65323 70.284058 2.3418052e-038
-36.278217 294.49988 70.970062 2.3418052e-038
-16.624535 287.02811 69.169479 9.1476764e-041
-11.853515 284.65335 68.597206 9.1476764e-041
-7.2668724 286.7851 69.110916 9.1476764e-041
-5.9735947 288.05923 69.417969 9.1476764e-041
-96.533913 296.87637 66.70285 3.5733111e-043
-94.174286 295.4122 66.373878 3.5733111e-043
-88.92038 293.96463 66.04863 3.5733111e-043
-88.731339 293.98343 66.052856 3.5733111e-043
-49.284821 293.83627 66.019791 2.3418052e-038
-45.426819 291.64343 65.527107 2.3418052e-038
-40.666409 291.6019 65.517769 2.3418052e-038
-36.222782 294.1214 66.083847 2.3418052e-038
-36.06995 294.31723 66.127853 2.3418052e-038
-17.565435 289.10056 64.955765 9.1476764e-041
-16.70159 288.23331 64.76091 9.1476764e-041
-11.91398 286.10544 64.282806 9.1476764e-041
-7.323153 289.00616 64.934555 9.1476764e-041
-5.6530781 291.02734 65.388672 9.1476764e-041
-97.631035 297.33362 61.958214 3.5733111e-043
-94.158119 295.36148 61.54726 3.5733111e-043
-88.765114 293.45132 61.149223 3.5733111e-043
-85.100761 294.40894 61.34877 3.5733111e-043
-49.53043 295.18646 61.510788 2.3418052e-038
-45.566257 292.53864 60.959038 2.3418052e-038
-40.779831 292.41519 60.933315 2.3418052e-038
-36.350746 295.1604 61.50536 2.3418052e-038
-35.854195 295.86032 61.651207 2.3418052e-038
-18.269754 291.44995 60.732178 9.1476764e-041
-16.786608 289.70053 60.367634 9.1476764e-041
-11.977613 287.63351 59.936909 9.1476764e-041
-7.3933001 291.77451 60.799809 9.1476764e-041
-6.1456089 293.77637 61.216949 9.1476764e-041
-96.986023 296.58145 56.966377 3.5733111e-043
-94.022018 294.93457 56.650051 3.5733111e-043
-88.68055 293.17175 56.311455 3.5733111e-043
-84.303871 294.57938 56.581829 3.5733111e-043
-82.922607 296.05383 56.865032 3.5733111e-043
-49.866604 296.54178 56.958755 2.3418052e-038
-45.719318 293.5213 56.378597 2.3418052e-038
-40.879963 293.13321 56.30405 2.3418052e-038
-36.453693 295.99634 56.853992 2.3418052e-038
-35.33646 297.4346 57.130249 2.3418052e-038
-19.035398 291.28491 55.949036 9.1476764e-041
-16.741274 288.91818 55.494438 9.1476764e-041
-11.980985 287.71448 55.263241 9.1476764e-041
-7.4166365 292.6955 56.219975 9.1476764e-041
-6.7934542 293.86035 56.443718 9.1476764e-041
-95.575386 295.37463 51.919144 3.5733111e-043
-93.909531 294.58173 51.77977 3.5733111e-043
-88.738564 293.36356 51.565647 3.5733111e-043
-84.321579 294.6413 51.790241 3.5733111e-043
-81.074524 297.60672 52.311485 3.5733111e-043
-50.390598 298.19174 52.414322 2.3418052e-038
-45.851563 294.37033 51.742615 2.3418052e-038
-40.917168 293.39999 51.572056 2.3418052e-038
-36.422173 295.74039 51.983437 2.3418052e-038
-34.589973 297.28445 52.254841 2.3418052e-038
-19.836302 289.68585 50.919205 9.1476764e-041
-16.643257 287.22662 50.486935 9.1476764e-041
-11.945104 286.85281 50.42123 9.1476764e-041
-7.3943949 291.81772 51.29393 9.1476764e-041
-7.1698685 292.26111 51.371864 9.1476764e-041
-94.361977 295.76944 47.166668 3.5733111e-043
-94.274323 295.72601 47.15974 3.5733111e-043
-89.018417 294.28876 46.930542 3.5733111e-043
-84.34935 294.73831 47.002235 3.5733111e-043
-79.919289 296.12781 47.223812 3.5733111e-043
-78.793159 296.8421 47.337727 3.5733111e-043
-50.990356 299.83829 47.815529 2.3418052e-038
-45.979347 295.19073 47.074379 2.3418052e-038
-40.932888 293.5127 46.806782 2.3418052e-038
-36.311531 294.84201 47.018768 2.3418052e-038
-33.994465 295.82782 47.175972 2.3509886e-038
-20.86128 288.74905 46.047119 9.1476764e-041
-16.578642 286.11151 45.626507 9.1476764e-041
-11.909835 286.00589 45.609665 9.1476764e-041
-7.3534613 290.2023 46.27887 9.1476764e-041
-7.2556248 290.39575 46.309719 9.1476764e-041
-93.166519 296.70129 42.47821 3.5733111e-043
-89.316498 295.27417 42.273891 3.5733111e-043
-84.371536 294.81583 42.208275 3.5733111e-043
-79.598244 294.9382 42.225792 3.5733111e-043
-76.464539 295.94034 42.369267 2.3509886e-038
-51.182415 300.08942 42.96328 2.3418052e-038
-46.023972 295.4772 42.302963 2.3418052e-038
-40.944462 293.5957 42.033592 2.3418052e-038
-36.257751 294.40533 42.149502 2.3509886e-038
-33.74654 295.10165 42.249191 2.3509886e-038
-22.290018 289.45422 41.440662 9.1476764e-041
-21.43774 288.7334 41.33746 9.1476764e-041
-16.570648 285.97354 40.942337 9.1476764e-041
-11.902114 285.82047 40.920422 9.1476764e-041
-7.325314 289.09146 41.388725 9.1476764e-041
-7.2782025 289.17844 41.401176 9.1476764e-041
-91.759315 297.35229 37.72374 3.5733111e-043
-89.656143 296.39703 37.602551 3.5733111e-043
-84.451462 295.09512 37.437382 3.5733111e-043
-79.455414 294.40897 37.350334 3.5733111e-043
-74.818161 295.04959 37.431606 2.3509886e-038
-73.995972 295.47583 37.48568 2.3509886e-038
-50.825886 299.58347 38.006798 2.3418052e-038
-46.026562 295.49384 37.487965 2.3418052e-038
-40.971153 293.78708 37.271439 2.3418052e-038
-36.313801 294.86044 37.407612 2.3418052e-038
-33.787422 295.73981 37.519173 2.3509886e-038
-23.810123 291.46964 36.977432 2.3509886e-038
-21.483368 289.34793 36.708263 9.1476764e-041
-16.603254 286.53625 36.351559 9.1476764e-041
-11.923329 286.32993 36.325382 9.1476764e-041
-7.4231191 288.93518 36.655899 9.1476764e-041
-90.052597 298.16626 32.966057 3.5733111e-043
-84.691811 295.93494 32.719357 3.5733111e-043
-79.541061 294.72638 32.585732 3.5733111e-043
-74.813835 295.0325 32.619579 3.5733111e-043
-71.820526 296.79474 32.814419 2.3509886e-038
-50.706387 300.93121 33.271755 2.3418052e-038
-46.209118 296.66586 32.800171 2.3418052e-038
-41.090809 294.64511 32.576748 2.3418052e-038
-36.449677 295.96375 32.722542 2.3418052e-038
-33.93565 297.06824 32.844654 2.3509886e-038
-25.019791 293.60513 32.461765 2.3509886e-038
-21.549591 290.23987 32.089695 9.1476764e-041
-16.645046 287.25751 31.759954 9.1476764e-041
-11.956891 287.13589 31.74651 9.1476764e-041
-7.8477187 289.5524 32.013683 9.1476764e-041
32.02457 280.43011 31.005102 2.3418409e-038
33.978554 279.92151 30.948868 2.3418409e-038
36.98465 279.9548 30.952549 2.3418409e-038
-87.780396 298.22662 28.110802 3.5733111e-043
-84.96936 296.90479 27.986204 3.5733111e-043
-79.755272 295.52008 27.85568 3.5733111e-043
-75.027824 295.87637 27.889269 3.5733111e-043
-70.927307 298.92392 28.176527 2.3509886e-038
-70.166054 300.3129 28.307455 2.3509886e-038
-51.139156 304.37408 28.690262 2.3418052e-038
-46.611446 299.24884 28.207155 2.3418052e-038
-41.322056 296.30328 27.929506 2.3418052e-038
-36.628922 297.41916 28.034691 2.3509886e-038
-34.097366 298.62778 28.148611 2.3509886e-038
-25.758232 295.55493 27.858969 2.3509886e-038
-21.629318 291.31369 27.459187 9.1476764e-041
-16.690565 288.04306 27.1509 9.1476764e-041
-12.000964 288.19427 27.165152 9.1476764e-041
-8.6686802 290.70242 27.401571 9.1476764e-041
26.347107 280.94904 26.482218 2.3418409e-038
29.425348 280.01941 26.39459 2.3418409e-038
33.981594 279.94653 26.387724 2.3418409e-038
38.297077 281.56577 26.54035 2.3418409e-038
-85.465714 297.90353 23.223696 3.5733111e-043
-85.222878 297.79065 23.214895 3.5733111e-043
-79.981071 296.35675 23.103113 3.5733111e-043
-75.234192 296.69019 23.129107 3.5733111e-043
-70.951111 299.02423 23.311062 3.5733111e-043
-68.300949 302.66351 23.594769 2.3509886e-038
-51.833534 307.96674 24.008194 2.3509886e-038
-46.978989 301.60846 23.512522 2.3418052e-038
-41.502357 297.59613 23.199732 2.3509886e-038
-36.735573 298.28513 23.253445 2.3509886e-038
-34.043129 299.55209 23.352211 2.3509886e-038
-26.405884 297.14008 23.164177 2.3509886e-038
-21.716961 292.49408 22.801992 9.1476764e-041
-16.77047 289.42203 22.562502 9.1476764e-041
-12.07976 290.08649 22.6143 9.1476764e-041
-9.7683563 292.00781 22.764082 9.1476764e-041
22.603456 281.40488 21.937508 2.3418409e-038
24.880341 280.24561 21.847134 2.3418409e-038
29.406399 279.83908 21.815443 2.3418409e-038
34.16095 281.4241 21.939007 2.3418409e-038
37.098289 283.48965 22.100031 2.3418409e-038
-83.707336 298.83984 18.424751 3.5733111e-043
-80.403038 297.92026 18.368053 3.5733111e-043
-75.536133 297.88092 18.365629 3.5733111e-043
-70.947121 299.00739 18.435081 3.5733111e-043
-66.575104 301.28207 18.575325 2.3509886e-038
-65.49324 302.27988 18.636845 2.3509886e-038
-52.863674 309.5625 19.085848 2.3509886e-038
-47.109768 302.44809 18.647215 2.3509886e-038
-41.591221 298.23334 18.387358 2.3509886e-038
-36.789619 298.724 18.417608 2.3509886e-038
-33.297314 300.14703 18.505344 2.3509886e-038
-27.864511 298.82886 18.424074 2.3509886e-038
-27.002146 298.20056 18.385336 2.3509886e-038
-21.807306 293.71088 18.10853 2.3509886e-038
-16.898542 291.63229 17.980375 9.1476764e-041
-12.231118 293.72125 18.109169 9.1476764e-041
-10.943574 295.12814 18.195908 9.1476764e-041
18.935411 283.11041 17.454966 2.3418409e-038
20.433548 281.92899 17.382124 2.3418409e-038
24.864502 280.0672 17.267338 2.3418409e-038
29.486116 280.59769 17.300045 2.3418409e-038
34.471996 283.98657 17.508984 2.3418409e-038
34.727783 284.27246 17.526609 2.3418409e-038
-82.303658 300.61258 13.633231 3.5733111e-043
-80.991264 300.09982 13.609978 3.5733111e-043
-75.8554 299.13998 13.566447 3.5733111e-043
-70.914635 298.87048 13.554225 3.5733111e-043
-66.042465 298.87167 13.554278 2.3509886e-038
-61.720631 301.56189 13.676285 2.3509886e-038
-60.885883 302.95477 13.739453 2.3509886e-038
-55.67202 307.72107 13.955613 2.3509886e-038
-52.7178 306.38434 13.894989 2.3509886e-038
-47.01862 301.86292 13.689937 2.3509886e-038
-41.660446 298.72971 13.547841 2.3509886e-038
-36.793369 298.75446 13.548963 2.3509886e-038
-32.004269 299.51645 13.583521 2.3509886e-038
-26.972202 297.86987 13.508845 2.3509886e-038
-21.878759 294.67325 13.363873 2.3509886e-038
-17.032509 293.94427 13.330814 2.3509886e-038
-12.417491 298.19684 13.523675 2.3509886e-038
-11.804029 299.31921 13.574575 2.3509886e-038
14.380843 284.38702 12.897379 2.3418409e-038
15.918087 283.36661 12.851101 2.3418409e-038
20.382917 281.23038 12.754221 2.3418409e-038
24.91259 280.60886 12.726033 2.3418409e-038
29.666254 282.31192 12.803269 2.3418409e-038
31.438463 283.85883 12.873425 2.3418409e-038
-81.145844 302.43402 8.7853146 3.5733111e-043
-76.224571 300.59583 8.7319174 3.5733111e-043
-71.024567 299.3338 8.6952581 3.5733111e-043
-65.953117 298.46735 8.6700878 2.3509886e-038
-61.222172 299.12646 8.6892347 2.3509886e-038
-56.816284 301.62531 8.7618237 2.3509886e-038
-52.040779 302.44962 8.7857685 2.3509886e-038
-46.869816 300.90759 8.7409735 2.3509886e-038
-41.746098 299.3439 8.6955509 2.3509886e-038
-36.791 298.7352 8.6778688 2.3509886e-038
-31.872702 298.28516 8.6647959 2.3509886e-038
-26.898836 297.05966 8.6291962 2.3509886e-038
-21.927853 295.33447 8.5790815 2.3509886e-038
-17.111488 295.30728 8.5782919 2.3509886e-038
-12.466129 299.36487 8.6961603 2.3509886e-038
-11.707674 300.60471 8.7321758 2.3509886e-038
9.2260275 287.76535 8.35921 2.3418409e-038
11.391748 285.70767 8.2994366 2.3418409e-038
15.877573 282.64542 8.2104807 2.3418409e-038
20.393274 281.37329 8.1735277 2.3418409e-038
25.025883 281.88495 8.1883907 2.3418409e-038
27.641928 283.31079 8.2298107 2.3418409e-038
-80.334259 304.45581 3.8805635 3.5733111e-043
-76.720741 302.55252 3.8563042 2.3509886e-038
-71.296432 300.47955 3.8298824 2.3509886e-038
-66.122658 299.23456 3.814014 2.3509886e-038
-61.210152 299.06775 3.8118875 2.3509886e-038
-56.50333 299.9639 3.8233099 2.3509886e-038
-51.720131 300.58606 3.8312402 2.3509886e-038
-46.780548 300.33447 3.8280334 2.3509886e-038
-41.819336 299.86905 3.8221011 2.3509886e-038
-36.837997 299.11682 3.8125131 2.3509886e-038
-31.845428 298.02991 3.7986593 2.3509886e-038
-26.889671 296.9584 3.7850022 2.3509886e-038
-21.971846 295.927 3.7718558 2.3509886e-038
-17.116888 295.40048 3.7651448 2.3509886e-038
-12.352923 296.64633 3.7810245 2.3509886e-038
-9.8913727 297.96848 3.7978764 2.3509886e-038
3.2703793 291.39554 3.7140987 2.3509886e-038
6.814003 289.10529 3.6849072 2.3418409e-038
11.402281 285.97183 3.644968 2.3418409e-038
15.922034 283.43689 3.6126583 2.3418409e-038
20.481449 282.58987 3.6018624 2.3418409e-038
24.135435 283.73694 3.6164827 2.3418409e-038
-79.758224 306.43781 -1.0899688 2.3509886e-038
-77.254509 304.65747 -1.0836364 2.3509886e-038
-71.538109 301.49811 -1.072399 2.3509886e-038
-66.260719 299.85934 -1.0665699 2.3509886e-038
-61.305393 299.53308 -1.0654094 2.3509886e-038
-56.505882 299.97745 -1.0669901 2.3509886e-038
-51.665592 300.26913 -1.0680276 2.3509886e-038
-46.767052 300.24783 -1.0679518 2.3509886e-038
-41.857487 300.14264 -1.0675776 2.3509886e-038
-36.905739 299.66684 -1.0658853 2.3509886e-038
-31.920839 298.73566 -1.0625731 2.3509886e-038
-26.954641 297.67593 -1.0588038 2.3509886e-038
-22.014135 296.49658 -1.0546089 2.3509886e-038
-17.100489 295.11743 -1.0497035 2.3509886e-038
-12.251389 294.20801 -1.0464687 2.3509886e-038
-7.4483733 293.94797 -1.0455438 2.3509886e-038
-2.6478899 293.02734 -1.0422692 2.3509886e-038
2.1174824 291.4028 -1.0364908 2.3418409e-038
6.8258424 289.6076 -1.0301056 2.3418409e-038
11.462406 287.4798 -1.0225371 2.3418409e-038
16.045897 285.64182 -1.0159996 2.3418409e-038
20.693573 285.51663 -1.0155543 2.3418409e-038
20.859249 285.57605 -1.0157657 2.3418409e-038
-79.193665 307.63269 -6.1094933 2.3509886e-038
-77.680733 306.33829 -6.083787 2.3509886e-038
-71.725685 302.28867 -6.0033622 2.3509886e-038
-66.37397 300.37186 -5.9652953 2.3509886e-038
-61.41655 300.07617 -5.9594231 2.3509886e-038
-56.587967 300.41321 -5.9661169 2.3509886e-038
-51.71756 300.57114 -5.9692535 2.3509886e-038
-46.807316 300.50632 -5.9679656 2.3509886e-038
-41.877411 300.28549 -5.9635801 2.3509886e-038
-36.932095 299.88086 -5.9555445 2.3509886e-038
-31.976551 299.25705 -5.9431553 2.3509886e-038
-27.016394 298.35791 -5.9252987 2.3509886e-038
-22.061441 297.1337 -5.9009862 2.3509886e-038
-17.13685 295.74496 -5.8734064 2.3509886e-038
-12.26476 294.52914 -5.8492608 2.3509886e-038
-7.44032 293.63016 -5.8314075 2.3509886e-038
-2.64727 292.95877 -5.8180737 2.3418409e-038
2.1243081 292.34213 -5.8058271 2.3418409e-038
6.8680444 291.39816 -5.7870808 2.3418409e-038
11.562637 289.99359 -5.7591863 2.3418409e-038
16.247217 289.22565 -5.7439346 2.3418409e-038
17.58585 289.453 -5.7484503 2.3418409e-038
-128.85498 302.43546 -10.936823 2.3509528e-038
-125.33499 300.84763 -10.879403 2.3509528e-038
-120.0706 299.94897 -10.846906 2.3509528e-038
-115.84537 301.68015 -10.909509 2.3509528e-038
-114.26671 303.15823 -10.96296 2.3509528e-038
-78.695244 308.18951 -11.144904 2.3509886e-038
-77.980949 307.52222 -11.120773 2.3509886e-038
-71.937408 303.181 -10.963783 2.3509886e-038
-66.553871 301.186 -10.89164 2.3509886e-038
-61.552128 300.73862 -10.875461 2.3509886e-038
-56.657009 300.77975 -10.876949 2.3509886e-038
-51.7617 300.82767 -10.878681 2.3509886e-038
-46.842995 300.73541 -10.875345 2.3509886e-038
-41.892281 300.39209 -10.862929 2.3509886e-038
-36.94561 299.99063 -10.848413 2.3509886e-038
-32.018959 299.65393 -10.836235 2.3509886e-038
-27.086205 299.12885 -10.817248 2.3509886e-038
-22.144714 298.25528 -10.785657 2.3509886e-038
-17.229813 297.3493 -10.752895 2.3509886e-038
-12.344207 296.43698 -10.719904 2.3509886e-038
-7.4823895 295.29041 -10.67844 2.3509886e-038
-2.6588855 294.24417 -10.640605 2.3418409e-038
2.134706 293.77304 -10.623569 2.3418409e-038
6.9177613 293.50754 -10.613968 2.3418409e-038
11.679152 292.91583 -10.592569 2.3418409e-038
14.268534 293.31409 -10.606972 2.3418409e-038
-127.04931 298.8768 -15.680661 2.3509528e-038
-124.11524 297.91977 -15.630452 2.3509528e-038
-119.32962 298.09793 -15.639799 2.3509528e-038
-115.40935 300.54468 -15.768168 2.3509528e-038
-111.75336 303.92715 -15.94563 2.3509528e-038
-108.87641 306.21863 -16.065853 2.3509528e-038
-78.544662 308.73276 -16.197758 2.3509886e-038
-78.202972 308.39774 -16.180182 2.3509886e-038
-72.147087 304.06467 -15.952846 2.3509886e-038
-66.74295 302.04166 -15.846707 2.3509886e-038
-61.687138 301.39825 -15.81295 2.3509886e-038
-56.715065 301.08795 -15.796671 2.3509886e-038
-51.758415 300.80859 -15.782014 2.3509886e-038
-46.830109 300.65268 -15.773834 2.3509886e-038
-41.905956 300.49017 -15.765307 2.3509886e-038
-36.978741 300.25961 -15.753213 2.3509886e-038
-32.053581 299.97797 -15.738435 2.3509886e-038
-27.123386 299.53949 -15.715429 2.3509886e-038
-22.199018 298.98663 -15.686424 2.3509886e-038
-17.306421 298.67139 -15.669886 2.3509886e-038
-12.416108 298.16367 -15.643247 2.3509886e-038
-7.5211983 296.82199 -15.572856 2.3509886e-038
-2.66857 295.31592 -15.49384 2.3418409e-038
2.1419706 294.7728 -15.465345 2.3418409e-038
6.9576283 295.19904 -15.487707 2.3418409e-038
11.201266 296.2793 -15.544385 2.3418409e-038
-124.20956 297.66718 -20.469997 2.3509528e-038
-124.00012 297.64346 -20.468365 2.3509528e-038
-119.26617 297.93942 -20.488718 2.3509528e-038
-115.16038 299.89633 -20.623291 2.3509528e-038
-111.38942 302.93738 -20.83242 2.3509528e-038
-107.41071 305.6694 -21.020294 2.3509528e-038
-104.20963 307.45795 -21.14329 2.3509528e-038
-79.152901 309.97485 -21.316372 2.3509528e-038
-78.408134 309.20685 -21.263559 2.3509886e-038
-72.235069 304.43549 -20.93544 2.3509886e-038
-66.78447 302.22958 -20.783745 2.3509886e-038
-61.733032 301.62247 -20.741995 2.3509886e-038
-56.763882 301.34711 -20.723059 2.3509886e-038
-51.779991 300.93399 -20.694649 2.3509886e-038
-46.848015 300.76764 -20.683208 2.3509886e-038
-41.965168 300.91476 -20.693329 2.3509886e-038
-37.059616 300.91632 -20.693434 2.3509886e-038
-32.116554 300.56729 -20.669432 2.3509886e-038
-27.166008 300.01016 -20.631119 2.3509886e-038
-22.234259 299.46127 -20.593372 2.3509886e-038
-17.340363 299.25714 -20.579334 2.3509886e-038
-12.44856 298.94296 -20.55773 2.3509886e-038
-7.5420113 297.64337 -20.468359 2.3509886e-038
-2.6762056 296.16092 -20.366413 2.3509886e-038
2.1496477 295.82928 -20.343609 2.3418409e-038
6.9974632 296.88916 -20.416494 2.3418409e-038
8.7604694 297.94299 -20.488964 2.3418409e-038
-121.42037 299.40036 -25.470261 2.3509528e-038
-119.75729 299.16629 -25.450348 2.3509528e-038
-115.12256 299.79782 -25.504072 2.3509528e-038
-111.06982 302.06818 -25.697214 2.3509528e-038
-107.04962 304.64182 -25.916155 2.3509528e-038
-102.68284 306.43152 -26.068409 2.3509528e-038
-99.079559 307.8721 -26.190958 2.3509528e-038
-80.959297 311.97769 -26.540226 2.3509528e-038
-78.507683 309.5994 -26.337902 2.3509528e-038
-72.28508 304.64621 -25.916533 2.3509886e-038
-66.753365 302.08881 -25.698969 2.3509886e-038
-61.675934 301.34351 -25.635565 2.3509886e-038
-56.751675 301.28232 -25.63036 2.3509886e-038
-51.816837 301.1481 -25.618944 2.3509886e-038
-46.909653 301.16336 -25.620239 2.3509886e-038
-42.05719 301.57462 -25.655228 2.3509886e-038
-37.165085 301.77271 -25.672077 2.3509886e-038
-32.212399 301.46426 -25.64584 2.3509886e-038
-27.245253 300.88531 -25.596586 2.3509886e-038
-22.2873 300.17566 -25.536217 2.3509886e-038
-17.366274 299.70432 -25.496119 2.3509886e-038
-12.464196 299.31845 -25.463295 2.3509886e-038
-7.557251 298.24481 -25.371956 2.3509886e-038
-2.6853678 297.17484 -25.280933 2.3509886e-038
2.1592071 297.14484 -25.278379 2.3509886e-038
7.0385709 298.63327 -25.405005 2.3509886e-038
7.1205311 298.6882 -25.409676 2.3509886e-038
-117.7309 301.20578 -30.534336 2.3509528e-038
-115.57692 300.98108 -30.511557 2.3509528e-038
-110.97328 301.80563 -30.595146 2.3509528e-038
-106.71449 303.68811 -30.78598 2.3509528e-038
-102.41511 305.63257 -30.983095 2.3509528e-038
-97.885117 307.05258 -31.127048 2.3509528e-038
-93.466415 308.99353 -31.323809 2.3509528e-038
-92.413902 309.93408 -31.419155 2.3509528e-038
-85.253937 313.16794 -31.746983 2.3509528e-038
-84.439011 312.87488 -31.717274 2.3509528e-038
-78.418823 309.24899 -31.349703 2.3509528e-038
-72.423958 305.23154 -30.942442 2.3509528e-038
-66.872253 302.62683 -30.678391 2.3509886e-038
-61.694763 301.43549 -30.557623 2.3509886e-038
-56.742985 301.23618 -30.537418 2.3509886e-038
-51.856266 301.37726 -30.55172 2.3509886e-038
-46.987442 301.66275 -30.58066 2.3509886e-038
-42.145493 302.20779 -30.635914 2.3509886e-038
-37.256985 302.51889 -30.667452 2.3509886e-038
-32.307434 302.35367 -30.650703 2.3509886e-038
-27.334877 301.87509 -30.602184 2.3509886e-038
-22.360229 301.15793 -30.529484 2.3509886e-038
-17.417009 300.5799 -30.470888 2.3509886e-038
-12.495674 300.07437 -30.41964 2.3509886e-038
-7.578898 299.09909 -30.320772 2.3509886e-038
-2.6951871 298.26147 -30.235861 2.3509886e-038
2.1677327 298.31812 -30.241604 2.3509886e-038
6.262104 299.54065 -30.365534 2.3509886e-038
-113.46561 303.29248 -35.690399 2.3509886e-038
-111.42459 303.03302 -35.65987 2.3509528e-038
-106.72299 303.71231 -35.739803 2.3509528e-038
-102.33382 305.38998 -35.937225 2.3509528e-038
-97.74781 306.62189 -36.082188 2.3509528e-038
-93.024734 307.53336 -36.189449 2.3509528e-038
-88.497765 309.23395 -36.389568 2.3509528e-038
-83.64312 309.92581 -36.470985 2.3509528e-038
-78.222443 308.47458 -36.300209 2.3509528e-038
-72.614029 306.03259 -36.012848 2.3509528e-038
-67.158752 303.92337 -35.764637 2.3509886e-038
-61.903778 302.45673 -35.592052 2.3509886e-038
-56.850338 301.80609 -35.515488 2.3509886e-038
-51.933617 301.82681 -35.517925 2.3509886e-038
-47.073425 302.21478 -35.563576 2.3509886e-038
-42.230076 302.8143 -35.634129 2.3509886e-038
-37.345001 303.23355 -35.683464 2.3509886e-038
-32.400066 303.22061 -35.681942 2.3509886e-038
-27.422525 302.84305 -35.637508 2.3509886e-038
-22.446198 302.31577 -35.575466 2.3509886e-038
-17.493608 301.90186 -35.526752 2.3509886e-038
-12.543707 301.22784 -35.447437 2.3509886e-038
-7.604239 300.09915 -35.314621 2.3509886e-038
-2.7033079 299.16016 -35.204121 2.3509886e-038
2.1734884 299.11017 -35.198238 2.3509886e-038
5.9315348 300.23093 -35.330124 2.3509886e-038
-109.29037 306.07559 -41.007786 2.3509528e-038
-107.50759 305.9451 -40.990303 2.3509528e-038
-102.68758 306.44565 -41.057365 2.3509528e-038
-97.791794 306.75983 -41.099461 2.3509528e-038
-92.845055 306.93933 -41.123508 2.3509528e-038
-88.063904 307.71793 -41.227825 2.3509528e-038
-83.181557 308.21561 -41.294502 2.3509528e-038
-78.025513 307.69794 -41.225151 2.3509528e-038
-72.710602 306.43961 -41.056557 2.3509528e-038
-67.404427 305.03516 -40.868385 2.3509886e-038
-62.182339 303.81775 -40.705284 2.3509886e-038
-57.071922 302.98245 -40.593372 2.3509886e-038
-52.074871 302.64777 -40.548531 2.3509886e-038
-47.171581 302.84494 -40.574947 2.3509886e-038
-42.320068 303.45963 -40.657299 2.3509886e-038
-37.445732 304.05148 -40.736595 2.3509886e-038
-32.507755 304.22839 -40.7603 2.3509886e-038
-27.52706 303.9975 -40.729362 2.3509886e-038
-22.545479 303.65295 -40.683201 2.3509886e-038
-17.572762 303.26782 -40.631603 2.3509886e-038
-12.586682 302.25986 -40.496559 2.3509886e-038
-7.6249652 300.91711 -40.316658 2.3509886e-038
-2.7094517 299.84006 -40.172352 2.3509886e-038
2.1783428 299.77826 -40.164074 2.3509886e-038
5.8787837 301.15173 -40.348091 2.3509886e-038
-106.15982 309.99454 -46.586613 2.3509886e-038
-103.62979 309.25748 -46.475845 2.3509886e-038
-98.121468 307.79398 -46.255905 2.3509528e-038
-92.836304 306.91043 -46.123123 2.3509528e-038
-87.851196 306.97467 -46.132782 2.3509528e-038
-82.867676 307.05255 -46.144485 2.3509528e-038
-77.771904 306.69781 -46.091171 2.3509528e-038
-72.613045 306.02844 -45.990578 2.3509528e-038
-67.458328 305.27908 -45.877964 2.3509886e-038
-62.350407 304.63892 -45.781757 2.3509886e-038
-57.283348 304.10486 -45.7015 2.3509886e-038
-52.241322 303.61511 -45.627899 2.3509886e-038
-47.286034 303.57974 -45.622585 2.3509886e-038
-42.414516 304.13684 -45.706306 2.3509886e-038
-37.543911 304.84866 -45.813282 2.3509886e-038
-32.617973 305.25989 -45.87508 2.3509886e-038
-27.643482 305.2832 -45.878582 2.3509886e-038
-22.643074 304.96741 -45.831123 2.3509886e-038
-17.627922 304.21982 -45.718773 2.3509886e-038
-12.617209 302.99295 -45.534397 2.3509886e-038
-7.6421833 301.59665 -45.324562 2.3509886e-038
-2.714952 300.44873 -45.15205 2.3509886e-038
2.1850491 300.70114 -45.18998 2.3509886e-038
5.9067283 302.9881 -45.533672 2.3509886e-038
-103.01019 311.77823 -51.937534 2.3509886e-038
-98.593163 309.27362 -51.520309 2.3509886e-038
-92.881493 307.05978 -51.151516 2.3509886e-038
-87.641747 306.2428 -51.015419 2.3509528e-038
-82.510529 305.72925 -50.929867 2.3509528e-038
-77.391846 305.19907 -50.841549 2.3509886e-038
-72.303543 304.72403 -50.762417 2.3509886e-038
-67.25267 304.34842 -50.699841 2.3509886e-038
-62.250786 304.15219 -50.667156 2.3509886e-038
-57.271622 304.0426 -50.648903 2.3509886e-038
-52.297619 303.94232 -50.632195 2.3509886e-038
-47.39172 304.25827 -50.684826 2.3509886e-038
-42.551952 305.12234 -50.82877 2.3509886e-038
-37.697437 306.09531 -50.990849 2.3509886e-038
-32.773766 306.7179 -51.094566 2.3509886e-038
-27.781706 306.80969 -51.109856 2.3509886e-038
-22.734646 306.20071 -51.008408 2.3509886e-038
-17.665958 304.87625 -50.787773 2.3509886e-038
-12.644087 303.6384 -50.581566 2.3509886e-038
-7.664104 302.4617 -50.385551 2.3509886e-038
-2.7243378 301.48746 -50.223251 2.3509886e-038
2.1949935 302.06967 -50.320236 2.3509886e-038
5.9425907 305.04807 -50.816399 2.3509886e-038
-99.12191 310.89758 -56.859325 2.3509886e-038
-99.107895 310.88828 -56.857624 2.3509886e-038
-93.041695 307.58942 -56.254303 2.3509886e-038
-87.494308 305.7276 -55.913803 2.3509886e-038
-82.146736 304.38126 -55.667568 2.3509886e-038
-76.959663 303.49469 -55.505428 2.3509886e-038
-71.900078 303.02365 -55.419277 2.3509886e-038
-66.898186 302.74414 -55.368164 2.3509886e-038
-61.945587 302.66101 -55.352955 2.3509886e-038
-57.049465 302.86322 -55.389942 2.3509886e-038
-52.199772 303.37366 -55.483292 2.3509886e-038
-47.419315 304.43542 -55.677479 2.3509886e-038
-42.682545 306.05878 -55.974369 2.3509886e-038
-37.888161 307.64392 -56.264271 2.3509886e-038
-32.963356 308.49219 -56.419411 2.3509886e-038
-27.921307 308.35138 -56.393658 2.3509886e-038
-22.815418 307.28857 -56.199287 2.3509886e-038
-17.709074 305.6203 -55.894176 2.3509886e-038
-12.675912 304.40265 -55.671482 2.3509886e-038
-7.6906834 303.51068 -55.50835 2.3509886e-038
-2.7381248 303.01318 -55.417366 2.3509886e-038
2.2112782 304.31073 -55.654675 2.3509886e-038
5.9503236 308.39044 -56.400803 2.3509886e-038
-94.916046 309.98203 -61.745464 2.3509886e-038
-93.49807 309.09814 -61.569408 2.3509886e-038
-87.587112 306.05188 -60.962616 2.3509886e-038
-82.010109 303.87497 -60.528996 2.3509886e-038
-76.720589 302.55191 -60.265453 2.3509886e-038
-71.618042 301.83499 -60.122654 2.3509886e-038
-66.583916 301.32199 -60.020466 2.3509886e-038
-61.618824 301.06445 -59.969173 2.3509886e-038
-56.777714 301.42053 -60.040096 2.3509886e-038
-52.027237 302.37091 -60.229401 2.3509886e-038
-47.347584 303.97488 -60.548901 2.3509886e-038
-42.720112 306.32816 -61.017647 2.3509886e-038
-38.004585 308.58926 -61.46804 2.3509886e-038
-33.09227 309.69867 -61.689022 2.3509886e-038
-28.021542 309.45834 -61.641151 2.3509886e-038
-22.891043 308.30713 -61.411842 2.3509886e-038
-17.771599 306.69934 -61.091583 2.3509886e-038
-12.721326 305.49323 -60.851337 2.3509886e-038
-7.7246628 304.85165 -60.723541 2.3509886e-038
-2.7566383 305.06195 -60.76543 2.3509886e-038
2.2412024 308.42883 -61.436085 2.3509886e-038
5.8666534 315.84857 -62.914021 2.3509886e-038
-90.335014 309.51114 -66.697556 2.3509886e-038
-88.206757 308.21707 -66.418694 2.3509886e-038
-82.357246 305.16122 -65.760178 2.3509886e-038
-76.837936 303.01468 -65.297607 2.3509886e-038
-71.599365 301.75629 -65.026443 2.3509886e-038
-66.488243 300.88901 -64.839546 2.3509886e-038
-61.46669 300.32117 -64.717178 2.3509886e-038
-56.624016 300.60461 -64.778259 2.3509886e-038
-51.922794 301.76392 -65.028084 2.3509886e-038
-47.290325 303.6073 -65.425316 2.3509886e-038
-42.705303 306.22195 -65.988754 2.3509886e-038
-38.031048 308.80414 -66.545197 2.3509886e-038
-33.149597 310.23514 -66.853577 2.3509886e-038
-28.098749 310.311 -66.869911 2.3509886e-038
-22.981291 309.52264 -66.700043 2.3509886e-038
-17.85803 308.19098 -66.413071 2.3509886e-038
-12.785326 307.03015 -66.16291 2.3509886e-038
-7.7711024 306.68439 -66.088409 2.3509886e-038
-2.7820544 307.87463 -66.344894 2.3509886e-038
2.282372 314.09448 -67.685242 2.3509886e-038
5.4595394 323.23743 -69.655479 2.3509886e-038
-86.22522 311.48611 -72.201256 2.3509886e-038
-83.47197 309.29169 -71.692604 2.3509886e-038
-77.415657 305.29297 -70.765709 2.3509886e-038
-71.894409 302.99976 -70.234154 2.3509886e-038
-66.661224 301.67184 -69.926346 2.3509886e-038
-61.563454 300.79395 -69.722855 2.3509886e-038
-56.662983 300.81146 -69.726913 2.3509886e-038
-51.960865 301.98517 -69.998978 2.3509886e-038
-47.356842 304.03436 -70.473969 2.3509886e-038
-42.776726 306.7341 -71.099762 2.3509886e-038
-38.099731 309.36185 -71.708855 2.3509886e-038
-33.233234 311.01788 -72.09272 2.3509886e-038
-28.205368 311.48846 -72.201797 2.3509886e-038
-23.098354 311.09933 -72.111603 2.3509886e-038
-17.963568 310.01233 -71.859642 2.3509886e-038
-12.867919 309.01355 -71.62812 2.3509886e-038
-7.8365264 309.2663 -71.686714 2.3509886e-038
-2.8206837 312.14951 -72.355026 2.3509886e-038
2.3406203 322.1105 -74.663956 2.3509886e-038
4.5943317 329.72348 -76.428604 2.3509886e-038
-81.587814 312.13507 -77.440346 2.3509886e-038
-78.475624 309.47299 -76.779884 2.3509886e-038
-72.601845 305.98129 -75.913597 2.3509886e-038
-67.142899 303.85159 -75.385231 2.3509886e-038
-61.907597 302.4754 -75.043793 2.3509886e-038
-56.912205 302.13455 -74.959229 2.3509886e-038
-52.150398 303.0867 -75.195457 2.3509886e-038
-47.540409 305.21283 -75.722946 2.3509886e-038
-42.963909 308.07632 -76.433372 2.3509886e-038
-38.276253 310.79514 -77.10791 2.3509886e-038
-33.399574 312.57462 -77.5494 2.3509886e-038
-28.365892 313.2612 -77.719742 2.3509886e-038
-23.246447 313.0939 -77.67823 2.3509886e-038
-18.094488 312.27173 -77.474251 2.3509886e-038
-12.976115 311.61182 -77.310524 2.3509886e-038
-7.9250422 312.75955 -77.595276 2.3509886e-038
-2.8734403 317.98776 -78.892395 2.3509886e-038
2.4137974 332.18094 -82.413704 2.3509886e-038
3.2998517 335.56943 -83.254387 2.3509886e-038
-76.607666 313.62738 -82.923607 2.3509886e-038
-74.039566 312.04053 -82.504044 2.3509886e-038
-68.200058 308.63574 -81.603813 2.3509886e-038
-62.627838 305.99442 -80.905441 2.3509886e-038
-57.46077 305.04672 -80.654869 2.3509886e-038
-52.566738 305.50638 -80.776398 2.3509886e-038
-47.848122 307.18835 -81.221115 2.3509886e-038
-43.205353 309.80762 -81.913658 2.3509886e-038
-38.501259 312.62213 -82.657814 2.3509886e-038
-33.642426 314.84738 -83.24617 2.3509886e-038
-28.616043 316.02377 -83.557213 2.3509886e-038
-23.475998 316.18561 -83.599998 2.3509886e-038
-18.305738 315.91742 -83.529099 2.3509886e-038
-13.15242 315.84564 -83.510117 2.3509886e-038
-8.0509863 317.72992 -84.008324 2.3509886e-038
-2.9352579 324.8288 -85.885277 2.3509886e-038
1.0417126 336.04175 -88.849998 2.3509886e-038
-69.866295 317.0282 -88.991226 2.3509886e-038
-63.940323 312.40714 -87.694069 2.3509886e-038
-58.520672 310.67352 -87.207436 2.3509886e-038
-53.408638 310.39932 -87.130463 2.3509886e-038
-48.480923 311.25101 -87.369537 2.3509886e-038
-43.654438 313.0278 -87.868294 2.3509886e-038
-38.876656 315.67029 -88.610046 2.3509886e-038
-34.065845 318.81003 -89.491386 2.3509886e-038
-29.080856 321.15698 -90.150192 2.3509886e-038
-23.904316 321.95441 -90.374031 2.3509886e-038
-18.694582 322.62805 -90.563126 2.3509886e-038
-13.486814 323.87589 -90.913391 2.3509886e-038
-8.2697611 326.3638 -91.611763 2.3509886e-038
-3.9229672 332.05392 -93.209015 2.3509886e-038
-55.502628 319.5961 -94.922348 2.3509886e-038
-54.970936 319.47903 -94.887573 2.3509886e-038
-49.704796 319.10837 -94.777489 2.3509886e-038
-44.50983 319.16147 -94.793259 2.3509886e-038
-39.522964 320.91818 -95.31501 2.3509886e-038
-34.760288 325.30905 -96.619125 2.3509886e-038
-29.827427 329.40179 -97.834709 2.3509886e-038
-24.917963 330.72781 -98.228546 2.3509886e-038
-126.44951 303.52286 -8.1026373 2.3509528e-038
-124.03942 297.73776 -20.817694 2.3509528e-038
-120.88232 301.97675 -7.9475298 2.3509528e-038
-120.1125 300.05362 -27.374537 2.3509528e-038
-115.99801 302.07764 -9.7439299 2.3509528e-038
-116.00766 302.10281 -32.695232 2.3509528e-038
-112.09916 304.86758 -12.898481 2.3509528e-038
-111.82578 304.12408 -37.626743 2.3509528e-038
-107.7317 306.58286 -17.269911 2.3509528e-038
-108.07201 307.55133 -43.03294 2.3509528e-038
-103.0621 307.56332 -22.334877 2.3509528e-038
-104.37735 311.4884 -49.831963 2.3509886e-038
-94.205803 295.51108 68.340294 3.5733111e-043
-94.307335 295.82956 46.932938 3.5733111e-043
-98.163307 307.92523 -27.022768 2.3509528e-038
-99.110008 310.8949 -56.874027 2.3509886e-038
-88.930717 293.99881 66.251587 3.5733111e-043
-90.179962 298.12872 33.272182 3.5733111e-043
-93.547989 309.26321 -30.714931 2.3509528e-038
-93.70858 309.7941 -63.070854 2.3509886e-038
-84.354469 294.7562 60.021179 3.5733111e-043
-85.262138 297.92786 22.731739 3.5733111e-043
-89.225029 311.77521 -32.687313 2.3509528e-038
-88.707497 309.9668 -68.710228 2.3509886e-038
-80.288063 297.49423 50.566479 3.5733111e-043
-81.471565 301.87949 10.291864 3.5733111e-043
-84.527016 313.20099 -31.284618 2.3509528e-038
-84.258217 312.20499 -74.686501 2.3509886e-038
-74.945938 295.55347 39.337139 2.3509886e-038
-79.166367 312.19696 -79.887062 2.3509886e-038
-70.867065 298.66998 30.298105 2.3509886e-038
-74.823914 315.34622 -85.179031 2.3509886e-038
-66.910423 302.79956 20.864122 2.3509886e-038
-70.059982 317.05273 -88.896965 2.3509886e-038
-61.870079 302.29208 14.508704 2.3509886e-038
-64.630852 315.78101 -90.703133 2.3509886e-038
-57.655628 306.08121 13.10675 2.3509886e-038
-59.794735 317.43726 -92.84716 2.3509886e-038
-53.265701 309.5686 17.877657 2.3509886e-038
-55.03463 319.84921 -95.161392 2.3509886e-038
-45.320957 290.96381 82.940071 2.3418052e-038
-50.255428 322.64346 -97.632996 2.3509886e-038
-40.735508 292.09738 84.085732 2.3418052e-038
-45.129215 323.60281 -99.183876 2.3509886e-038
-36.264385 294.4592 70.735229 2.3418052e-038
-40.005783 324.83859 -99.913689 2.3509886e-038
-32.064556 300.08066 16.234215 2.3509886e-038
-35.142845 328.88925 -100.2094 2.3509886e-038
-26.984121 298.0015 20.682045 2.3509886e-038
-30.009432 331.41177 -99.553741 2.3509886e-038
-21.444958 288.8306 44.008659 9.1476764e-041
-24.552963 330.69067 -98.15332 2.3509886e-038
-16.632423 287.03964 69.150108 9.1476764e-041
-19.191708 331.20737 -97.576958 2.3509886e-038
-11.805261 283.4946 74.019958 9.1476764e-041
-13.865556 332.97107 -97.396965 2.3509886e-038
-7.2487903 286.07147 72.235611 9.1476764e-041
-7.3220768 288.96371 39.193394 9.1476764e-041
-7.4991074 295.95016 1.5076163 2.3509886e-038
-8.4212294 332.34146 -95.769218 2.3509886e-038
-2.6561742 293.94412 0.85648996 2.3509886e-038
-3.0053487 332.58533 -92.671356 2.3509886e-038
2.1210432 291.89279 2.9865651 2.3509886e-038
2.4449055 336.46198 -85.999969 2.3509886e-038
6.8249207 289.56848 6.3970308 2.3509886e-038
7.0411091 298.741 -25.732012 2.3509886e-038
11.40459 286.02972 10.225389 2.3418409e-038
11.789846 295.69205 -14.54454 2.3418409e-038
15.953645 283.99963 14.382501 2.3418409e-038
16.346806 290.99847 -7.5484648 2.3418409e-038
20.467808 282.40167 19.25094 2.3418409e-038
20.708471 285.7222 -1.2319571 2.3418409e-038
24.939676 280.91394 24.872391 2.3418409e-038
25.179638 283.61682 5.0386338 2.3418409e-038
29.520666 280.92645 29.471123 2.3418409e-038
29.802847 283.61179 10.850797 2.3418409e-038
33.995274 280.05923 31.615295 2.3418409e-038
34.503265 284.24417 17.17779 2.3418409e-038
