# .PCD v0.7 - Point Cloud Data file format
VERSION 0.7
FIELDS x y z rgb
SIZE 4 4 4 4
TYPE F F F F
COUNT 1 1 1 1
WIDTH 518
HEIGHT 1
VIEWPOINT 0 0 0 1 0 0 0
POINTS 518
DATA ascii
-57.497875 244.16702 41.398468 2.3418052e-038
0 0 0 2.3509528e-038
-28.457493 236.99396 4.34413 3.5733111e-043
-10.801283 251.21155 -20.720087 2.3509528e-038
-110.74117 313.51123 1.4765489 2.3418409e-038
-62.156101 244.10466 45.433563 2.3418052e-038
-62.004101 243.92676 45.400452 2.3418052e-038
-57.009739 239.49727 44.576023 2.3418052e-038
-52.957573 238.66914 44.42189 2.3418052e-038
-51.68721 239.24326 44.52874 2.3418052e-038
-62.285889 247.15015 42.008381 2.3418052e-038
-58.019222 243.7381 41.428432 2.3418052e-038
-53.840317 242.64749 41.243061 2.3418052e-038
-50.26516 244.32024 41.527374 2.3418052e-038
-48.712833 246.19962 41.846817 2.3418052e-038
-61.429028 251.88252 38.744278 2.3418052e-038
-59.719707 250.88182 38.590351 2.3418052e-038
-55.29985 249.22533 38.335556 2.3418052e-038
-51.425922 249.96227 38.448906 2.3418052e-038
-47.997913 253.17686 38.943371 2.3418052e-038
-46.686077 255.17007 39.249969 2.3418052e-038
-60.55835 258.51566 35.588982 2.3418052e-038
-57.040184 257.06866 35.389782 2.3418052e-038
-52.845135 256.86053 35.361126 2.3418052e-038
-49.04882 258.72012 35.61713 2.3418052e-038
-45.471821 262.1907 36.094913 2.3418052e-038
-44.802876 263.10507 36.220791 2.3509886e-038
-59.388718 264.47003 32.136929 2.3418052e-038
-58.639664 264.27719 32.113491 2.3418052e-038
-54.209091 263.4902 32.01786 2.3418052e-038
-50.043186 263.96515 32.075577 2.3418052e-038
-46.110584 265.87381 32.307507 2.3418052e-038
-42.909946 269.21524 32.713535 2.3509886e-038
-58.42601 271.19974 28.574198 2.3418052e-038
-55.749592 270.978 28.550837 2.3418052e-038
-51.264603 270.40784 28.490761 2.3418052e-038
-46.993622 270.96539 28.549507 2.3418052e-038
-43.090111 273.97403 28.866505 3.5733111e-043
-41.39431 276.33426 29.115183 3.5733111e-043
-76.948372 253.73796 22.63596 2.3509886e-038
-76.728233 253.52296 22.616779 2.3509886e-038
-71.406609 249.24133 22.234814 2.3509886e-038
-67.663658 250.28757 22.32815 2.3509886e-038
-66.578812 252.25484 22.503651 2.3418052e-038
-57.960899 279.80569 24.96146 2.3418052e-038
-57.592007 279.93329 24.972845 2.3418052e-038
-52.94072 279.24893 24.911791 2.3418052e-038
-48.259312 278.26337 24.823868 3.5733111e-043
-43.998085 279.74707 24.95623 3.5733111e-043
-40.169746 284.63779 25.39253 3.5733111e-043
-40.112797 284.75131 25.40266 3.5733111e-043
-78.700752 261.27518 19.088171 2.3509886e-038
-73.458969 256.405 18.732367 2.3509886e-038
-69.469955 256.96906 18.773579 2.3509886e-038
-66.504135 261.6301 19.114101 2.3418052e-038
-64.009216 268.21628 19.595272 2.3418052e-038
-57.815033 287.87503 21.031498 2.3418052e-038
-54.63195 288.16974 21.053028 2.3418052e-038
-49.680275 286.45663 20.927872 2.3418052e-038
-44.85302 285.18289 20.834816 3.5733111e-043
-40.244717 285.16901 20.833801 3.5733111e-043
-37.552197 285.7832 20.878674 3.5733111e-043
-78.350105 267.74106 15.235946 2.3509886e-038
-76.350616 266.49814 15.165217 2.3509886e-038
-72.19249 267.03967 15.196033 2.3509886e-038
-68.668442 270.14456 15.372718 2.3418052e-038
-65.355003 274.55563 15.623733 2.3418052e-038
-62.384605 281.15491 15.999267 2.3418052e-038
-59.528419 289.34546 16.465357 2.3418052e-038
-55.899952 294.85812 16.779058 2.3509886e-038
-50.983692 293.97217 16.728642 2.3509886e-038
-45.248196 287.69547 16.371462 2.3509886e-038
-39.063187 276.79681 15.751268 3.5733111e-043
-33.11599 264.98383 15.079044 3.5733111e-043
-30.859577 261.29324 14.869029 3.5733111e-043
-78.658424 279.97113 11.409753 2.3509886e-038
-75.589752 279.60617 11.394879 2.3418052e-038
-71.143318 279.88086 11.406075 2.3418052e-038
-67.130013 282.01242 11.492943 2.3418052e-038
-63.665188 286.92621 11.693195 2.3418052e-038
-60.558678 294.35318 11.99587 2.3418052e-038
-57.212696 301.78253 12.29864 2.3509886e-038
-52.317879 301.6651 12.293854 2.3509886e-038
-45.488369 289.22253 11.786778 2.3509886e-038
-37.661732 266.8663 10.875688 3.5733111e-043
-31.006714 248.10605 10.111145 3.5733111e-043
-26.352478 242.16258 9.8689289 3.5733111e-043
-23.898634 244.19421 9.951725 3.5733111e-043
-120.70849 317.32895 7.8066454 2.3418409e-038
-115.86589 315.48999 7.761404 2.3418409e-038
-110.58807 314.97171 7.7486539 2.3418409e-038
-109.72864 315.09589 7.7517085 2.3418409e-038
-77.600189 290.57867 7.1485577 2.3509886e-038
-73.689629 289.89816 7.1318169 2.3509886e-038
-69.490334 291.9281 7.1817555 2.3509886e-038
-65.748672 296.31607 7.2897043 2.3509886e-038
-62.102852 301.85886 7.4260631 2.3509886e-038
-58.293034 307.48102 7.5643749 2.3509886e-038
-53.464668 308.2775 7.5839686 2.3509886e-038
-46.673923 296.7605 7.3006382 2.3509886e-038
-38.24398 270.99203 6.6667056 3.5733111e-043
-31.035702 248.33798 6.1093903 3.5733111e-043
-26.324289 241.90355 5.9510961 3.5733111e-043
-22.860136 246.68532 6.0687327 3.5733111e-043
-20.036314 261.85437 6.4419088 3.5733111e-043
-19.194599 268.5029 6.6054697 2.3509886e-038
-120.94462 316.10153 2.6706996 2.3418409e-038
-115.24472 313.79861 2.6512425 2.3418409e-038
-110.1292 313.66479 2.6501119 2.3418409e-038
-105.64178 315.39331 2.6647158 2.3418409e-038
-102.72752 317.1095 2.6792157 2.3418409e-038
-76.152946 303.50845 2.5643024 2.3509886e-038
-72.877655 306.1582 2.5866897 2.3509886e-038
-68.468163 308.57227 2.6070857 2.3509886e-038
-63.762718 309.92685 2.6185303 2.3509886e-038
-59.125984 311.87463 2.6349871 2.3509886e-038
-54.328205 313.25665 2.6466634 2.3509886e-038
-48.568771 308.80823 2.6090794 2.3509886e-038
-41.227356 292.13187 2.4681833 2.3509886e-038
-34.005169 272.09875 2.2989261 3.5733111e-043
-28.369877 260.7012 2.2026296 3.5733111e-043
-24.00983 259.09177 2.1890316 3.5733111e-043
-20.473707 267.57068 2.260669 2.3509886e-038
-17.102839 283.32504 2.3937755 2.3509886e-038
-13.204787 298.66623 2.523391 2.3509886e-038
-11.905265 302.23215 2.5535188 2.3509886e-038
-118.64734 314.78134 -2.42488 2.3418409e-038
-115.0943 313.38901 -2.4141541 2.3418409e-038
-109.92135 313.07281 -2.4117184 2.3418409e-038
-105.43803 314.78497 -2.4249079 2.3418409e-038
-101.19021 317.40936 -2.4451246 2.3418409e-038
-98.159744 318.76053 -2.455533 2.3418409e-038
-76.153282 321.08212 -2.4734173 2.3509886e-038
-70.763435 318.91663 -2.4567356 2.3509886e-038
-65.042702 316.14838 -2.4354107 2.3509886e-038
-59.814331 315.50546 -2.4304581 2.3509886e-038
-54.973358 316.97656 -2.4417906 2.3509886e-038
-49.981785 317.79242 -2.4480755 2.3509886e-038
-44.136688 312.74704 -2.4092088 2.3509886e-038
-37.782234 302.32166 -2.328898 2.3509886e-038
-31.656704 290.90506 -2.2409518 2.3509886e-038
-26.138023 282.05722 -2.1727936 2.3509886e-038
-21.45393 280.3812 -2.1598825 2.3509886e-038
-17.37233 287.78943 -2.2169509 2.3509886e-038
-13.14805 297.383 -2.2908537 2.3509886e-038
-8.5063686 303.1459 -2.3352478 2.3509886e-038
-3.8423476 305.6976 -2.3549044 2.3509886e-038
-115.69616 314.52505 -7.5031805 2.3418409e-038
-115.47299 314.42017 -7.5006781 2.3418409e-038
-109.97542 313.22678 -7.472209 2.3418409e-038
-105.36458 314.56567 -7.5041494 2.3418409e-038
-101.07639 317.05234 -7.5634694 2.3418409e-038
-96.402725 318.53079 -7.5987391 2.3418409e-038
-94.118752 318.93365 -7.6083498 2.3418409e-038
-74.967415 326.56 -7.7902803 2.3509886e-038
-71.786407 323.52692 -7.7179246 2.3509886e-038
-65.630478 319.00534 -7.6100597 2.3509886e-038
-60.227055 317.6825 -7.5785027 2.3509886e-038
-55.328697 319.02548 -7.6105404 2.3509886e-038
-50.438705 320.6976 -7.6504297 2.3509886e-038
-45.228851 320.48596 -7.6453805 2.3509886e-038
-39.756485 318.11899 -7.5889153 2.3509886e-038
-34.03265 312.73849 -7.4605608 2.3509886e-038
-28.147902 303.74597 -7.2460389 2.3509886e-038
-22.659084 296.13135 -7.0643873 2.3509886e-038
-17.852324 295.74097 -7.0550742 2.3509886e-038
-13.198515 298.52438 -7.1214743 2.3509886e-038
-8.4218731 300.13467 -7.1598892 2.3509886e-038
-3.5819654 300.80069 -7.175777 2.3509886e-038
1.2823862 302.15695 -7.2081318 2.3509886e-038
2.815835 302.82028 -7.2239556 2.3509886e-038
-112.48288 314.96664 -12.601121 2.3418409e-038
-110.37545 314.36612 -12.577096 2.3418409e-038
-105.43709 314.78217 -12.59374 2.3418409e-038
-100.90588 316.51749 -12.663167 2.3418409e-038
-96.142807 317.67197 -12.709355 2.3418409e-038
-91.409676 319.06107 -12.764931 2.3418409e-038
-89.755135 320.01736 -12.803189 2.3509886e-038
-75.068298 326.90701 -13.078829 2.3509886e-038
-71.859337 323.85562 -12.956749 2.3509886e-038
-65.707802 319.38116 -12.777738 2.3509886e-038
-60.272881 317.92419 -12.719447 2.3509886e-038
-55.28968 318.80051 -12.754505 2.3509886e-038
-50.347343 320.1167 -12.807163 2.3509886e-038
-45.216625 320.39932 -12.818471 2.3509886e-038
-39.968555 319.81592 -12.79513 2.3509886e-038
-34.639534 318.31537 -12.735096 2.3509886e-038
-29.10103 314.03125 -12.563698 2.3509886e-038
-23.438334 306.31534 -12.255002 2.3509886e-038
-18.082811 299.5592 -11.984704 2.3509886e-038
-13.080163 295.84747 -11.836205 2.3509886e-038
-8.2512445 294.05392 -11.764449 2.3509886e-038
-3.502965 294.1665 -11.768954 2.3509886e-038
1.2607219 297.0524 -11.884413 2.3509886e-038
5.7721667 301.71469 -12.07094 2.3509886e-038
-108.66541 316.43405 -17.770937 2.3418409e-038
-105.8639 316.05643 -17.749731 2.3418409e-038
-100.7927 316.16248 -17.755686 2.3418409e-038
-95.897095 316.86008 -17.794863 2.3418409e-038
-91.229126 318.43088 -17.88308 2.3418409e-038
-86.818382 321.14081 -18.035269 2.3509886e-038
-82.760925 325.58499 -18.284853 2.3509886e-038
-77.820938 326.9249 -18.360102 2.3509886e-038
-71.676628 323.03217 -18.141487 2.3509886e-038
-65.662361 319.16028 -17.924042 2.3509886e-038
-60.172009 317.39215 -17.824743 2.3509886e-038
-55.039627 317.3587 -17.822865 2.3509886e-038
-50.017395 318.01883 -17.859938 2.3509886e-038
-44.964382 318.61194 -17.893248 2.3509886e-038
-39.859375 318.94229 -17.911798 2.3509886e-038
-34.687599 318.75705 -17.901396 2.3509886e-038
-29.268127 315.83441 -17.737261 2.3509886e-038
-23.460257 306.60184 -17.218761 2.3509886e-038
-17.703537 293.27618 -16.470392 2.3509886e-038
-12.576748 284.46124 -15.975343 2.3509886e-038
-7.9404211 282.97693 -15.891984 2.3509886e-038
-3.4208345 287.26947 -16.133055 2.3509886e-038
1.2494998 294.40826 -16.53397 2.3509886e-038
6.1428003 301.17209 -16.913826 2.3509886e-038
7.5873041 303.13019 -17.023792 2.3509886e-038
-104.10582 317.81 -22.981544 2.3418409e-038
-101.00792 316.83755 -22.911224 2.3418409e-038
-95.857285 316.72858 -22.903343 2.3418409e-038
-91.067795 317.86774 -22.98572 2.3418409e-038
-86.418694 319.66235 -23.115494 2.3418409e-038
-81.838081 321.9545 -23.28124 2.3509886e-038
-76.844864 322.82443 -23.344149 2.3509886e-038
-71.244431 321.08435 -23.218321 2.3509886e-038
-65.534752 318.54007 -23.034338 2.3509886e-038
-60.082405 316.91949 -22.917152 2.3509886e-038
-54.846317 316.24408 -22.868309 2.3509886e-038
-49.761765 316.39349 -22.879114 2.3509886e-038
-44.773342 317.2583 -22.941648 2.3509886e-038
-39.772499 318.24713 -23.013155 2.3509886e-038
-34.671516 318.60925 -23.039341 2.3509886e-038
-29.174948 314.82889 -22.765976 2.3509886e-038
-22.978586 300.30692 -21.715857 2.3509886e-038
-16.834982 278.88773 -20.166988 2.3509886e-038
-11.885075 268.81696 -19.438749 2.3509886e-038
-7.6781235 273.6293 -19.786741 2.3509886e-038
-3.3977053 285.32718 -20.632639 2.3509886e-038
1.2554196 295.80307 -21.390175 2.3509886e-038
6.1527977 301.6622 -21.813862 2.3509886e-038
8.8299885 304.69064 -22.032854 2.3509886e-038
-99.876938 318.94724 -28.215504 2.3418409e-038
-96.311447 318.22919 -28.151983 2.3418409e-038
-91.099594 317.97873 -28.129827 2.3418409e-038
-86.06044 318.33719 -28.161539 2.3418409e-038
-81.129303 319.16614 -28.234869 2.3418409e-038
-76.079269 319.60818 -28.273975 2.3509886e-038
-70.779312 318.98816 -28.219124 2.3509886e-038
-65.370155 317.73999 -28.108707 2.3509886e-038
-60.042656 316.70984 -28.017574 2.3509886e-038
-54.786285 315.89792 -27.945747 2.3509886e-038
-49.654228 315.70975 -27.929102 2.3509886e-038
-44.677193 316.577 -28.005821 2.3509886e-038
-39.730354 317.90988 -28.123737 2.3509886e-038
-34.698463 318.8569 -28.207512 2.3509886e-038
-29.264589 315.79623 -27.936752 2.3509886e-038
-23.049475 301.23334 -26.648455 2.3509886e-038
-16.818388 278.61282 -24.647343 2.3509886e-038
-11.933404 269.91006 -23.877457 2.3509886e-038
-7.8029909 278.07928 -24.600142 2.3509886e-038
-3.4624252 290.76212 -25.722124 2.3509886e-038
1.2694299 299.10422 -26.460102 2.3509886e-038
6.1805944 303.02505 -26.806957 2.3509886e-038
9.5860853 306.44095 -27.109142 2.3509886e-038
-96.628632 320.86285 -33.567616 2.3418409e-038
-91.287292 318.63388 -33.334427 2.3418409e-038
-85.750267 317.18985 -33.183353 2.3418409e-038
-80.583481 317.01883 -33.165466 2.3418409e-038
-75.495811 317.15707 -33.179924 2.3509886e-038
-70.307106 316.86002 -33.148849 2.3509886e-038
-65.102829 316.44061 -33.104977 2.3509886e-038
-59.926617 316.09778 -33.069103 2.3509886e-038
-54.727951 315.56155 -33.013008 2.3509886e-038
-49.589272 315.29678 -32.985306 2.3509886e-038
-44.595898 316.00095 -33.058975 2.3509886e-038
-39.670971 317.43472 -33.208973 2.3509886e-038
-34.714958 319.00851 -33.373615 2.3509886e-038
-29.525002 318.60635 -33.331547 2.3509886e-038
-23.814537 311.23193 -32.560059 2.3509886e-038
-17.93918 297.17984 -31.089975 2.3509886e-038
-12.834197 290.28421 -30.368578 2.3509886e-038
-8.2240934 293.08633 -30.661724 2.3509886e-038
-3.5550458 298.5401 -31.232279 2.3509886e-038
1.2830733 302.31888 -31.627604 2.3509886e-038
6.2263708 305.26941 -31.936281 2.3509886e-038
9.974905 309.09882 -32.336899 2.3509886e-038
-93.058655 320.06403 -38.653786 2.3418409e-038
-91.365379 318.90646 -38.513985 2.3418409e-038
-85.444954 316.06052 -38.170284 2.3418409e-038
-80.135399 315.25607 -38.073132 2.3418409e-038
-75.019165 315.15466 -38.06089 2.3509886e-038
-69.854095 314.81839 -38.020271 2.3509886e-038
-64.738899 314.67169 -38.00256 2.3509886e-038
-59.669815 314.74319 -38.011192 2.3509886e-038
-54.549259 314.53125 -37.985596 2.3509886e-038
-49.452702 314.42841 -37.973175 2.3509886e-038
-44.478096 315.1662 -38.062279 2.3509886e-038
-39.587395 316.76596 -38.255478 2.3509886e-038
-34.693249 318.80896 -38.502213 2.3509886e-038
-29.68861 320.37186 -38.690964 2.3509886e-038
-24.423283 319.18765 -38.547943 2.3509886e-038
-18.940002 313.75943 -37.892384 2.3509886e-038
-13.616264 307.97305 -37.193569 2.3509886e-038
-8.5453777 304.53607 -36.778492 2.3509886e-038
-3.6168909 303.73358 -36.681572 2.3509886e-038
1.2942122 304.94342 -36.827682 2.3509886e-038
6.2790799 307.85364 -37.17915 2.3509886e-038
10.1414 312.23334 -37.70808 2.3509886e-038
-88.946976 317.26392 -43.440132 2.3418409e-038
-85.284767 315.46799 -43.194229 2.3418409e-038
-79.894249 314.3074 -43.03532 2.3418409e-038
-74.699043 313.80984 -42.967197 2.3509886e-038
-69.503792 313.23962 -42.889122 2.3509886e-038
-64.402855 313.03833 -42.861557 2.3509886e-038
-59.370647 313.16516 -42.878925 2.3509886e-038
-54.294991 313.06516 -42.865231 2.3509886e-038
-49.250587 313.14334 -42.875938 2.3509886e-038
-44.321201 314.05447 -43.00069 2.3509886e-038
-39.477211 315.88431 -43.251236 2.3509886e-038
-34.628635 318.21524 -43.570389 2.3509886e-038
-29.669138 320.16174 -43.836903 2.3509886e-038
-24.502935 320.22861 -43.846058 2.3509886e-038
-19.157961 317.37012 -43.454674 2.3509886e-038
-13.805965 312.2637 -42.755497 2.3509886e-038
-8.6409235 307.9411 -42.163643 2.3509886e-038
-3.6488125 306.41425 -41.954586 2.3509886e-038
1.3044673 307.35974 -42.084042 2.3509886e-038
6.3404045 310.86032 -42.563343 2.3509886e-038
10.2746 316.87903 -43.387432 2.3509886e-038
-85.235741 316.1893 -48.400146 2.3418409e-038
-79.938972 314.48331 -48.139008 2.3509886e-038
-74.55481 313.20392 -47.943169 2.3509886e-038
-69.286354 312.2597 -47.79863 2.3509886e-038
-64.183556 311.97238 -47.75465 2.3509886e-038
-59.142799 311.96332 -47.753262 2.3509886e-038
-54.080814 311.8302 -47.732887 2.3509886e-038
-49.06443 311.95975 -47.752716 2.3509886e-038
-44.157524 312.89468 -47.895828 2.3509886e-038
-39.34309 314.8111 -48.189182 2.3509886e-038
-34.533337 317.33948 -48.57621 2.3509886e-038
-29.598282 319.39713 -48.891178 2.3509886e-038
-24.444035 319.45883 -48.900627 2.3509886e-038
-19.130253 316.9111 -48.510635 2.3509886e-038
-13.825239 312.69965 -47.865974 2.3509886e-038
-8.6866531 309.57083 -47.387035 2.3509886e-038
-3.6765904 308.74698 -47.260925 2.3509886e-038
1.3151691 309.88129 -47.434563 2.3509886e-038
6.4134851 314.44333 -48.132885 2.3509886e-038
10.297947 322.47784 -49.362755 2.3509886e-038
-81.633965 316.45056 -53.55154 2.3509886e-038
-80.239494 315.66559 -53.418705 2.3509886e-038
-74.579849 313.30911 -53.01992 2.3509886e-038
-69.219376 311.95779 -52.791248 2.3509886e-038
-64.080772 311.47281 -52.709175 2.3509886e-038
-58.994877 311.18307 -52.660141 2.3509886e-038
-53.937759 311.00531 -52.630062 2.3509886e-038
-48.941505 311.17816 -52.659309 2.3509886e-038
-44.059357 312.19907 -52.832073 2.3509886e-038
-39.269485 314.22217 -53.174431 2.3509886e-038
-34.475395 316.80704 -53.611858 2.3509886e-038
-29.551855 318.89612 -53.965385 2.3509886e-038
-24.41338 319.0582 -53.992821 2.3509886e-038
-19.127621 316.86749 -53.622093 2.3509886e-038
-13.868855 313.68613 -53.083725 2.3509886e-038
-8.7439632 311.61319 -52.732933 2.3509886e-038
-3.7065506 311.26291 -52.673653 2.3509886e-038
1.326985 312.66537 -52.910988 2.3509886e-038
6.4819636 317.80072 -53.780018 2.3509886e-038
9.9135942 325.306 -55.050106 2.3509886e-038
-77.213799 315.56577 -58.498894 2.3509886e-038
-74.841911 314.41003 -58.284649 2.3509886e-038
-69.411209 312.82239 -57.990334 2.3509886e-038
-64.158417 311.85019 -57.810108 2.3509886e-038
-58.956184 310.97897 -57.648605 2.3509886e-038
-53.886707 310.71097 -57.598923 2.3509886e-038
-48.92165 311.05191 -57.662125 2.3509886e-038
-44.074032 312.30307 -57.894062 2.3509886e-038
-39.292927 314.40973 -58.284592 2.3509886e-038
-34.478249 316.83325 -58.73386 2.3509886e-038
-29.541534 318.78476 -59.095627 2.3509886e-038
-24.419954 319.14413 -59.162243 2.3509886e-038
-19.16881 317.54984 -58.866695 2.3509886e-038
-13.93864 315.26453 -58.44305 2.3509886e-038
-8.8102827 313.97665 -58.204308 2.3509886e-038
-3.7412348 314.17554 -58.241177 2.3509886e-038
1.342527 316.32739 -58.640083 2.3509886e-038
6.5772572 322.47281 -59.779308 2.3509886e-038
8.986784 327.48212 -60.70792 2.3509886e-038
-72.494675 316.8934 -63.863529 2.3509886e-038
-70.14753 316.14084 -63.711868 2.3509886e-038
-64.5858 313.92749 -63.265816 2.3509886e-038
-59.143276 311.96582 -62.87048 2.3509886e-038
-54.008663 311.41415 -62.759304 2.3509886e-038
-49.034149 311.76718 -62.830448 2.3509886e-038
-44.174492 313.01489 -63.081898 2.3509886e-038
-39.37072 315.03223 -63.488445 2.3509886e-038
-34.522484 317.23975 -63.933334 2.3509886e-038
-29.566654 319.05582 -64.299332 2.3509886e-038
-24.467503 319.76553 -64.44236 2.3509886e-038
-19.252981 318.94424 -64.276848 2.3509886e-038
-14.038231 317.51709 -63.989231 2.3509886e-038
-8.8930206 316.92523 -63.869946 2.3509886e-038
-3.7827539 317.66217 -64.018463 2.3509886e-038
1.3607204 320.61414 -64.613373 2.3509886e-038
6.7073269 328.84995 -66.27314 2.3509886e-038
7.6693993 331.13293 -66.733231 2.3509886e-038
-66.724968 319.3808 -69.523521 2.3509886e-038
-65.519623 318.46652 -69.324501 2.3509886e-038
-59.770962 315.2767 -68.630135 2.3509886e-038
-54.504898 314.27545 -68.412178 2.3509886e-038
-49.390022 314.02991 -68.358727 2.3509886e-038
-44.399456 314.60895 -68.484787 2.3509886e-038
-39.522488 316.24661 -68.841263 2.3509886e-038
-34.653984 318.44815 -69.320511 2.3509886e-038
-29.706802 320.56818 -69.781998 2.3509886e-038
-24.626011 321.8371 -70.05822 2.3509886e-038
-19.41563 321.63867 -70.015022 2.3509886e-038
-14.184746 320.83096 -69.839203 2.3509886e-038
-9.0030088 320.84491 -69.842232 2.3509886e-038
-3.8376019 322.26813 -70.152046 2.3509886e-038
1.3831381 325.89621 -70.941811 2.3509886e-038
6.048059 332.98431 -72.484772 2.3509886e-038
-58.855907 320.96802 -75.053375 2.3509886e-038
-55.494728 319.98282 -74.823006 2.3509886e-038
-50.116844 318.65115 -74.511612 2.3509886e-038
-44.91515 318.26312 -74.420876 2.3509886e-038
-39.886959 319.16299 -74.631302 2.3509886e-038
-34.955063 321.21487 -75.111107 2.3509886e-038
-30.029329 324.04858 -75.77372 2.3509886e-038
-24.96706 326.29425 -76.298836 2.3509886e-038
-19.723507 326.73892 -76.402817 2.3509886e-038
-14.435739 326.50793 -76.348793 2.3509886e-038
-9.1860008 327.3663 -76.549515 2.3509886e-038
-3.932672 330.25177 -77.224243 2.3509886e-038
1.4240876 335.5448 -78.461929 2.3509886e-038
3.8481348 338.901 -79.246727 2.3509886e-038
-47.889072 325.46515 -81.361938 2.3509886e-038
-45.854992 324.9227 -81.226341 2.3509886e-038
-40.522018 324.24457 -81.056808 2.3509886e-038
-35.431293 325.59113 -81.393433 2.3509886e-038
-30.501663 329.14557 -82.281998 2.3509886e-038
-25.460732 332.74603 -83.182068 2.3509886e-038
-20.171503 334.16043 -83.535645 2.3509886e-038
-14.810588 334.9863 -83.742104 2.3509886e-038
-9.4757509 337.69229 -84.418564 2.3509886e-038
-4.0849285 343.03772 -85.754852 2.3509886e-038
-0.79801053 347.27191 -86.813347 2.3509886e-038
-116.18547 316.36014 9.4675827 2.3418409e-038
-115.51425 314.5325 -7.7951379 2.3418409e-038
-110.63915 315.11722 8.1492128 2.3418409e-038
-110.7685 315.48563 -15.044527 2.3418409e-038
-105.79891 315.86243 5.2723246 2.3418409e-038
-106.32793 317.4418 -20.560736 2.3418409e-038
-101.30632 317.77359 1.2115533 2.3418409e-038
-101.45413 318.23721 -26.044287 2.3418409e-038
-76.4879 252.72885 22.985851 2.3509886e-038
-78.410027 259.0799 20.271519 2.3509886e-038
-96.520737 318.92072 -4.5583797 2.3418409e-038
-97.048836 320.66562 -32.839172 2.3418409e-038
-70.527283 246.1721 24.131523 2.3509886e-038
-78.40892 273.68256 13.145693 2.3509886e-038
-91.495926 319.36209 -10.820865 2.3418409e-038
-91.354118 318.86716 -40.634674 2.3418409e-038
-67.366539 249.18852 23.078083 2.3509886e-038
-78.02861 288.62747 8.1330767 2.3509886e-038
-86.986618 321.76309 -15.480353 2.3509886e-038
-85.483475 316.203 -48.043255 2.3418409e-038
-61.904751 243.53592 45.871655 2.3418052e-038
-62.567478 246.14311 43.371227 2.3418052e-038
-65.553596 257.89066 21.477346 2.3418052e-038
-76.254501 299.98843 3.5048044 2.3509886e-038
-82.816139 325.80222 -17.973547 2.3509886e-038
-80.386772 316.245 -55.07431 2.3509886e-038
-56.607887 237.80911 47.086861 2.3418052e-038
-60.939129 256.00461 36.840836 2.3418052e-038
-63.943951 268.62781 19.519588 2.3418052e-038
-76.20504 320.13651 -2.0783241 2.3509886e-038
-78.041901 327.85318 -17.074581 2.3509886e-038
-75.118027 315.57001 -60.761429 2.3509886e-038
-52.806332 237.98753 45.347809 2.3418052e-038
-59.055717 266.15225 31.127958 2.3418052e-038
-62.054161 279.66565 17.678175 2.3418052e-038
-70.633362 318.33038 -66.081978 2.3509886e-038
-49.897732 242.5343 43.037563 2.3418052e-038
-57.921333 281.53406 24.27104 2.3418052e-038
-59.433857 288.88586 17.222387 2.3418052e-038
-65.701042 319.34833 -70.261574 2.3509886e-038
-47.579121 250.96783 40.491875 2.3418052e-038
-60.659229 319.96213 -73.711304 2.3509886e-038
-45.331726 261.3829 37.092915 2.3418052e-038
-55.933773 322.51434 -77.040924 2.3509886e-038
-42.553017 270.55908 31.972424 2.3509886e-038
-50.986855 324.18283 -79.730957 2.3509886e-038
-40.15406 284.52664 25.514841 3.5733111e-043
-46.025421 326.13037 -82.262085 2.3509886e-038
-34.436234 275.54797 17.728813 3.5733111e-043
-40.872868 327.05194 -84.156349 2.3509886e-038
-26.975992 247.89229 12.088021 3.5733111e-043
-35.787033 328.86017 -85.636597 2.3509886e-038
-22.79463 245.97844 9.1807261 3.5733111e-043
-30.877649 333.20288 -87.205841 2.3509886e-038
-20.014515 261.56949 7.1868315 3.5733111e-043
-25.854879 337.89716 -88.546333 2.3509886e-038
-17.120672 283.62048 5.283154 2.3509886e-038
-20.525377 340.02267 -89.097946 2.3509886e-038
-13.231806 299.27734 3.2284491 2.3509886e-038
-15.101651 341.56955 -89.361061 2.3509886e-038
-8.5789165 305.73135 0.6698485 2.3509886e-038
-9.6833658 345.09119 -89.744553 2.3509886e-038
-3.6395211 305.634 -2.4851894 2.3509886e-038
-4.1459699 348.16376 -88.96093 2.3509886e-038
1.2888054 303.66949 -5.7786088 2.3509886e-038
1.4624981 344.59509 -84.090363 2.3509886e-038
6.1570868 301.87253 -12.938743 2.3509886e-038
6.7767825 332.25525 -70.037994 2.3509886e-038
