# .PCD v0.7 - Point Cloud Data file format
VERSION 0.7
FIELDS x y z rgb
SIZE 4 4 4 4
TYPE F F F F
COUNT 1 1 1 1
WIDTH 511
HEIGHT 1
VIEWPOINT 0 0 0 1 0 0 0
POINTS 511
DATA ascii
-29.429338 226.70662 -19.322004 2.3418052e-038
-15.243524 245.92401 -35.310883 9.1476764e-041
-62.208626 275.17859 66.096664 3.5733111e-043
-113.10017 307.87463 -2.9000044 2.3509528e-038
-51.506046 259.11896 9.3145161 2.3418409e-038
-66.199493 279.43622 70.944916 3.5733111e-043
-65.608665 279.27359 70.903618 3.5733111e-043
-60.7318 277.85794 70.544197 3.5733111e-043
-59.271618 277.66794 70.495964 3.5733111e-043
-67.441277 277.74158 65.972267 3.5733111e-043
-64.953583 276.48511 65.67382 3.5733111e-043
-59.993504 274.4801 65.197563 3.5733111e-043
-56.831108 275.04309 65.331299 3.5733111e-043
-67.702614 276.54575 61.165379 2.3418409e-038
-64.468216 274.41907 60.695011 2.3418409e-038
-59.480499 272.13303 60.189388 2.3418409e-038
-55.634586 274.13007 60.631092 3.5733111e-043
-67.914948 276.64795 56.663486 2.3418409e-038
-64.499336 274.55154 56.234097 2.3418409e-038
-59.551193 272.45648 55.804977 2.3418409e-038
-55.527725 274.59521 56.243034 2.3418409e-038
-55.372482 274.88651 56.302704 2.3418409e-038
-67.911812 276.36469 52.08559 2.3418409e-038
-64.438622 274.29309 51.695164 2.3418409e-038
-59.646343 272.89178 51.431065 2.3418409e-038
-55.713051 275.51169 51.924824 2.3418409e-038
-55.439213 276.02872 52.02227 2.3418409e-038
-67.442009 273.90225 47.141911 2.3418409e-038
-63.867317 271.86127 46.790627 2.3418409e-038
-59.443539 271.96393 46.808296 2.3418409e-038
-55.765594 275.77151 47.463631 2.3418409e-038
-55.333656 276.58545 47.603718 2.3418409e-038
-67.278419 270.50568 42.133255 2.3418409e-038
-63.71204 271.20029 42.241455 2.3418409e-038
-59.63699 272.849 42.498249 2.3418409e-038
-55.930134 276.58521 43.080189 2.3418409e-038
-55.091572 277.72964 43.258442 2.3418409e-038
-65.173027 253.9202 35.397152 2.3418409e-038
-64.765106 257.73987 35.929626 2.3418409e-038
-62.744328 267.08109 37.231819 2.3418409e-038
-59.690586 273.09421 38.070065 2.3418409e-038
-56.09893 277.41992 38.67308 2.3418409e-038
-54.68251 279.09515 38.906609 2.3418409e-038
-64.203575 236.12621 29.054838 2.3509886e-038
-63.225277 236.23642 29.068399 2.3509886e-038
-61.004414 242.77382 29.872812 2.3509886e-038
-60.084263 255.7581 31.470503 2.3418409e-038
-58.629799 268.24094 33.006489 2.3418409e-038
-55.960155 276.73367 34.051498 2.3418409e-038
-54.238087 280.2435 34.483376 2.3418409e-038
-65.613411 237.86864 25.378956 2.3509886e-038
-62.980888 235.32327 25.107384 2.3509886e-038
-58.992699 234.76796 25.048136 2.3509886e-038
-57.224434 243.58479 25.988831 2.3509886e-038
-56.507103 258.52924 27.583302 2.3418409e-038
-55.134838 272.65231 29.090134 2.3418409e-038
-53.650436 279.64728 29.836452 2.3418409e-038
-65.63295 241.13892 21.784111 2.3509886e-038
-64.076485 239.41689 21.628546 2.3509886e-038
-59.357235 236.21866 21.339622 2.3509886e-038
-56.233307 239.36591 21.623941 2.3509886e-038
-54.604156 249.82297 22.568615 2.3418409e-038
-53.416233 264.15347 23.863211 2.3418409e-038
-51.978214 274.23984 24.774397 2.3418409e-038
-65.345688 247.07802 18.279751 2.3509886e-038
-61.541805 244.91241 18.119532 2.3509886e-038
-57.580902 245.10217 18.13357 2.3509886e-038
-54.282764 248.35254 18.374043 2.3418409e-038
-51.655106 255.44438 18.898724 2.3418409e-038
-49.191944 264.66934 19.581219 2.3418409e-038
-48.965923 265.41544 19.636419 2.3418409e-038
-66.387711 260.87274 15.033823 2.3509886e-038
-65.407349 260.29578 15.000573 2.3418409e-038
-60.507042 257.55771 14.842781 2.3418409e-038
-55.610268 254.42609 14.662309 2.3418409e-038
-51.485359 254.60493 14.672616 2.3418409e-038
-48.26759 259.69598 14.966007 2.3418409e-038
-46.165516 264.98038 15.270541 2.3418409e-038
-68.095863 277.30307 11.445461 2.3509886e-038
-63.927792 272.11868 11.23148 2.3509886e-038
-57.656563 263.78821 10.887646 2.3418409e-038
-52.5555 259.897 10.727038 2.3418409e-038
-48.712337 262.0889 10.817508 2.3418409e-038
-45.490021 268.36633 11.076604 2.3418409e-038
-43.464554 275.59113 11.374803 3.5733111e-043
-69.807426 291.02435 7.2521729 2.3509886e-038
-67.635056 287.89926 7.1742973 2.3509886e-038
-60.70055 277.71497 6.9205098 2.3509886e-038
-54.79034 270.9487 6.7518983 2.3418409e-038
-50.116562 269.64407 6.7193875 2.3418409e-038
-46.246037 272.82645 6.7986903 2.3418409e-038
-42.859875 279.8511 6.9737415 2.3509886e-038
-39.638424 289.52209 7.2147369 2.3509886e-038
-121.64914 308.77084 2.6445332 2.3509528e-038
-118.35858 309.74286 2.6528585 2.3509528e-038
-113.85432 311.27808 2.666007 2.3509528e-038
-112.39808 311.80804 2.6705461 2.3509528e-038
-71.451607 300.97278 2.5777452 2.3509886e-038
-70.451523 299.88797 2.5684538 2.3509886e-038
-63.972115 292.68292 2.5067449 2.3509886e-038
-57.807117 285.86725 2.4483705 2.3509886e-038
-52.24651 281.10394 2.4075742 2.3509886e-038
-47.457691 279.97452 2.3979008 2.3509886e-038
-43.310085 282.79071 2.4220209 2.3509886e-038
-39.52306 288.91623 2.4744842 2.3509886e-038
-35.517231 294.88846 2.5256345 2.3509886e-038
-34.003536 296.52628 2.5396621 2.3509886e-038
-120.99092 304.93451 -2.3754542 2.3509528e-038
-116.92372 305.98785 -2.3836598 2.3509528e-038
-112.85739 308.55243 -2.4036381 2.3509528e-038
-108.96 311.84058 -2.4292526 2.3509528e-038
-105.95046 314.89261 -2.4530284 2.3509528e-038
-72.278061 305.20114 -2.3775313 2.3509886e-038
-71.60247 304.78717 -2.3743062 2.3509886e-038
-65.928001 301.63141 -2.3497229 2.3509886e-038
-60.246357 297.92975 -2.3208866 2.3509886e-038
-54.500557 293.23145 -2.284287 2.3509886e-038
-49.015923 289.16727 -2.2526264 2.3509886e-038
-44.065979 287.72629 -2.2414012 2.3509886e-038
-39.585258 289.37088 -2.2542129 2.3509886e-038
-35.104221 291.45938 -2.2704823 2.3509886e-038
-30.480885 292.83707 -2.2812145 2.3509886e-038
-25.938719 295.65381 -2.3031573 2.3509886e-038
-25.561186 296.02618 -2.3060579 2.3509886e-038
-118.59463 303.22107 -7.3212032 2.3509528e-038
-116.12312 303.8927 -7.33742 2.3509528e-038
-112.12746 306.55682 -7.4017439 2.3509528e-038
-108.39907 310.23517 -7.4905572 2.3509528e-038
-104.58009 314.00281 -7.5815258 2.3509528e-038
-101.26492 316.40131 -7.6394372 2.3509528e-038
-72.339104 305.5108 -7.3764877 2.3509886e-038
-71.716133 305.27097 -7.3706975 2.3509886e-038
-66.489082 304.19849 -7.3448024 2.3509886e-038
-61.402878 303.64896 -7.3315344 2.3509886e-038
-56.097107 301.82144 -7.2874098 2.3509886e-038
-50.546764 298.19836 -7.1999316 2.3509886e-038
-45.041435 294.09549 -7.1008682 2.3509886e-038
-39.812046 291.02875 -7.0268221 2.3509886e-038
-34.712646 288.20825 -6.9587221 2.3509886e-038
-29.695192 285.28873 -6.8882308 2.3509886e-038
-25.047607 285.49677 -6.8932538 2.3509886e-038
-20.720789 290.29376 -7.0090761 2.3509886e-038
-16.263269 295.56702 -7.1363974 2.3509886e-038
-12.852581 297.94003 -7.1936941 2.3509886e-038
-116.07944 304.28448 -12.323367 2.3509528e-038
-111.9766 306.14435 -12.398691 2.3509528e-038
-107.89484 308.79208 -12.505923 2.3509528e-038
-103.8776 311.89359 -12.631532 2.3509528e-038
-99.62532 314.5733 -12.740059 2.3509528e-038
-96.583275 316.12924 -12.803074 2.3509886e-038
-72.481789 305.66476 -12.379269 2.3509886e-038
-71.764557 305.47711 -12.371669 2.3509886e-038
-66.718307 305.24719 -12.362356 2.3509886e-038
-61.830936 305.76581 -12.383361 2.3509886e-038
-56.837749 305.80634 -12.385001 2.3509886e-038
-51.592419 304.36716 -12.326715 2.3509886e-038
-45.877056 299.55161 -12.131688 2.3509886e-038
-39.870945 291.45926 -11.803952 2.3509886e-038
-33.916851 281.60098 -11.404696 2.3509886e-038
-28.469421 273.51245 -11.077116 2.3418052e-038
-23.981455 273.3446 -11.070318 2.3418052e-038
-20.120909 281.88959 -11.416386 2.3509886e-038
-16.013306 291.02417 -11.786331 2.3509886e-038
-11.404116 294.91434 -11.943881 2.3509886e-038
-6.5831265 295.0163 -11.948009 2.3509886e-038
-5.0934052 294.4906 -11.92672 2.3509886e-038
-113.72311 308.02863 -17.512751 2.3509528e-038
-112.63981 307.95755 -17.508707 2.3509528e-038
-107.77301 308.44342 -17.536331 2.3509528e-038
-103.31972 310.21854 -17.637255 2.3509528e-038
-99.014633 312.64502 -17.775209 2.3509528e-038
-94.53759 314.76324 -17.895641 2.3509886e-038
-91.610542 316.07523 -17.970232 2.3509886e-038
-73.464287 307.11734 -17.460939 2.3509886e-038
-72.027573 306.59668 -17.431335 2.3509886e-038
-66.888123 306.02414 -17.398785 2.3509886e-038
-61.968201 306.44458 -17.422689 2.3509886e-038
-57.036297 306.8746 -17.447138 2.3509886e-038
-51.67207 304.83707 -17.331295 2.3509886e-038
-45.316685 295.8927 -16.822771 2.3509886e-038
-38.436649 280.97449 -15.974604 2.3509886e-038
-32.036041 265.98523 -15.1224 2.3418052e-038
-26.945768 258.87436 -14.718117 2.3418052e-038
-23.174597 264.14789 -15.01794 2.3418052e-038
-19.810556 277.54156 -15.779428 2.3418052e-038
-15.8783 288.57059 -16.406475 2.3509886e-038
-11.270018 291.4465 -16.569983 2.3509886e-038
-6.4732389 290.0918 -16.492962 2.3509886e-038
-1.7198359 288.5762 -16.406796 2.3509886e-038
0.9937079 288.0011 -16.374098 2.3509886e-038
-109.96635 309.70697 -22.67334 2.3509528e-038
-108.00764 309.11493 -22.629999 2.3509528e-038
-102.97501 309.18353 -22.635021 2.3509528e-038
-98.424767 310.7825 -22.752079 2.3509528e-038
-93.976402 312.89474 -22.906713 2.3509528e-038
-89.452309 314.98361 -23.059639 2.3509886e-038
-84.410072 315.39178 -23.089521 2.3509886e-038
-83.762093 315.20233 -23.075649 2.3509886e-038
-77.756294 311.48422 -22.803452 2.3509886e-038
-72.430641 308.31241 -22.571247 2.3509886e-038
-67.050865 306.76868 -22.458231 2.3509886e-038
-61.963379 306.42075 -22.43276 2.3509886e-038
-56.622738 304.64951 -22.303087 2.3509886e-038
-50.006111 295.00882 -21.597303 2.3509886e-038
-41.968643 274.03189 -20.061604 2.3509886e-038
-34.851864 254.76947 -18.651421 2.3418052e-038
-29.640528 246.09602 -18.016447 2.3418052e-038
-26.00486 249.83484 -18.290161 2.3418052e-038
-23.109547 263.40643 -19.283724 2.3418052e-038
-19.909094 278.92209 -20.419609 2.3418052e-038
-15.792508 287.01144 -21.011824 2.3509886e-038
-11.085345 286.67084 -20.986889 2.3509886e-038
-6.3535399 284.72757 -20.844624 2.3509886e-038
-1.7036532 285.86087 -20.927591 2.3509886e-038
2.9980803 288.4158 -21.114634 2.3509886e-038
3.8968635 288.99091 -21.15674 2.3509886e-038
-105.52682 309.89655 -27.755493 2.3509528e-038
-103.02591 309.33636 -27.705318 2.3509528e-038
-98.064812 309.6459 -27.733044 2.3509528e-038
-93.488281 311.26956 -27.878464 2.3509528e-038
-88.955772 313.23517 -28.054512 2.3509528e-038
-84.064255 314.09964 -28.131937 2.3509886e-038
-78.513458 312.45297 -27.984455 2.3509886e-038
-72.766403 309.74161 -27.741617 2.3509886e-038
-67.278008 307.80789 -27.568424 2.3509886e-038
-62.032169 306.76093 -27.474655 2.3509886e-038
-55.683048 299.59366 -26.832727 2.3509886e-038
-46.868614 276.4993 -24.764311 2.3509886e-038
-38.007233 248.16606 -22.226679 2.3418052e-038
-32.096985 234.6311 -21.014439 2.3418052e-038
-28.70812 238.35455 -21.347923 2.3418052e-038
-26.405081 253.67984 -22.720514 2.3418052e-038
-23.842081 271.75598 -24.339481 2.3418052e-038
-20.167044 282.53592 -25.304972 2.3509886e-038
-15.558011 282.74973 -25.324121 2.3509886e-038
-10.802769 279.36331 -25.020821 2.3509886e-038
-6.2529039 280.21768 -25.097342 2.3509886e-038
-1.7025678 285.67874 -25.586456 2.3509886e-038
3.0206163 290.58374 -26.025764 2.3509886e-038
5.4992208 292.29633 -26.17915 2.3509886e-038
-101.55479 310.53015 -32.890877 2.3509528e-038
-98.017357 309.49603 -32.781345 2.3509528e-038
-93.061867 309.84979 -32.818813 2.3509528e-038
-88.365578 311.15692 -32.957264 2.3509528e-038
-83.492981 311.96515 -33.042866 2.3509528e-038
-78.284103 311.54022 -32.99786 2.3509886e-038
-72.840309 310.05624 -32.840679 2.3509886e-038
-67.452637 308.60687 -32.687164 2.3509886e-038
-62.161228 307.39914 -32.559246 2.3509886e-038
-55.401867 298.08081 -31.57226 2.3509886e-038
-45.987907 271.30359 -28.736059 2.3509886e-038
-37.499397 244.85017 -25.934153 2.3418052e-038
-32.629478 238.52368 -25.264061 2.3418052e-038
-30.289564 251.48479 -26.636879 2.3418052e-038
-28.2981 271.86652 -28.795683 2.3418052e-038
-24.967369 284.58218 -30.142508 2.3509886e-038
-20.154175 282.35562 -29.906672 2.3509886e-038
-15.047745 273.4762 -28.966175 9.1476764e-041
-10.47918 270.99521 -28.703394 9.1476764e-041
-6.2111788 278.34781 -29.482172 2.3509886e-038
-1.7170545 288.1095 -30.516115 2.3509886e-038
3.0527766 293.67758 -31.105877 2.3509886e-038
6.3378692 295.47183 -31.295921 2.3509886e-038
-97.938141 310.28448 -37.939491 2.3509528e-038
-92.890297 309.27856 -37.816498 2.3509528e-038
-87.943596 309.67105 -37.864483 2.3509528e-038
-82.9813 310.05328 -37.911224 2.3509528e-038
-77.88369 309.94675 -37.898197 2.3509886e-038
-72.659599 309.28699 -37.817528 2.3509886e-038
-67.434982 308.52606 -37.724483 2.3509886e-038
-62.206856 307.62479 -37.614281 2.3509886e-038
-56.108593 301.88324 -36.912247 2.3509886e-038
-48.510738 286.18692 -34.993008 2.3509886e-038
-41.458447 270.70056 -33.099438 2.3509886e-038
-36.732388 268.5162 -32.832352 2.3509886e-038
-33.647686 279.36621 -34.159016 2.3509886e-038
-30.280058 290.90765 -35.570225 2.3509886e-038
-25.303701 288.41577 -35.26553 2.3509886e-038
-19.48259 272.94687 -33.3741 9.1476764e-041
-14.439587 262.42358 -32.087383 9.1476764e-041
-10.321485 266.91714 -32.636826 9.1476764e-041
-6.2742929 281.17621 -34.380329 2.3509886e-038
-1.7406857 292.07465 -35.712917 2.3509886e-038
3.08217 296.50522 -36.254654 2.3509886e-038
6.7254047 298.3912 -36.485264 2.3509886e-038
-95.130615 311.01187 -43.114948 2.3509528e-038
-93.26252 310.51788 -43.046463 2.3509528e-038
-87.898201 309.51117 -42.90691 2.3509528e-038
-82.646584 308.80264 -42.808685 2.3509528e-038
-77.47757 308.33054 -42.74324 2.3509886e-038
-72.34787 307.96008 -42.691883 2.3509886e-038
-67.238861 307.62881 -42.645962 2.3509886e-038
-62.126587 307.22784 -42.590378 2.3509886e-038
-56.831367 305.772 -42.388554 2.3509886e-038
-51.191555 302.00229 -41.865963 2.3509886e-038
-45.6073 297.79025 -41.282063 2.3509886e-038
-40.732964 297.76068 -41.277966 2.3509886e-038
-36.219074 300.71567 -41.687603 2.3509886e-038
-30.819792 296.09302 -41.046776 2.3509886e-038
-24.449423 278.67856 -38.632645 9.1476764e-041
-18.564484 260.08438 -36.054974 9.1476764e-041
-14.152658 257.20898 -35.656361 9.1476764e-041
-10.480709 271.03476 -37.572998 9.1476764e-041
-6.4201727 287.71368 -39.885162 9.1476764e-041
-1.7645576 296.08017 -41.044994 2.3509886e-038
3.1080725 298.99704 -41.449356 2.3509886e-038
7.0368414 301.75345 -41.83147 2.3509886e-038
-92.514091 312.28656 -48.399014 2.3509528e-038
-88.006821 309.89368 -48.028156 2.3509528e-038
-82.409752 307.91776 -47.721924 2.3509528e-038
-77.130424 306.94904 -47.571793 2.3509886e-038
-72.016319 306.54877 -47.509754 2.3509886e-038
-66.967873 306.38901 -47.484993 2.3509886e-038
-61.959846 306.40329 -47.487206 2.3509886e-038
-56.951641 306.41913 -47.489666 2.3509886e-038
-51.897625 306.16772 -47.450699 2.3509886e-038
-46.88588 306.13867 -47.446198 2.3509886e-038
-41.987503 306.93146 -47.569065 2.3509886e-038
-36.847042 305.92947 -47.413776 2.3509886e-038
-30.382668 291.89346 -45.238434 2.3509886e-038
-23.626883 269.3031 -41.737324 9.1476764e-041
-18.363588 257.2699 -39.872383 9.1476764e-041
-14.531879 264.10092 -40.931072 9.1476764e-041
-10.903619 281.97134 -43.70068 9.1476764e-041
-6.5788321 294.82382 -45.692593 2.3509886e-038
-1.7842666 299.38721 -46.399837 2.3509886e-038
3.1384461 301.91898 -46.792221 2.3509886e-038
7.5422277 306.65784 -47.526661 2.3509886e-038
-88.685745 310.08292 -53.128826 2.3509528e-038
-87.918892 309.58405 -53.043354 2.3509528e-038
-82.148537 306.94171 -52.590622 2.3509886e-038
-76.832848 305.7648 -52.388969 2.3509886e-038
-71.712891 305.25717 -52.301994 2.3509886e-038
-66.67366 305.04291 -52.265285 2.3509886e-038
-61.70443 305.1402 -52.281952 2.3509886e-038
-56.791759 305.55893 -52.353699 2.3509886e-038
-51.884983 306.09314 -52.445225 2.3509886e-038
-47.006542 306.92654 -52.588024 2.3509886e-038
-42.147526 308.10123 -52.789291 2.3509886e-038
-36.993477 307.14526 -52.625496 2.3509886e-038
-30.692305 294.86823 -50.52198 2.3509886e-038
-24.330818 277.32669 -47.51646 9.1476764e-041
-19.413977 271.9856 -46.601326 9.1476764e-041
-15.499643 281.68893 -48.263874 9.1476764e-041
-11.383271 294.37531 -50.437527 9.1476764e-041
-6.7064357 300.54227 -51.494156 2.3509886e-038
-1.8014643 302.27289 -51.790676 2.3509886e-038
3.1731017 305.25284 -52.301254 2.3509886e-038
8.1986275 312.96304 -53.622303 2.3509886e-038
-84.469803 307.56934 -57.728367 2.3509886e-038
-82.030327 306.50006 -57.527672 2.3509886e-038
-76.667061 305.10507 -57.265842 2.3509886e-038
-71.485466 304.28912 -57.112701 2.3509886e-038
-66.40033 303.79236 -57.019459 2.3509886e-038
-61.401443 303.64185 -56.991211 2.3509886e-038
-56.520012 304.09683 -57.076603 2.3509886e-038
-51.723869 305.14264 -57.272896 2.3509886e-038
-46.971359 306.69681 -57.564602 2.3509886e-038
-42.223362 308.65558 -57.932251 2.3509886e-038
-37.298592 309.67853 -58.124249 2.3509886e-038
-31.845018 305.94263 -57.423046 2.3509886e-038
-26.253332 299.23981 -56.164982 2.3509886e-038
-21.171507 296.60822 -55.671051 2.3509886e-038
-16.493336 299.74817 -56.260399 2.3509886e-038
-11.71983 303.0788 -56.885529 2.3509886e-038
-6.7926922 304.40775 -57.134964 2.3509886e-038
-1.8187435 305.17218 -57.278439 2.3509886e-038
3.2074196 308.55423 -57.913223 2.3509886e-038
8.430912 318.31436 -59.745129 2.3509886e-038
-80.46627 307.72357 -62.790051 2.3509886e-038
-76.977852 306.34186 -62.508114 2.3509886e-038
-71.568245 304.64148 -62.161163 2.3509886e-038
-66.344185 303.53552 -61.935493 2.3509886e-038
-61.277897 303.03091 -61.832527 2.3509886e-038
-56.374382 303.31329 -61.890148 2.3509886e-038
-51.610825 304.47577 -62.127346 2.3509886e-038
-46.912621 306.31326 -62.502289 2.3509886e-038
-42.234268 308.73535 -62.996498 2.3509886e-038
-37.46069 311.02435 -63.46357 2.3509886e-038
-32.452213 311.77606 -63.616955 2.3509886e-038
-27.271326 310.84308 -63.426575 2.3509886e-038
-22.096586 309.56839 -63.166477 2.3509886e-038
-16.983128 308.64963 -62.979012 2.3509886e-038
-11.89813 307.68973 -62.783146 2.3509886e-038
-6.8645654 307.62869 -62.770695 2.3509886e-038
-1.8407891 308.87131 -63.024246 2.3509886e-038
3.254653 313.09811 -63.886711 2.3509886e-038
7.8827896 322.59915 -65.825363 2.3509886e-038
-76.083031 308.89514 -68.081001 2.3509886e-038
-72.137672 307.06537 -67.677711 2.3509886e-038
-66.725258 305.27899 -67.283997 2.3509886e-038
-61.479404 304.0274 -67.008148 2.3509886e-038
-56.450153 303.72095 -66.940598 2.3509886e-038
-51.641991 304.65961 -67.147484 2.3509886e-038
-46.917316 306.34393 -67.518707 2.3509886e-038
-42.233547 308.73007 -68.044617 2.3509886e-038
-37.515137 311.47644 -68.649925 2.3509886e-038
-32.625504 313.44092 -69.082901 2.3509886e-038
-27.556229 314.09045 -69.226059 2.3509886e-038
-22.38851 313.65817 -69.130783 2.3509886e-038
-17.187689 312.36728 -68.846268 2.3509886e-038
-12.02743 311.03345 -68.552292 2.3509886e-038
-6.9458933 311.27332 -68.605156 2.3509886e-038
-1.8708272 313.91147 -69.186607 2.3509886e-038
3.3323119 320.56891 -70.653923 2.3509886e-038
6.7946267 328.43304 -72.387192 2.3509886e-038
-71.291542 311.9632 -73.859306 2.3509886e-038
-67.804138 310.21503 -73.445412 2.3509886e-038
-62.123219 307.21118 -72.734238 2.3509886e-038
-56.842197 305.83026 -72.407288 2.3509886e-038
-51.932728 306.37479 -72.536209 2.3509886e-038
-47.13744 307.78122 -72.869186 2.3509886e-038
-42.391716 309.88629 -73.367592 2.3509886e-038
-37.631172 312.43985 -73.97216 2.3509886e-038
-32.74324 314.57202 -74.476967 2.3509886e-038
-27.699335 315.72159 -74.74913 2.3509886e-038
-22.546101 315.866 -74.783318 2.3509886e-038
-17.342155 315.17459 -74.619621 2.3509886e-038
-12.159541 314.44992 -74.448051 2.3509886e-038
-7.0360999 315.31583 -74.653053 2.3509886e-038
-1.902975 319.30563 -75.597664 2.3509886e-038
3.4167149 328.68851 -77.819122 2.3509886e-038
5.0038066 332.92349 -78.821785 2.3509886e-038
-64.876465 314.01706 -79.481232 2.3509886e-038
-63.279137 312.92743 -79.205429 2.3509886e-038
-57.814476 311.06146 -78.733139 2.3509886e-038
-52.683384 310.80325 -78.667786 2.3509886e-038
-47.696095 311.42892 -78.826141 2.3509886e-038
-42.800583 312.87512 -79.192192 2.3509886e-038
-37.925594 314.88434 -79.700745 2.3509886e-038
-33.014065 317.17392 -80.280266 2.3509886e-038
-27.994337 319.08408 -80.763748 2.3509886e-038
-22.838589 319.96365 -80.986382 2.3509886e-038
-17.600754 319.87433 -80.963768 2.3509886e-038
-12.357239 319.56244 -80.884827 2.3509886e-038
-7.1552463 320.65524 -81.16143 2.3509886e-038
-1.9363914 324.91266 -82.239029 2.3509886e-038
1.8471154 331.19083 -83.828102 2.3509886e-038
-56.248383 319.57681 -86.115044 2.3509886e-038
-54.021851 318.69949 -85.878639 2.3509886e-038
-48.700413 317.98657 -85.686531 2.3509886e-038
-43.532768 318.22748 -85.75145 2.3509886e-038
-38.472713 319.42688 -86.074654 2.3509886e-038
-33.578545 322.59698 -86.928886 2.3509886e-038
-28.655502 326.62015 -88.012993 2.3509886e-038
-23.518211 329.48505 -88.784988 2.3509886e-038
-18.190554 330.59326 -89.083603 2.3509886e-038
-12.764537 330.09528 -88.949417 2.3509886e-038
-7.3754096 330.52167 -89.064316 2.3509886e-038
-3.9884863 331.93207 -89.444366 2.3509886e-038
-41.608032 325.64267 -93.075394 2.3509886e-038
-39.248932 325.87161 -93.140831 2.3509886e-038
-34.430096 330.77805 -94.54319 2.3509886e-038
-29.771917 339.34521 -96.991867 2.3509886e-038
-24.720665 346.33115 -98.988586 2.3509886e-038
-19.204567 349.02182 -99.757645 2.3509886e-038
-18.192307 348.96429 -99.741196 2.3509886e-038
-119.01566 311.46243 4.4257011 2.3509528e-038
-116.21243 304.12643 -12.020622 2.3509528e-038
-114.02776 311.75223 3.3722408 2.3509528e-038
-112.92548 308.73859 -18.821409 2.3509528e-038
-109.2202 312.58524 0.65535897 2.3509528e-038
-108.19909 309.66284 -24.628023 2.3509528e-038
-105.0623 315.45065 -3.4666655 2.3509528e-038
-103.36768 310.36255 -30.528875 2.3509528e-038
-100.17526 316.30978 -8.8208313 2.3509886e-038
-98.270866 310.29651 -37.409615 2.3509528e-038
-94.941818 316.1091 -14.587682 2.3509886e-038
-93.72406 312.05457 -46.214859 2.3509528e-038
-89.743263 316.00812 -19.564844 2.3509886e-038
-87.890762 309.48499 -53.983925 2.3509528e-038
-63.721703 238.09126 30.48741 2.3509886e-038
-65.352051 244.18295 19.522659 2.3509886e-038
-84.415024 315.41028 -22.821503 2.3509886e-038
-82.225502 307.22931 -60.441257 2.3509886e-038
-66.773178 265.73123 39.464603 2.3418409e-038
-66.964317 266.49191 13.913745 2.3509886e-038
-78.401985 312.00937 -23.094328 2.3509886e-038
-77.531685 308.54593 -66.415855 2.3509886e-038
-65.670036 279.53482 71.472794 3.5733111e-043
-72.919365 310.3927 -71.764633 2.3509886e-038
-61.007847 279.12088 72.810188 3.5733111e-043
-68.594757 313.83221 -76.795921 2.3509886e-038
-55.464733 274.28372 59.021721 2.3418409e-038
-63.548908 314.26151 -80.431252 2.3509886e-038
-49.554134 266.61804 20.539633 2.3418409e-038
-59.054409 317.73273 -84.208252 2.3509886e-038
-45.303261 267.26456 13.965368 2.3418409e-038
-54.300835 320.34534 -87.14006 2.3509886e-038
-42.742104 279.08212 10.457681 2.3509886e-038
-49.453136 322.90143 -89.741547 2.3509886e-038
-39.614212 289.58255 7.1920614 2.3509886e-038
-44.455772 324.9747 -92.096352 2.3509886e-038
-35.641903 295.92355 3.7764907 2.3509886e-038
-39.334064 326.57843 -93.843033 2.3509886e-038
-30.81963 296.09146 0.35035026 2.3509886e-038
-34.633663 332.7338 -96.1866 2.3509886e-038
-25.963465 295.93588 -2.1591632 2.3509886e-038
-30.043852 342.44476 -98.989792 2.3509886e-038
-21.225788 297.36868 -3.6257446 2.3509886e-038
-24.924988 349.19366 -100.60928 2.3509886e-038
-16.397188 298.00082 -5.3932652 2.3509886e-038
-19.240343 349.67206 -100.11883 2.3509886e-038
-11.518382 297.86932 -8.0018272 2.3509886e-038
-13.289335 343.66675 -97.068489 2.3509886e-038
-6.6029205 295.90332 -11.05255 2.3509886e-038
-7.5012846 336.16263 -92.668518 2.3509886e-038
-1.7321519 290.64273 -13.938569 2.3509886e-038
-1.970594 330.65164 -87.644478 2.3509886e-038
2.9941981 288.0423 -19.250496 2.3509886e-038
3.4561832 332.48535 -81.737602 2.3509886e-038
