# .PCD v0.7 - Point Cloud Data file format
VERSION 0.7
FIELDS x y z rgb
SIZE 4 4 4 4
TYPE F F F F
COUNT 1 1 1 1
WIDTH 720
HEIGHT 1
VIEWPOINT 0 0 0 1 0 0 0
POINTS 720
DATA ascii
0 0 0 2.3418052e-038
-17.986704 224.65077 82.527229 9.1476764e-041
-49.541801 214.67474 68.751884 3.5733111e-043
-86.738579 233.12585 41.722351 2.3509528e-038
-95.801285 245.07471 -1.1542323 2.3418409e-038
-19.651754 222.4249 86.605202 9.1476764e-041
-19.355206 222.30037 86.556709 9.1476764e-041
-16.657988 221.52994 86.256729 9.1476764e-041
-22.582094 225.97476 83.676796 9.1476764e-041
-19.510229 224.08086 82.975494 9.1476764e-041
-15.157466 222.92967 82.549217 9.1476764e-041
-13.097243 224.06155 82.968338 9.1476764e-041
-22.857407 228.80777 80.361191 9.1476764e-041
-19.728247 226.58487 79.580467 9.1476764e-041
-15.243487 224.19484 78.741043 9.1476764e-041
-11.045952 224.92189 78.996399 9.1476764e-041
-54.012135 214.07027 71.101601 3.5733111e-043
-51.23431 213.76776 71.001129 3.5733111e-043
-47.26326 214.25148 71.161781 3.5733111e-043
-45.179138 215.45575 71.561775 3.5733111e-043
-22.219707 231.18411 76.785812 9.1476764e-041
-19.982962 229.51033 76.229889 9.1476764e-041
-15.38054 226.21056 75.133888 9.1476764e-041
-11.022412 225.33122 74.841827 9.1476764e-041
-9.4614849 225.93515 75.042419 9.1476764e-041
-54.393501 215.79784 67.558914 3.5733111e-043
-51.598095 215.28561 67.398552 3.5733111e-043
-47.463539 215.15938 67.359032 3.5733111e-043
-43.573902 216.22455 67.692505 3.5733111e-043
-42.312317 216.85838 67.890938 3.5733111e-043
-21.168968 233.3931 73.06739 9.1476764e-041
-20.240215 232.46498 72.776833 9.1476764e-041
-15.520129 228.26357 71.461517 9.1476764e-041
-11.076909 226.4453 70.892273 9.1476764e-041
-8.0092993 226.73067 70.981606 9.1476764e-041
-53.875221 218.23596 64.159233 3.5733111e-043
-52.186363 217.74007 64.013443 3.5733111e-043
-47.70929 216.27339 63.582249 3.5733111e-043
-43.483585 215.77638 63.436134 3.5733111e-043
-39.685966 216.38646 63.615486 3.5733111e-043
-19.915474 235.00632 69.089546 9.1476764e-041
-15.64984 230.17131 67.668106 9.1476764e-041
-11.127203 227.47345 66.874962 9.1476764e-041
-6.7867665 227.4317 66.862679 9.1476764e-041
-6.5780568 227.5699 66.903305 9.1476764e-041
-53.135811 221.85425 60.990959 3.5733111e-043
-48.251324 218.73051 60.132195 3.5733111e-043
-43.723026 216.96457 59.646713 3.5733111e-043
-39.626797 217.19753 59.710754 3.5733111e-043
-37.796516 218.52525 60.075771 3.5733111e-043
-18.593964 235.01428 64.608841 9.1476764e-041
-15.758733 231.77284 63.717724 9.1476764e-041
-11.188626 228.72913 62.880962 9.1476764e-041
-6.8160238 228.41216 62.793819 9.1476764e-041
-5.1238704 229.15991 62.99939 9.1476764e-041
-51.391579 222.55624 56.938549 3.5733111e-043
-48.683655 220.69034 56.461174 3.5733111e-043
-44.114952 218.90938 56.005539 3.5733111e-043
-39.967316 219.06395 56.045082 3.5733111e-043
-36.205334 221.61517 56.697784 3.5733111e-043
-36.099117 221.75877 56.73452 3.5733111e-043
-17.508492 234.87878 60.091125 9.1476764e-041
-15.856682 233.21344 59.66507 9.1476764e-041
-11.261116 230.21104 58.896938 9.1476764e-041
-6.8562169 229.75905 58.781303 9.1476764e-041
-3.5487287 231.26357 59.166214 9.1476764e-041
-49.28331 222.01126 52.564117 3.5733111e-043
-48.947971 221.88852 52.535053 3.5733111e-043
-44.524231 220.94034 52.310558 3.5733111e-043
-40.250622 220.61678 52.233952 3.5733111e-043
-36.210964 221.64967 52.478504 3.5733111e-043
-33.896744 223.07874 52.816856 3.5733111e-043
-16.79763 235.80362 55.829639 9.1476764e-041
-15.984019 235.08627 55.659798 9.1476764e-041
-11.353333 232.09624 54.95187 9.1476764e-041
-6.9008808 231.2558 54.752884 9.1476764e-041
-2.5060918 232.79321 55.116886 9.1476764e-041
-1.858435 233.32196 55.242073 9.1476764e-041
-47.877712 224.22652 48.811348 2.3509886e-038
-45.089993 223.74779 48.707134 3.5733111e-043
-40.55304 222.27435 48.386383 3.5733111e-043
-36.248249 221.87788 48.300079 3.5733111e-043
-32.28577 223.74893 48.707386 3.5733111e-043
-31.514555 224.6329 48.899815 3.5733111e-043
-16.169344 237.42522 51.684544 9.1476764e-041
-16.141613 237.4041 51.679943 9.1476764e-041
-11.473358 234.54993 51.058624 9.1476764e-041
-6.9591551 233.20863 50.766644 9.1476764e-041
-2.5158625 233.70082 50.873787 9.1476764e-041
-0.15471004 234.91925 51.139023 2.3509886e-038
-90.177841 233.17253 46.310871 2.3509528e-038
-86.899612 232.84868 46.246548 2.3509528e-038
-83.725777 232.97719 46.272072 2.3509528e-038
-46.761753 227.63171 45.2104 3.5733111e-043
-45.794579 227.24413 45.133419 3.5733111e-043
-40.973717 224.58011 44.604313 3.5733111e-043
-36.441002 223.05774 44.301952 3.5733111e-043
-32.352314 224.2101 44.530823 3.5733111e-043
-29.048847 226.66899 45.019188 3.5733111e-043
-15.476439 239.36063 47.539902 9.1476764e-041
-11.591824 236.97171 47.065434 9.1476764e-041
-7.0149956 235.07988 46.689693 9.1476764e-041
-2.5273151 234.76469 46.627094 9.1476764e-041
1.5706559 236.44481 46.960785 2.3509886e-038
-91.484756 234.49388 42.100189 2.3509528e-038
-87.11274 233.41974 41.907345 2.3509528e-038
-82.127151 231.91475 41.637142 2.3509528e-038
-77.38578 230.96727 41.467037 2.3509528e-038
-76.47126 230.95061 41.464046 2.3509528e-038
-45.323982 229.70667 41.240711 2.3509886e-038
-41.398846 226.91028 40.738659 3.5733111e-043
-36.710739 224.70882 40.343414 3.5733111e-043
-32.466862 225.00394 40.396404 3.5733111e-043
-28.397234 226.78058 40.715374 3.5733111e-043
-26.547962 228.4272 41.011002 3.5733111e-043
-14.865229 241.41888 43.343479 9.1476764e-041
-11.706178 239.30946 42.964764 9.1476764e-041
-7.0710707 236.95905 42.542778 9.1476764e-041
-2.5443647 236.34842 42.433151 9.1476764e-041
1.9751387 237.67223 42.670818 2.3509886e-038
3.3964863 239.38896 42.979034 2.3509886e-038
23.071796 291.32455 52.303368 2.3509886e-038
24.540319 290.0307 52.071072 2.3509886e-038
29.730951 286.73337 51.47908 2.3509886e-038
31.559807 286.12299 51.369495 2.3509886e-038
-89.987877 235.89874 37.852501 2.3509528e-038
-87.482422 234.41031 37.613663 2.3509528e-038
-81.946495 231.40459 37.131363 2.3509528e-038
-77.089111 230.0818 36.919106 2.3509528e-038
-72.71817 230.13884 36.928257 2.3509528e-038
-70.980019 230.66821 37.013203 2.3509528e-038
-43.552574 230.53979 36.992599 2.3509886e-038
-41.835258 229.30229 36.794025 2.3509886e-038
-37.051144 226.79247 36.3913 3.5733111e-043
-32.640175 226.20505 36.297039 3.5733111e-043
-28.430044 227.0426 36.431435 3.5733111e-043
-24.350307 229.40955 36.811237 3.5733111e-043
-24.001877 229.76347 36.868027 3.5733111e-043
-14.33696 243.88269 39.13361 9.1476764e-041
-11.85753 242.40352 38.896259 9.1476764e-041
-7.1454282 239.45082 38.42247 9.1476764e-041
-2.5658441 238.34367 38.244812 9.1476764e-041
1.9880391 239.22455 38.386158 2.3509886e-038
5.4496388 245.20567 39.345894 2.3509886e-038
18.862675 291.24121 46.732792 2.3509886e-038
19.090118 291.28683 46.740112 2.3509886e-038
24.31378 287.3533 46.10894 2.3509886e-038
29.430532 283.83603 45.544552 2.3509886e-038
31.061075 283.41696 45.47731 2.3509886e-038
-85.746933 234.90265 33.21175 2.3509528e-038
-82.670135 233.44804 33.006092 2.3509528e-038
-77.496559 231.29788 32.702087 2.3509528e-038
-72.658913 229.95128 32.5117 2.3509528e-038
-68.252625 229.88451 32.502258 2.3509528e-038
-65.718559 230.84491 32.638046 2.3509528e-038
-41.766205 232.0365 32.806519 2.3509886e-038
-37.567505 229.95313 32.511959 3.5733111e-043
-32.936329 228.25746 32.272221 3.5733111e-043
-28.522774 227.78314 32.205158 3.5733111e-043
-24.321856 229.14151 32.397209 3.5733111e-043
-21.420605 233.02321 32.946026 3.5733111e-043
-13.88358 246.61891 34.868256 9.1476764e-041
-12.040258 246.13907 34.800415 9.1476764e-041
-7.2322826 242.3614 34.266308 9.1476764e-041
-2.5861766 240.23238 33.965294 9.1476764e-041
1.9975036 240.36346 33.983829 2.3509886e-038
6.8259649 249.25009 35.240265 2.3509886e-038
7.9873362 253.37573 35.823574 2.3509886e-038
15.517048 284.75925 40.260735 2.3509886e-038
19.024038 290.27856 41.041084 2.3509886e-038
24.273212 286.87387 40.559711 2.3509886e-038
29.48373 284.34909 40.202744 2.3509886e-038
30.589981 284.34073 40.201565 2.3509886e-038
-81.816689 236.31161 28.903166 2.3509528e-038
-78.38311 233.94389 28.613571 2.3509528e-038
-72.944427 230.85487 28.235754 2.3509528e-038
-68.17659 229.62842 28.085747 2.3509528e-038
-63.934998 230.12769 28.146812 2.3509528e-038
-60.677471 231.61218 28.328379 2.3509528e-038
-40.054039 235.04816 28.748632 2.3509886e-038
-38.252621 234.14677 28.638386 2.3509886e-038
-33.360527 231.19728 28.277634 3.5733111e-043
-28.721317 229.36871 28.053982 3.5733111e-043
-24.402308 229.89944 28.118896 3.5733111e-043
-20.368652 233.94012 28.61311 3.5733111e-043
-17.725042 239.51543 29.295021 3.5733111e-043
-14.697999 246.42731 30.140411 9.1476764e-041
-12.108056 247.52504 30.274673 9.1476764e-041
-7.2755337 243.81081 29.820389 9.1476764e-041
-2.5981483 241.34444 29.518726 2.3509886e-038
2.0022779 240.93793 29.469009 2.3509886e-038
6.7704229 247.22198 30.23761 2.3509886e-038
12.550537 270.12714 33.039127 2.3509886e-038
18.87751 288.04272 35.230377 2.3509886e-038
24.298624 287.17419 35.124146 2.3509886e-038
29.706131 286.49399 35.040947 2.3509886e-038
30.536461 286.74149 35.07122 2.3509886e-038
-77.155914 235.36591 24.297747 2.3509528e-038
-73.787277 233.52234 24.107426 2.3509528e-038
-68.681061 231.32756 23.88085 2.3509528e-038
-63.955387 230.20108 23.764561 2.3509528e-038
-59.619572 230.41524 23.786667 2.3509528e-038
-55.520302 231.65045 23.914185 2.3509886e-038
-55.360306 231.70554 23.919868 2.3509886e-038
-38.108322 237.85342 24.554541 2.3509886e-038
-33.842075 234.53455 24.211922 2.3509886e-038
-28.990122 231.51538 23.900238 3.5733111e-043
-24.490746 230.73265 23.819435 3.5733111e-043
-20.300428 233.15652 24.069664 3.5733111e-043
-16.292664 239.62566 24.737495 2.3509886e-038
-11.950151 244.297 25.219736 2.3509886e-038
-7.2544508 243.10428 25.096607 2.3509886e-038
-2.604269 241.91299 24.973625 2.3509886e-038
2.0085475 241.69238 24.950851 2.3509886e-038
6.7254434 245.57957 25.35214 2.3509886e-038
12.283177 264.37271 27.292231 2.3509886e-038
18.588249 283.62903 29.280136 2.3509886e-038
24.306566 287.26804 29.655806 2.3509886e-038
29.873878 288.11179 29.742908 2.3509886e-038
30.879974 288.49146 29.782103 2.3509886e-038
-73.340813 236.53635 19.906496 2.3509528e-038
-69.50515 234.10321 19.701727 2.3509528e-038
-64.130447 230.83119 19.426359 2.3509528e-038
-59.422718 229.65445 19.327326 2.3509528e-038
-55.218487 230.39117 19.389328 2.3509528e-038
-51.152199 231.88062 19.514679 2.3509886e-038
-50.174339 232.42668 19.560633 2.3509886e-038
-36.216572 240.30144 20.223358 2.3509886e-038
-34.493767 239.05093 20.118118 2.3509886e-038
-29.421944 234.96393 19.774162 2.3509886e-038
-24.663338 232.35867 19.554909 2.3509886e-038
-20.268978 232.79533 19.591658 2.3509886e-038
-16.053125 236.10265 19.869997 2.3509886e-038
-11.742135 240.04453 20.201736 2.3509886e-038
-7.2172737 241.85846 20.354393 2.3509886e-038
-2.6078603 242.24661 20.38706 2.3509886e-038
2.0152097 242.49406 20.407887 2.3509886e-038
6.6950064 244.46817 20.574024 2.3509886e-038
11.971895 257.67294 21.685316 2.3509886e-038
18.169073 277.23303 23.331459 2.3509886e-038
24.265543 286.7832 24.135187 2.3509886e-038
29.997889 289.30777 24.347649 2.3509886e-038
31.669069 289.86478 24.394526 2.3509886e-038
-68.948425 236.45453 15.389094 2.3509528e-038
-64.83313 233.36041 15.18772 2.3509528e-038
-59.749954 230.91914 15.028835 2.3509528e-038
-55.260616 230.56697 15.005916 2.3509528e-038
-51.037384 231.36014 15.057537 2.3509528e-038
-46.975224 233.10278 15.170953 2.3509528e-038
-44.831383 234.62933 15.270305 2.3509886e-038
-35.355415 242.71977 15.796851 2.3509886e-038
-35.007912 242.61409 15.789974 2.3509886e-038
-29.952482 239.20081 15.567828 2.3509886e-038
-24.970301 235.25064 15.310741 2.3509886e-038
-20.3279 233.47205 15.194986 2.3509886e-038
-15.912699 234.03731 15.231774 2.3509886e-038
-11.591748 236.97017 15.422653 2.3509886e-038
-7.1644449 240.08809 15.625576 2.3509886e-038
-2.6012661 241.63406 15.726192 2.3509886e-038
2.0157671 242.56113 15.786529 2.3509886e-038
6.6744714 243.71832 15.861841 2.3509886e-038
11.694784 251.70863 16.38187 2.3509886e-038
17.69445 269.991 17.571737 2.3509886e-038
24.099215 284.81744 18.536684 2.3509886e-038
30.037878 289.69345 18.854025 2.3509886e-038
32.643715 290.62839 18.914873 2.3509886e-038
-64.045357 236.32434 10.872585 2.3509528e-038
-60.600254 234.20535 10.775097 2.3509528e-038
-55.631554 232.11462 10.678908 2.3509528e-038
-50.98922 231.14178 10.634151 2.3509528e-038
-46.72028 231.83769 10.666167 2.3509528e-038
-42.74424 234.28448 10.778738 2.3509886e-038
-38.914989 238.20119 10.958933 2.3509886e-038
-34.777573 241.01779 11.088517 2.3509886e-038
-30.069605 240.13614 11.047956 2.3509886e-038
-25.211628 237.52425 10.927789 2.3509886e-038
-20.464649 235.04268 10.81362 2.3509886e-038
-15.894914 233.77576 10.755332 2.3509886e-038
-11.500584 235.10649 10.816556 2.3509886e-038
-7.1012006 237.96872 10.948238 2.3509886e-038
-2.5873737 240.3436 11.0575 2.3509886e-038
2.0112445 242.01694 11.134485 2.3509886e-038
6.6673293 243.45752 11.200763 2.3509886e-038
11.557492 248.75368 11.444423 2.3509886e-038
17.381838 265.22101 12.202036 2.3509886e-038
23.888147 282.32294 12.988845 2.3509886e-038
29.942591 288.77448 13.28566 2.3509886e-038
33.472839 290.31458 13.356517 2.3509886e-038
-58.960262 237.38084 6.3930054 2.3509528e-038
-56.62125 236.244 6.3623886 2.3509528e-038
-51.542282 233.64893 6.2924991 2.3509528e-038
-46.906719 232.76285 6.2686353 2.3509528e-038
-42.684208 233.95544 6.3007541 2.3509886e-038
-38.573975 236.1138 6.3588815 2.3509886e-038
-34.319244 237.84146 6.4054098 2.3509886e-038
-29.843285 238.32874 6.4185333 2.3509886e-038
-25.243912 237.82838 6.4050579 2.3509886e-038
-20.578421 236.34937 6.3652258 2.3509886e-038
-15.964924 234.8054 6.3236451 2.3509886e-038
-11.480864 234.70335 6.3208961 2.3509886e-038
-7.0454326 236.09987 6.3585067 2.3509886e-038
-2.5686114 238.60074 6.4258585 2.3509886e-038
2.0066326 241.46193 6.5029149 2.3509886e-038
6.6878753 244.20776 6.5768642 2.3509886e-038
11.570335 249.03011 6.7067361 2.3509886e-038
17.256016 263.30115 7.0910749 2.3509886e-038
23.678627 279.84674 7.5366721 2.3509886e-038
29.752851 286.94458 7.7278271 2.3509886e-038
34.171711 289.11774 7.7863531 2.3509886e-038
-100.81473 246.67563 1.9378352 2.3418409e-038
-95.362663 243.09985 1.9097447 2.3418409e-038
-93.646965 242.9334 1.908437 2.3418409e-038
-54.655903 241.08725 1.8939341 2.3509528e-038
-52.928394 239.93239 1.8848617 2.3509528e-038
-47.854515 237.46603 1.8654866 2.3509528e-038
-43.052303 235.97302 1.8537576 2.3509886e-038
-38.503769 235.68407 1.8514878 2.3509886e-038
-34.090145 236.25372 1.8559629 2.3509886e-038
-29.65831 236.85155 1.8606592 2.3509886e-038
-25.162199 237.05855 1.8622854 2.3509886e-038
-20.593367 236.52104 1.8580629 2.3509886e-038
-16.019695 235.61098 1.8509136 2.3509886e-038
-11.487364 234.83624 1.8448273 2.3509886e-038
-7.0016804 234.63368 1.8432362 2.3509886e-038
-2.5465834 236.55452 1.858326 2.3509886e-038
2.0024416 240.95764 1.892916 2.3509886e-038
6.728755 245.70049 1.9301747 2.3509886e-038
11.642393 250.58099 1.9685152 2.3509886e-038
17.14286 261.57455 2.0548785 2.3509886e-038
23.405258 276.61591 2.1730404 2.3509886e-038
29.607023 285.53818 2.2431319 2.3509886e-038
34.664528 288.5708 2.2669556 2.3509886e-038
-102.82637 249.375 -2.7979426 2.3418409e-038
-102.44802 249.05112 -2.7943089 2.3418409e-038
-96.089928 244.95381 -2.7483375 2.3418409e-038
-91.488495 245.14464 -2.7504787 2.3418409e-038
-87.324684 246.5918 -2.7667155 2.3418409e-038
-83.170586 248.2327 -2.7851262 2.3418409e-038
-78.657471 248.93555 -2.7930119 2.3418409e-038
-78.166046 248.87425 -2.7923241 2.3418409e-038
-52.903084 249.73407 -2.8019712 2.3418409e-038
-49.944004 247.83459 -2.7806597 2.3418409e-038
-44.126728 241.862 -2.7136481 2.3509886e-038
-38.780197 237.3761 -2.6633172 2.3509886e-038
-34.057713 236.02898 -2.6482024 2.3509886e-038
-29.574211 236.17993 -2.6498964 2.3509886e-038
-25.080322 236.28717 -2.6510997 2.3509886e-038
-20.561024 236.14957 -2.6495557 2.3509886e-038
-16.042068 235.94003 -2.6472049 2.3509886e-038
-11.506384 235.22507 -2.6391828 2.3509886e-038
-6.994935 234.40765 -2.6300116 2.3509886e-038
-2.5373151 235.6936 -2.6444399 2.3509886e-038
2.0011692 240.80453 -2.7017837 2.3509886e-038
6.7690263 247.17099 -2.7732139 2.3509886e-038
11.730527 252.47792 -2.8327568 2.3509886e-038
17.11681 261.17706 -2.9303596 2.3509886e-038
23.301243 275.3866 -3.0897882 2.3509886e-038
29.697424 286.41 -3.2134688 2.3509886e-038
34.62402 289.87585 -3.2523549 2.3509886e-038
-96.399521 248.25275 -7.520927 2.3418409e-038
-92.687706 248.35794 -7.5241137 2.3418409e-038
-88.316551 249.39267 -7.5554614 2.3418409e-038
-83.757904 249.98564 -7.5734253 2.3418409e-038
-78.841507 249.51797 -7.5592575 2.3418409e-038
-73.907158 248.92979 -7.5414386 2.3418409e-038
-69.199982 249.07845 -7.5459418 2.3418409e-038
-64.731522 250.17169 -7.579062 2.3418409e-038
-62.025028 251.21292 -7.6106071 2.3418409e-038
-53.903568 254.13748 -7.6992078 2.3418409e-038
-50.978378 252.96742 -7.6637597 2.3418409e-038
-45.124092 247.32863 -7.4929299 2.3418409e-038
-39.397839 241.15672 -7.3059502 2.3509886e-038
-34.290226 237.64032 -7.1994185 2.3509886e-038
-29.610191 236.46725 -7.1638803 2.3509886e-038
-25.056122 236.05917 -7.1515169 2.3509886e-038
-20.553007 236.0575 -7.1514664 2.3509886e-038
-16.077326 236.4586 -7.1636176 2.3509886e-038
-11.570628 236.53839 -7.1660357 2.3509886e-038
-7.0473056 236.16264 -7.1546521 2.3509886e-038
-2.5526195 237.11522 -7.1835103 2.3509886e-038
2.0103679 241.91142 -7.328814 2.3509886e-038
6.8187532 248.98677 -7.5431643 2.3509886e-038
11.854636 255.14915 -7.729857 2.3509886e-038
17.291418 263.84134 -7.9931898 2.3509886e-038
23.535236 278.15207 -8.4267406 2.3509886e-038
30.01099 289.43414 -8.7685356 2.3509886e-038
33.867512 292.20105 -8.8523598 2.3509886e-038
-85.987495 253.31691 -12.506535 2.3418409e-038
-84.785927 253.05388 -12.493548 2.3418409e-038
-79.549461 251.75851 -12.429595 2.3418409e-038
-74.260323 250.11929 -12.348665 2.3418409e-038
-69.27739 249.3571 -12.311035 2.3418409e-038
-64.702103 250.058 -12.345638 2.3418409e-038
-60.088524 250.71069 -12.377863 2.3418409e-038
-55.42252 251.23862 -12.403927 2.3418409e-038
-50.593548 251.0578 -12.395 2.3418409e-038
-45.395153 248.81436 -12.284239 2.3418409e-038
-39.947655 244.52219 -12.07233 2.3509886e-038
-34.637478 240.04688 -11.851378 2.3509886e-038
-29.731539 237.43634 -11.722494 2.3509886e-038
-25.104633 236.5162 -11.677066 2.3509886e-038
-20.589066 236.4716 -11.674863 2.3509886e-038
-16.12248 237.1227 -11.707008 2.3509886e-038
-11.655116 238.26561 -11.763434 2.3509886e-038
-7.1395874 239.2551 -11.812287 2.3509886e-038
-2.5902667 240.61234 -11.879295 2.3509886e-038
2.0320842 244.5246 -12.072449 2.3509886e-038
6.873311 250.97894 -12.391108 2.3509886e-038
11.976609 257.77438 -12.726604 2.3509886e-038
17.566475 268.03827 -13.233345 2.3509886e-038
23.937115 282.9017 -13.967169 2.3509886e-038
30.328718 292.49838 -14.440967 2.3509886e-038
32.431984 293.78629 -14.504553 2.3509886e-038
-76.58448 253.55896 -17.35527 2.3418409e-038
-74.993492 252.58871 -17.288862 2.3418409e-038
-69.930016 251.70615 -17.228453 2.3418409e-038
-65.211777 252.02779 -17.250467 2.3418409e-038
-60.130638 250.88641 -17.172344 2.3418409e-038
-55.140316 249.95935 -17.108889 2.3418409e-038
-50.23584 249.28278 -17.06258 2.3418409e-038
-45.260479 248.07617 -16.979992 2.3418409e-038
-40.151615 245.77063 -16.822186 2.3418409e-038
-34.96666 242.3282 -16.586563 2.3509886e-038
-29.985415 239.46381 -16.390505 2.3509886e-038
-25.270294 238.07693 -16.295578 2.3509886e-038
-20.696154 237.70157 -16.269884 2.3509886e-038
-16.198065 238.23436 -16.306353 2.3509886e-038
-11.729726 239.79085 -16.412889 2.3509886e-038
-7.2211628 241.98878 -16.56333 2.3509886e-038
-2.6293831 244.24586 -16.717821 2.3509886e-038
2.0578742 247.62794 -16.949312 2.3509886e-038
6.9341478 253.20041 -17.33073 2.3509886e-038
12.108226 260.60718 -17.8377 2.3509886e-038
17.893616 273.02997 -18.688 2.3509886e-038
24.331177 287.5589 -19.682455 2.3509886e-038
30.526621 294.40701 -20.151184 2.3509886e-038
30.877516 294.59634 -20.164143 2.3509886e-038
-67.022774 257.10486 -22.502403 2.3418409e-038
-66.429733 256.73486 -22.470022 2.3418409e-038
-60.631126 252.97462 -22.140915 2.3418409e-038
-55.231449 250.37247 -21.91317 2.3418409e-038
-50.049854 248.35985 -21.737019 2.3418409e-038
-45.037212 246.85246 -21.605089 2.3418409e-038
-40.118984 245.57091 -21.492924 2.3509886e-038
-35.190308 243.87814 -21.34477 2.3509886e-038
-30.338509 242.28362 -21.205214 2.3509886e-038
-25.591349 241.10167 -21.101767 2.3509886e-038
-20.943811 240.54599 -21.053131 2.3509886e-038
-16.376261 240.85521 -21.080196 2.3509886e-038
-11.831245 241.8662 -21.16868 2.3509886e-038
-7.2768073 243.8535 -21.342613 2.3509886e-038
-2.6553657 246.65942 -21.588196 2.3509886e-038
2.0810409 250.41562 -21.916945 2.3509886e-038
7.0113549 256.01962 -22.407419 2.3509886e-038
12.287424 264.46411 -23.146502 2.3509886e-038
18.224232 278.07468 -24.337729 2.3509886e-038
24.586948 290.58176 -25.432379 2.3509886e-038
29.576157 294.43451 -25.769579 2.3509886e-038
-58.112377 254.60403 -27.140265 2.3418409e-038
-55.803921 252.96756 -26.96582 2.3418409e-038
-50.383724 250.0166 -26.651255 2.3418409e-038
-45.206367 247.77959 -26.412794 2.3418409e-038
-40.194946 246.03587 -26.226917 2.3509886e-038
-35.319817 244.77568 -26.092583 2.3509886e-038
-30.606682 244.42523 -26.055225 2.3509886e-038
-25.930817 244.29987 -26.041862 2.3509886e-038
-21.259821 244.17545 -26.028599 2.3509886e-038
-16.622112 244.47107 -26.060112 2.3509886e-038
-11.980939 244.92638 -26.108646 2.3509886e-038
-7.3384695 245.91985 -26.214548 2.3509886e-038
-2.6742063 248.40955 -26.479944 2.3509886e-038
2.0976892 252.41896 -26.907341 2.3509886e-038
7.0761871 258.38696 -27.543518 2.3509886e-038
12.454038 268.05017 -28.573595 2.3509886e-038
18.453579 281.57419 -30.015228 2.3509886e-038
24.674421 291.61557 -31.085619 2.3509886e-038
28.65234 293.89151 -31.328232 2.3509886e-038
-53.463531 259.02859 -32.553055 2.3509886e-038
-52.028786 258.17981 -32.446384 2.3509886e-038
-46.322273 253.89597 -31.908016 2.3509886e-038
-40.716953 249.23111 -31.321768 2.3509886e-038
-35.595539 246.68651 -31.00198 2.3509886e-038
-30.863508 246.47626 -30.975557 2.3509886e-038
-26.205505 246.88777 -31.027275 2.3509886e-038
-21.500099 246.93513 -31.033226 2.3509886e-038
-16.814581 247.3018 -31.079306 2.3509886e-038
-12.128412 247.94119 -31.15966 2.3509886e-038
-7.416431 248.53241 -31.233961 2.3509886e-038
-2.696348 250.46629 -31.476997 2.3509886e-038
2.113009 254.26242 -31.954073 2.3509886e-038
7.1246524 260.15668 -32.694824 2.3509886e-038
12.552837 270.17664 -33.954067 2.3509886e-038
18.55707 283.15329 -35.584892 2.3509886e-038
24.690969 291.81113 -36.672955 2.3509886e-038
28.216322 293.95657 -36.942577 2.3509886e-038
-50.748165 267.5513 -38.727833 2.3509886e-038
-48.150002 263.91391 -38.201321 2.3509886e-038
-41.720055 255.37115 -36.964767 2.3509886e-038
-36.14822 250.51674 -36.262093 2.3509886e-038
-31.22617 249.37248 -36.096462 2.3509886e-038
-26.468876 249.36903 -36.095966 2.3509886e-038
-21.707596 249.31828 -36.088615 2.3509886e-038
-16.975258 249.66498 -36.138798 2.3509886e-038
-12.256147 250.55247 -36.267265 2.3509886e-038
-7.5039592 251.46559 -36.399441 2.3509886e-038
-2.7265313 253.27007 -36.660633 2.3509886e-038
2.132782 256.64175 -37.148682 2.3509886e-038
7.1754012 262.00977 -37.925697 2.3509886e-038
12.600872 271.21048 -39.257496 2.3509886e-038
18.561132 283.21527 -40.995182 2.3509886e-038
24.692486 291.82904 -42.242016 2.3509886e-038
28.373629 295.11877 -42.718201 2.3509886e-038
-47.061516 268.84125 -44.04285 2.3509886e-038
-42.920395 262.71854 -43.039803 2.3509886e-038
-36.886414 255.63261 -41.878952 2.3509886e-038
-31.633369 252.62439 -41.386131 2.3509886e-038
-26.730791 251.83659 -41.257072 2.3509886e-038
-21.92116 251.77112 -41.246346 2.3509886e-038
-17.128345 251.91653 -41.270168 2.3509886e-038
-12.360538 252.68652 -41.396313 2.3509886e-038
-7.5857363 254.20602 -41.645245 2.3509886e-038
-2.7596331 256.34491 -41.995644 2.3509886e-038
2.1564901 259.49457 -42.511639 2.3509886e-038
7.2377377 264.28598 -43.296589 2.3509886e-038
12.636868 271.98526 -44.557922 2.3509886e-038
18.499325 282.27219 -46.243176 2.3509886e-038
24.664536 291.49875 -47.754715 2.3509886e-038
29.378391 298.19113 -48.851093 2.3509886e-038
-43.503357 270.57419 -49.488136 2.3509886e-038
-37.908276 262.71439 -48.050575 2.3509886e-038
-32.193935 257.10107 -47.023899 2.3509886e-038
-27.055832 254.89888 -46.621113 2.3509886e-038
-22.145708 254.35013 -46.520748 2.3509886e-038
-17.273312 254.04865 -46.465607 2.3509886e-038
-12.447315 254.46051 -46.540939 2.3509886e-038
-7.6497707 256.3519 -46.886868 2.3509886e-038
-2.7887192 259.04675 -47.379765 2.3509886e-038
2.181906 262.55295 -48.021049 2.3509886e-038
7.3230667 267.40179 -48.907902 2.3509886e-038
12.73376 274.07068 -50.127644 2.3509886e-038
18.517267 282.54596 -51.677776 2.3509886e-038
24.707174 292.00266 -53.40741 2.3509886e-038
31.570021 304.46982 -55.687664 2.3509886e-038
31.667728 304.67014 -55.724297 2.3509886e-038
-39.740078 272.99429 -55.138317 2.3509886e-038
-39.303329 272.38248 -55.014744 2.3509886e-038
-33.118172 264.48206 -53.419048 2.3509886e-038
-27.533047 259.39484 -52.391552 2.3509886e-038
-22.42107 257.51276 -52.011417 2.3509886e-038
-17.465143 256.87 -51.881599 2.3509886e-038
-12.569514 256.95865 -51.899502 2.3509886e-038
-7.7170076 258.60507 -52.232037 2.3509886e-038
-2.8156676 261.55002 -52.826847 2.3509886e-038
2.2077408 265.66168 -53.657307 2.3509886e-038
7.4240646 271.08969 -54.753639 2.3509886e-038
12.892345 277.48395 -56.045124 2.3509886e-038
18.63958 284.41226 -57.444477 2.3509886e-038
24.777855 292.83801 -59.146278 2.3509886e-038
31.631115 305.05905 -61.614632 2.3509886e-038
35.011127 311.34122 -62.88348 2.3509886e-038
-35.995716 280.31772 -61.964703 2.3509886e-038
-34.871616 278.48505 -61.559593 2.3509886e-038
-28.463482 268.16064 -59.277359 2.3509886e-038
-22.891251 262.91293 -58.117344 2.3509886e-038
-17.765797 261.2919 -57.75901 2.3509886e-038
-12.755871 260.76831 -57.643276 2.3509886e-038
-7.8113718 261.7673 -57.864101 2.3509886e-038
-2.8471913 264.4783 -58.463371 2.3509886e-038
2.2348092 268.91888 -59.444969 2.3509886e-038
7.5227618 274.69363 -60.721489 2.3509886e-038
13.045598 280.78241 -62.067421 2.3509886e-038
18.791899 286.73642 -63.383572 2.3509886e-038
24.867939 293.90268 -64.967674 2.3509886e-038
31.603657 304.79422 -67.375275 2.3509886e-038
37.773716 314.71042 -69.567261 2.3509886e-038
-30.433636 282.4021 -67.812439 2.3509886e-038
-29.853754 281.2587 -67.53788 2.3509886e-038
-23.7416 272.67941 -65.477768 2.3509886e-038
-18.291372 269.02188 -64.599487 2.3509886e-038
-13.050658 266.79468 -64.064674 2.3509886e-038
-7.955483 266.59662 -64.01712 2.3509886e-038
-2.891114 268.55829 -64.488167 2.3509886e-038
2.2637701 272.40381 -65.411583 2.3509886e-038
7.5979486 277.43909 -66.620689 2.3509886e-038
13.138003 282.77127 -67.901093 2.3509886e-038
18.914553 288.60794 -69.302643 2.3509886e-038
25.022003 295.72351 -71.011276 2.3509886e-038
31.687725 305.60498 -73.384094 2.3509886e-038
38.722466 315.42178 -75.741371 2.3509886e-038
39.077404 315.82745 -75.838783 2.3509886e-038
-23.430815 285.6528 -74.042046 2.3509886e-038
-19.130203 281.35904 -72.929092 2.3509886e-038
-13.526627 276.5249 -71.676064 2.3509886e-038
-8.1758509 273.98138 -71.016785 2.3509886e-038
-2.9533088 274.33566 -71.108604 2.3509886e-038
2.2988868 276.62949 -71.703171 2.3509886e-038
7.6702738 280.08005 -72.597572 2.3509886e-038
13.2155 284.43924 -73.727478 2.3509886e-038
18.998583 289.89014 -75.140373 2.3509886e-038
25.159052 297.3432 -77.072227 2.3509886e-038
31.836081 307.0358 -79.584579 2.3509886e-038
38.708275 315.30615 -81.728279 2.3509886e-038
38.781322 315.37726 -81.746712 2.3509886e-038
-14.780406 288.10565 -80.173645 2.3509886e-038
-14.061649 287.46234 -79.994621 2.3509886e-038
-8.4641876 283.64383 -78.932007 2.3509886e-038
-3.0362384 282.03903 -78.485428 2.3509886e-038
2.3451321 282.19424 -78.528618 2.3509886e-038
7.7762604 283.95016 -79.017242 2.3509886e-038
13.333168 286.9718 -79.858109 2.3509886e-038
19.073874 291.03897 -80.989914 2.3509886e-038
25.216276 298.0195 -82.932442 2.3509886e-038
31.881176 307.4707 -85.562515 2.3509886e-038
36.69257 312.99237 -87.099075 2.3509886e-038
-5.4044995 294.18256 -87.47641 2.3509886e-038
-3.1557243 293.13821 -87.165863 2.3509886e-038
2.4174869 290.90082 -86.500572 2.3509886e-038
7.9442382 290.08386 -86.257645 2.3509886e-038
13.53553 291.3273 -86.627388 2.3509886e-038
19.280327 294.18912 -87.478363 2.3509886e-038
25.389469 300.06638 -89.225983 2.3509886e-038
31.907473 307.72433 -91.503105 2.3509886e-038
32.429504 308.29404 -91.672508 2.3509886e-038
4.4040313 299.67957 -94.827538 2.3509886e-038
8.160183 297.96909 -94.286285 2.3509886e-038
13.850814 298.11319 -94.331894 2.3509886e-038
19.66687 300.08719 -94.95652 2.3509886e-038
24.89102 303.53018 -96.045982 2.3509886e-038
-101.85348 247.60579 1.6306142 2.3418409e-038
-102.51459 249.21295 -3.1585338 2.3418409e-038
-95.329361 243.01495 2.1496642 2.3418409e-038
-97.258286 247.93219 -7.0289841 2.3418409e-038
-86.942642 232.96396 47.336697 2.3509528e-038
-87.746979 235.11919 35.2967 2.3509528e-038
-91.066895 244.01495 1.2877495 2.3418409e-038
-93.390144 250.24011 -9.1602659 2.3418409e-038
-82.461288 232.85831 45.611778 2.3509528e-038
-83.564468 235.97351 30.745319 2.3509528e-038
-87.130089 246.0423 0.1024479 2.3418409e-038
-89.356834 252.33028 -10.92976 2.3418409e-038
-77.498604 231.304 42.236744 2.3509528e-038
-78.948463 235.63126 26.123827 2.3509528e-038
-83.165627 248.21788 -1.2509749 2.3418409e-038
-84.954628 253.55739 -13.046092 2.3418409e-038
-72.817924 230.45451 38.537498 2.3509528e-038
-74.607643 236.11864 21.371464 2.3509528e-038
-78.670395 248.97646 -2.6560471 2.3418409e-038
-80.448692 254.60443 -15.612331 2.3418409e-038
-68.52169 230.79077 34.977989 2.3509528e-038
-70.24913 236.60904 16.644703 2.3509528e-038
-73.736771 248.35591 -3.9752648 2.3418409e-038
-75.144402 253.097 -17.949289 2.3418409e-038
-64.119804 230.79288 31.300861 2.3509528e-038
-65.671394 236.37767 12.299874 2.3509528e-038
-69.231117 249.19052 -5.3151121 2.3418409e-038
-70.833397 254.95779 -20.325237 2.3418409e-038
-59.955952 231.71526 27.714958 2.3509528e-038
-61.169758 236.40634 8.4015274 2.3509528e-038
-64.758942 250.27766 -6.7485275 2.3418409e-038
-66.511566 257.05115 -22.736113 2.3418409e-038
-50.97921 212.70338 73.821167 3.5733111e-043
-53.159149 221.79889 61.059177 3.5733111e-043
-55.538914 231.72812 24.064869 2.3509886e-038
-57.241184 238.83058 4.7015429 2.3509528e-038
-60.358078 251.83537 -8.0952358 2.3418409e-038
-61.176815 255.25143 -25.232447 2.3418409e-038
-47.072311 213.38586 72.979774 3.5733111e-043
-49.004295 222.14384 51.928535 3.5733111e-043
-51.179317 232.00354 20.429224 2.3509886e-038
-53.602482 242.98813 0.36152068 2.3509528e-038
-55.897655 253.39249 -8.6127739 2.3418409e-038
-56.175262 254.65092 -28.640678 2.3418409e-038
-43.65979 216.65077 69.799591 3.5733111e-043
-46.119797 228.85794 43.341728 2.3509886e-038
-47.12421 233.84209 17.005175 2.3509886e-038
-52.763508 261.82568 -34.268036 2.3509886e-038
-39.492199 216.45979 63.268513 3.5733111e-043
-42.238472 231.51234 33.921501 2.3509886e-038
-43.005932 235.71883 14.026629 2.3509886e-038
-49.032345 268.75006 -41.390472 2.3509886e-038
-36.203163 221.60191 56.935478 3.5733111e-043
-38.750446 237.194 25.862843 2.3509886e-038
-39.062866 239.10632 12.29251 2.3509886e-038
-44.139061 270.17804 -48.485703 2.3509886e-038
-32.296135 223.82076 50.149067 3.5733111e-043
-39.440956 273.33627 -55.627087 2.3509886e-038
-28.424713 227.00003 44.036518 3.5733111e-043
-35.261707 281.60031 -63.144295 2.3509886e-038
-24.370605 229.60077 37.463299 3.5733111e-043
-29.956181 282.22369 -68.142311 2.3509886e-038
-19.348299 222.22105 86.792351 9.1476764e-041
-20.411831 234.43602 70.662689 9.1476764e-041
-20.436579 234.72028 31.720888 3.5733111e-043
-24.766356 284.44907 -72.740875 2.3509886e-038
-15.100538 222.09239 85.194733 9.1476764e-041
-16.14777 237.49464 51.550526 9.1476764e-041
-16.479237 242.36972 28.914238 9.1476764e-041
-19.538614 287.36575 -77.072868 2.3509886e-038
-11.003282 224.94014 78.901985 9.1476764e-041
-14.101256 288.27206 -80.621696 2.3509886e-038
-6.785378 227.38516 67.478333 9.1476764e-041
-8.6917686 291.27036 -84.67173 2.3509886e-038
-2.503861 232.586 56.745007 9.1476764e-041
-3.1892304 296.25061 -89.423637 2.3509886e-038
1.9692024 236.95792 46.043331 2.3509886e-038
2.4891424 299.52328 -93.770851 2.3509886e-038
6.8409529 249.79739 37.309853 2.3509886e-038
8.2188349 300.11075 -96.56517 2.3509886e-038
12.644024 272.13925 35.507076 2.3509886e-038
14.008701 301.51144 -98.156837 2.3509886e-038
19.096014 291.37677 47.115047 2.3509886e-038
19.813709 302.32776 -97.758232 2.3509886e-038
24.625189 291.03372 53.662319 2.3509886e-038
25.711926 303.87735 -95.719009 2.3509886e-038
30.017778 289.49957 55.053539 2.3509886e-038
30.55378 294.66895 -21.515499 2.3509886e-038
31.561821 304.39075 -55.441086 2.3509886e-038
31.914938 307.79633 -92.0597 2.3509886e-038
38.745167 315.60672 -73.317772 2.3509886e-038
38.707329 315.29843 -82.058525 2.3509886e-038
