# .PCD v0.7 - Point Cloud Data file format
VERSION 0.7
FIELDS x y z rgb
SIZE 4 4 4 4
TYPE F F F F
COUNT 1 1 1 1
WIDTH 412
HEIGHT 1
VIEWPOINT 0 0 0 1 0 0 0
POINTS 412
DATA ascii
0 0 0 2.3418409e-038
-19.627634 208.37384 73.603622 9.1476764e-041
0 0 0 2.3418409e-038
-30.830599 187.0334 43.162838 2.3509528e-038
0 0 0 2.3418409e-038
-21.270334 204.49583 79.352142 9.1476764e-041
-19.16748 205.38283 79.696327 9.1476764e-041
-17.381422 206.8943 80.282837 9.1476764e-041
-23.005074 204.15955 75.180481 9.1476764e-041
-19.25765 206.34898 75.986725 9.1476764e-041
-15.635539 212.63739 78.302391 9.1476764e-041
-15.324162 213.4809 78.613007 9.1476764e-041
-23.122282 204.98088 71.425507 9.1476764e-041
-19.375769 207.61467 72.343246 9.1476764e-041
-15.765725 214.40788 74.710342 9.1476764e-041
-14.063371 218.61098 76.174896 9.1476764e-041
-22.59535 206.08925 67.732346 9.1476764e-041
-19.459728 208.5143 68.52935 9.1476764e-041
-15.777329 214.56567 70.518173 9.1476764e-041
-12.609609 219.8934 72.269157 9.1476764e-041
-21.958099 208.23778 64.316589 9.1476764e-041
-19.58861 209.89528 64.828522 9.1476764e-041
-15.772247 214.49658 66.249687 9.1476764e-041
-11.830163 220.14806 67.995209 9.1476764e-041
-11.087157 221.51459 68.417274 9.1476764e-041
-21.449125 210.62558 60.884933 9.1476764e-041
-19.746929 211.59171 61.164211 9.1476764e-041
-15.822448 215.17928 62.201263 9.1476764e-041
-11.840137 220.33365 63.691219 9.1476764e-041
-9.5758219 224.3934 64.864761 9.1476764e-041
-21.164148 212.34196 57.177952 2.3509886e-038
-19.876598 212.98116 57.350071 9.1476764e-041
-15.859051 215.67706 58.076008 9.1476764e-041
-11.830276 220.15016 59.280487 9.1476764e-041
-8.1055984 227.2753 61.1991 9.1476764e-041
-36.717426 183.95921 45.893925 2.3509528e-038
-35.405697 184.12047 45.934155 2.3509528e-038
-31.882185 184.82187 46.109142 2.3509528e-038
-28.725813 188.02849 46.909122 2.3509528e-038
-20.98712 213.33003 53.221321 2.3509886e-038
-19.964874 213.92702 53.370258 2.3509886e-038
-15.914766 216.43478 53.995892 9.1476764e-041
-11.87798 221.03787 55.144268 9.1476764e-041
-7.8001986 229.80188 57.3307 9.1476764e-041
-6.5944295 232.80249 58.079292 9.1476764e-041
-36.530834 185.60448 42.630505 2.3509528e-038
-35.682827 185.56165 42.620663 2.3509528e-038
-32.075794 185.94421 42.708534 2.3509528e-038
-28.758038 188.32034 43.254295 2.3509528e-038
-26.383505 192.23289 44.15295 2.3509528e-038
-20.624783 213.60226 49.061165 2.3509886e-038
-20.018423 214.50081 49.267548 2.3509886e-038
-16.002211 217.62398 49.98489 2.3509886e-038
-11.930252 222.01062 50.992435 9.1476764e-041
-7.8479452 231.20853 53.105057 9.1476764e-041
-4.9348302 238.37839 54.751862 9.1476764e-041
-35.259853 187.09804 39.270107 2.3509528e-038
-32.290058 187.18629 39.288631 2.3509528e-038
-28.871138 189.06097 39.68211 2.3509528e-038
-25.674257 193.16451 40.543404 2.3509528e-038
-24.311872 196.35114 41.212246 2.3509528e-038
-20.242308 214.36038 44.992214 2.3509886e-038
-20.053528 214.87697 45.100639 2.3509886e-038
-16.102581 218.98898 45.963715 2.3509886e-038
-11.967815 222.70964 46.744644 9.1476764e-041
-7.8188982 230.35278 48.348869 9.1476764e-041
-3.3854458 239.2713 50.220779 9.1476764e-041
-3.2859685 239.46654 50.261757 9.1476764e-041
-33.689358 189.43658 36.011208 2.3509528e-038
-32.719318 189.67474 36.05648 2.3509528e-038
-29.236105 191.45093 36.394127 2.3509528e-038
-25.7929 194.05714 36.889561 2.3509528e-038
-22.636238 200.10855 38.039913 2.3509528e-038
-22.370134 201.40613 38.286575 2.3509528e-038
-20.143143 214.06699 40.693359 2.3509528e-038
-20.020369 214.52167 40.779793 2.3509528e-038
-16.219 220.57225 41.929985 2.3509886e-038
-12.021725 223.71284 42.527 9.1476764e-041
-7.7569346 228.52727 43.442204 9.1476764e-041
-3.3405566 236.09868 44.881504 9.1476764e-041
-1.770714 240.00699 45.624458 9.1476764e-041
-32.382374 193.44296 32.943764 2.3509528e-038
-29.674643 194.32266 33.093578 2.3509528e-038
-26.01742 195.74635 33.336037 2.3509528e-038
-22.659527 200.31444 34.113991 2.3509528e-038
-19.875084 212.96489 36.268391 2.3509528e-038
-16.297693 221.64244 37.746197 2.3509886e-038
-12.069337 224.59886 38.249683 9.1476764e-041
-7.7416906 228.07817 38.842216 9.1476764e-041
-3.3192017 234.5894 39.951092 9.1476764e-041
-0.3059023 241.55318 41.137039 9.1476764e-041
-31.175379 197.03944 29.656021 2.3509528e-038
-30.080351 196.97942 29.646988 2.3509528e-038
-26.263128 197.59499 29.739635 2.3509528e-038
-22.696283 200.63937 30.197838 2.3509528e-038
-19.614349 210.17108 31.632439 2.3509528e-038
-16.267729 221.23492 33.297634 2.3509528e-038
-12.137202 225.86177 33.994015 2.3509886e-038
-7.7852502 229.36148 34.520748 9.1476764e-041
-3.3185096 234.54048 35.300228 9.1476764e-041
1.1055388 242.43005 36.487671 9.1476764e-041
-29.717295 198.08032 25.89185 2.3509528e-038
-26.41271 198.72038 25.975513 2.3509528e-038
-22.734529 200.97749 26.27055 2.3509528e-038
-19.36425 207.49124 27.121986 2.3509528e-038
-16.096388 218.90475 28.613892 2.3509528e-038
-12.188581 226.81787 29.648249 2.3509886e-038
-7.8293672 230.66119 30.150623 2.3509886e-038
-3.3216906 234.76529 30.687086 9.1476764e-041
1.3626043 241.37491 31.551056 9.1476764e-041
2.598259 243.66777 31.850763 2.3509886e-038
-28.487638 199.92175 22.175268 2.3509528e-038
-26.663805 200.60953 22.251556 2.3509528e-038
-22.887375 202.32867 22.44224 2.3509528e-038
-19.239147 206.15074 22.866184 2.3509528e-038
-15.870296 215.82999 23.939804 2.3509528e-038
-12.192287 226.88684 25.166227 2.3509886e-038
-7.8637481 231.6741 25.697229 2.3509886e-038
-3.3256998 235.04866 26.071533 2.3509886e-038
1.3614941 241.17827 26.751429 2.3509886e-038
4.4366617 246.25424 27.314453 2.3509886e-038
-27.532736 203.31514 18.527208 2.3509528e-038
-27.044394 203.47296 18.54159 2.3509528e-038
-23.159044 204.73026 18.65616 2.3509528e-038
-19.336212 207.19081 18.880381 2.3509528e-038
-15.776662 214.55663 19.551594 2.3509528e-038
-12.128995 225.70901 20.567863 2.3509528e-038
-7.8841925 232.27643 21.166321 2.3509886e-038
-3.3398998 236.05226 21.510397 2.3509886e-038
1.3637158 241.57181 22.013371 2.3509886e-038
6.3475471 249.517 22.737379 2.3509886e-038
6.6238241 250.04865 22.785824 2.3509886e-038
-26.637583 206.99278 14.765094 2.3509528e-038
-23.494608 207.69672 14.815307 2.3509528e-038
-19.571741 209.71452 14.959238 2.3509528e-038
-15.782149 214.63124 15.309956 2.3509528e-038
-11.984339 223.01712 15.908134 2.3509528e-038
-7.8574486 231.48851 16.512409 2.3509886e-038
-3.3451986 236.42677 16.864662 2.3509886e-038
1.3612336 241.13213 17.200302 2.3509886e-038
6.2859573 247.09595 17.62571 2.3509886e-038
8.7947798 250.35117 17.85791 2.3509886e-038
-25.721668 211.48961 10.899599 2.3509528e-038
-23.946739 211.69365 10.910114 2.3509528e-038
-19.900436 213.23656 10.989632 2.3509528e-038
-15.877581 215.92906 11.128397 2.3509528e-038
-11.903632 221.51526 11.416294 2.3509528e-038
-7.8171725 230.30193 11.869135 2.3509886e-038
-3.3450272 236.41464 12.184167 2.3509886e-038
1.3570502 240.39107 12.389101 2.3509886e-038
6.2094531 244.08862 12.579663 2.3509886e-038
10.467566 247.32706 12.746564 2.3509886e-038
-24.586021 216.34689 6.8675251 2.3509528e-038
-24.475096 216.3644 6.8680811 2.3509528e-038
-20.283867 217.34508 6.8992105 2.3509528e-038
-16.122143 219.25505 6.9598393 2.3509528e-038
-12.013673 223.563 7.0965872 2.3509528e-038
-7.8090925 230.06389 7.3029456 2.3509886e-038
-3.3385203 235.95476 7.4899406 2.3509886e-038
1.3535391 239.7691 7.6110196 2.3509886e-038
6.1729684 242.65445 7.7026091 2.3509886e-038
11.138136 246.23643 7.8163128 2.3509886e-038
11.669479 246.74408 7.8324275 2.3509886e-038
-23.571871 220.97786 2.6404552 2.3509886e-038
-20.651611 221.28552 2.6441314 2.3509528e-038
-16.384964 222.8293 2.6625779 2.3509528e-038
-12.133096 225.78532 2.6978996 2.3509886e-038
-7.7889013 229.46904 2.7419162 2.3509886e-038
-3.3149869 234.29152 2.7995396 2.3509886e-038
1.3475679 238.71135 2.8523519 2.3509886e-038
6.1599083 242.14105 2.8933334 2.3509886e-038
11.140882 246.29713 2.9429941 2.3509886e-038
12.492813 247.58281 2.9583566 2.3509886e-038
-23.428192 227.9559 -1.7883521 2.3509886e-038
-21.142241 226.54271 -1.7772654 2.3509886e-038
-16.638561 226.27812 -1.7751896 2.3509886e-038
-12.234382 227.67018 -1.7861105 2.3509886e-038
-7.7983437 229.74724 -1.8024055 2.3509886e-038
-3.3061504 233.66699 -1.8331566 2.3509886e-038
1.3475622 238.71034 -1.8727225 2.3509886e-038
6.1860237 243.16763 -1.9076908 2.3509886e-038
11.208489 247.79178 -1.9439679 2.3509886e-038
12.99704 249.54932 -1.957756 2.3509886e-038
-24.32617 233.91786 -6.465333 2.3509886e-038
-21.557922 230.9968 -6.3845968 2.3509886e-038
-16.85236 229.1857 -6.3345389 2.3509886e-038
-12.34955 229.81337 -6.3518872 2.3509886e-038
-7.859149 231.53862 -6.3995724 2.3509886e-038
-3.3198698 234.63663 -6.4851985 2.3509886e-038
1.3506545 239.25813 -6.6129341 2.3509886e-038
6.2360401 245.13373 -6.7753315 2.3509886e-038
11.355824 251.04898 -6.9388251 2.3509886e-038
13.308228 253.10991 -6.9957876 2.3509886e-038
-26.451136 230.96539 -10.955494 2.3509886e-038
-26.133728 231.02702 -10.958417 2.3509886e-038
-21.52401 230.63342 -10.939748 2.3509886e-038
-16.966993 230.74467 -10.945024 2.3509886e-038
-12.460268 231.8737 -10.998579 2.3509886e-038
-7.9295735 233.6134 -11.081099 2.3509886e-038
-3.3371499 235.85793 -11.187564 2.3509886e-038
1.3512605 239.36549 -11.35394 2.3509886e-038
6.2630892 246.19702 -11.677983 2.3509886e-038
11.497773 254.18713 -12.056982 2.3509886e-038
13.507027 256.5546 -12.16928 2.3509886e-038
-49.015518 184.4832 -12.402372 2.3509886e-038
-46.671909 185.44231 -12.466851 2.3509886e-038
-44.18185 190.53371 -12.809134 2.3509886e-038
-41.701668 196.62201 -13.218436 2.3509886e-038
-38.993507 202.77818 -13.632302 2.3509886e-038
-36.292271 210.38724 -14.143842 2.3509886e-038
-33.179039 217.27098 -14.606618 2.3509886e-038
-29.566826 222.4509 -14.954852 2.3509886e-038
-25.647539 226.72902 -15.24246 2.3509886e-038
-21.412731 229.44106 -15.424785 2.3509886e-038
-17.015921 231.41005 -15.557155 2.3509886e-038
-12.524096 233.06146 -15.668176 2.3509886e-038
-7.9723635 234.87402 -15.79003 2.3509886e-038
-3.352977 236.97653 -15.931377 2.3509886e-038
1.3561684 240.23486 -16.150427 2.3509886e-038
6.2968783 247.52522 -16.640541 2.3509886e-038
11.617114 256.82544 -17.265772 2.3509886e-038
13.663414 259.48361 -17.444475 2.3509886e-038
-48.25354 185.83847 -16.172001 2.3509886e-038
-46.986183 186.69102 -16.246193 2.3509886e-038
-44.025124 189.85782 -16.521772 2.3509886e-038
-41.081455 193.69774 -16.855927 2.3509886e-038
-38.17041 198.49782 -17.27364 2.3509886e-038
-35.310009 204.69304 -17.812759 2.3509886e-038
-32.286198 211.42429 -18.398525 2.3509886e-038
-28.947939 217.79459 -18.952881 2.3509886e-038
-25.36006 224.18764 -19.509214 2.3509886e-038
-21.364941 228.92897 -19.921814 2.3509886e-038
-17.042957 231.77774 -20.16972 2.3509886e-038
-12.558767 233.70668 -20.33758 2.3509886e-038
-8.0046635 235.82562 -20.521975 2.3509886e-038
-3.3750741 238.53827 -20.758034 2.3509886e-038
1.3710449 242.87012 -21.134998 2.3509886e-038
6.3763504 250.64922 -21.811949 2.3509886e-038
11.745055 259.65393 -22.595554 2.3509886e-038
13.811496 262.2912 -22.825054 2.3509886e-038
-45.216873 193.55507 -20.674772 2.3509886e-038
-44.931564 193.76685 -20.697395 2.3509886e-038
-41.847969 197.31183 -21.076056 2.3509886e-038
-38.841022 201.98523 -21.575249 2.3509886e-038
-35.578159 206.24751 -22.030529 2.3509886e-038
-32.127235 210.38333 -22.4723 2.3509886e-038
-28.619263 215.32175 -22.999804 2.3509886e-038
-25.093733 221.83327 -23.695337 2.3509886e-038
-21.234062 227.5266 -24.303474 2.3509886e-038
-17.021395 231.48451 -24.726244 2.3509886e-038
-12.582073 234.14038 -25.009932 2.3509886e-038
-8.0365868 236.7661 -25.290401 2.3509886e-038
-3.3962245 240.0331 -25.639368 2.3509886e-038
1.3849283 245.32947 -26.205105 2.3509886e-038
6.4438601 253.30296 -27.056803 2.3509886e-038
11.851942 262.01694 -27.987593 2.3509886e-038
13.94906 264.82593 -28.28764 2.3509886e-038
-37.124889 213.34003 -27.011009 2.3509886e-038
-36.802887 213.34732 -27.01193 2.3509886e-038
-32.794415 214.75233 -27.189821 2.3509886e-038
-29.039896 218.48645 -27.662598 2.3509886e-038
-25.242624 223.14951 -28.252989 2.3509886e-038
-21.213514 227.30643 -28.779297 2.3509886e-038
-16.990913 231.06996 -29.255798 2.3509886e-038
-12.602089 234.51285 -29.691702 2.3509886e-038
-8.0778522 237.98184 -30.130911 2.3509886e-038
-3.4192493 241.66042 -30.596657 2.3509886e-038
1.3940299 246.94173 -31.265326 2.3509886e-038
6.4726658 254.4353 -32.214085 2.3509886e-038
11.903214 263.15042 -33.317509 2.3509886e-038
14.098926 266.41422 -33.73074 2.3509886e-038
-30.582907 226.44562 -33.152611 2.3509886e-038
-30.122288 226.63 -33.179607 2.3509886e-038
-25.857117 228.58173 -33.465347 2.3509886e-038
-21.491531 230.28542 -33.714775 2.3509886e-038
-17.111702 232.71265 -34.070129 2.3509886e-038
-12.694783 236.23781 -34.586227 2.3509886e-038
-8.152503 240.18111 -35.163544 2.3509886e-038
-3.4546967 244.16571 -35.74691 2.3509886e-038
1.4066732 249.18141 -36.481228 2.3509886e-038
6.5100207 255.90369 -37.465401 2.3509886e-038
11.945806 264.09201 -38.664204 2.3509886e-038
14.463809 267.87698 -39.218342 2.3509886e-038
-27.271759 236.49432 -39.304989 2.3509886e-038
-26.733458 236.32875 -39.277473 2.3509886e-038
-21.985626 235.57971 -39.152988 2.3509886e-038
-17.385996 236.44292 -39.296452 2.3509886e-038
-12.81037 238.38878 -39.619846 2.3509886e-038
-8.2044458 241.71141 -40.172062 2.3509886e-038
-3.4816215 246.06863 -40.896229 2.3509886e-038
1.4185319 251.28206 -41.762695 2.3509886e-038
6.5624118 257.96317 -42.873081 2.3509886e-038
12.065036 266.72791 -44.329765 2.3509886e-038
15.635017 273.26825 -45.416763 2.3509886e-038
-25.447716 244.31622 -45.440994 2.3509886e-038
-22.53495 241.46582 -44.910839 2.3509886e-038
-17.610985 239.5027 -44.545715 2.3509886e-038
-12.886153 239.79903 -44.60083 2.3509886e-038
-8.2335825 242.56982 -45.116177 2.3509886e-038
-3.4980874 247.23241 -45.983383 2.3509886e-038
1.425827 252.57436 -46.976948 2.3509886e-038
6.5998869 259.43625 -48.253208 2.3509886e-038
12.230234 270.38 -50.288666 2.3509886e-038
18.196524 285.05399 -53.017918 2.3509886e-038
-24.400515 250.24373 -51.49683 2.3509886e-038
-23.176495 248.34009 -51.105091 2.3509886e-038
-17.873981 243.07938 -50.022507 2.3509886e-038
-13.02587 242.39903 -49.882496 2.3509886e-038
-8.3123503 244.89038 -50.395184 2.3509886e-038
-3.5271301 249.28506 -51.299549 2.3509886e-038
1.4347363 254.15257 -52.30122 2.3509886e-038
6.6340966 260.78101 -53.665264 2.3509886e-038
12.345298 272.9238 -56.164089 2.3509886e-038
18.842077 289.75482 -59.627686 2.3509886e-038
21.715607 296.38272 -60.991627 2.3509886e-038
-23.409096 256.77048 -57.922512 2.3509886e-038
-18.32317 249.18817 -56.212086 2.3509886e-038
-13.260275 246.76106 -55.664577 2.3509886e-038
-8.4359055 248.53046 -56.063721 2.3509886e-038
-3.568902 252.23732 -56.899914 2.3509886e-038
1.4491026 256.69745 -57.906036 2.3509886e-038
6.6977549 263.28339 -59.391693 2.3509886e-038
12.408262 274.31577 -61.88039 2.3509886e-038
18.76133 288.51306 -65.083023 2.3509886e-038
25.064487 300.00174 -67.674652 2.3509886e-038
-21.791582 264.61377 -64.929611 2.3509886e-038
-19.06468 259.2724 -63.618973 2.3509886e-038
-13.579112 252.69434 -62.004883 2.3509886e-038
-8.5687733 252.44487 -61.943668 2.3509886e-038
-3.619694 255.82713 -62.773594 2.3509886e-038
1.4738617 261.08334 -64.063332 2.3509886e-038
6.8120308 267.77548 -65.705421 2.3509886e-038
12.500853 276.36273 -67.812508 2.3509886e-038
18.619423 286.33081 -70.258438 2.3509886e-038
25.151531 296.52216 -72.75914 2.3509886e-038
27.755354 300.4314 -73.718369 2.3509886e-038
-18.753742 271.42792 -71.974327 2.3509886e-038
-14.164593 263.58957 -69.895836 2.3509886e-038
-8.8146067 259.68741 -68.861099 2.3509886e-038
-3.6990271 261.43411 -69.32428 2.3509886e-038
1.5062746 266.82501 -70.753777 2.3509886e-038
6.9387059 272.75497 -72.326218 2.3509886e-038
12.624766 279.10214 -74.009293 2.3509886e-038
18.576527 285.67114 -75.75119 2.3509886e-038
24.801447 292.39487 -77.534119 2.3509886e-038
29.345465 297.80481 -78.968658 2.3509886e-038
-13.651417 276.72412 -78.856232 2.3509886e-038
-9.2173328 271.55212 -77.382401 2.3509886e-038
-3.8213062 270.07635 -76.961861 2.3509886e-038
1.5424255 273.22888 -77.860214 2.3509886e-038
7.0573964 277.42059 -79.054695 2.3509886e-038
12.780924 282.55438 -80.517639 2.3509886e-038
18.67001 287.10873 -81.81546 2.3509886e-038
24.725317 291.49734 -83.066063 2.3509886e-038
29.704725 296.66422 -84.538422 2.3509886e-038
-4.8006573 278.60059 -84.905617 2.3509886e-038
-3.9426293 278.65106 -84.921005 2.3509886e-038
1.5880618 281.31299 -85.732254 2.3509886e-038
7.2469773 284.87286 -86.817146 2.3509886e-038
13.061518 288.75763 -88.001053 2.3509886e-038
18.96244 291.60577 -88.869049 2.3509886e-038
24.950359 294.15048 -89.644569 2.3509886e-038
26.769262 295.32422 -90.002266 2.3509886e-038
11.508471 296.22189 -96.139305 2.3509886e-038
13.419352 296.66843 -96.284241 2.3509886e-038
15.988094 297.15042 -96.440674 2.3509886e-038
-46.72007 185.63367 -9.6425552 2.3509886e-038
-47.372757 188.22702 -18.006689 2.3509886e-038
-44.652702 192.56427 -10.167181 2.3509886e-038
-44.988903 194.01411 -20.878069 2.3509886e-038
-42.32605 199.56596 -11.619348 2.3509886e-038
-42.573574 200.73303 -23.09989 2.3509886e-038
-35.205059 183.0771 48.630169 2.3509528e-038
-35.866638 186.5175 40.65369 2.3509528e-038
-39.265835 204.19438 -12.950282 2.3509886e-038
-40.190685 209.00388 -25.296761 2.3509886e-038
-31.651091 183.48219 48.753635 2.3509528e-038
-32.990726 191.24812 34.474068 2.3509528e-038
-36.405991 211.04651 -13.859406 2.3509886e-038
-36.845093 213.59196 -27.160902 2.3509886e-038
-28.716335 188.04724 46.900135 2.3509528e-038
-30.208572 197.81908 27.187895 2.3509528e-038
-33.316322 218.16998 -14.134592 2.3509886e-038
-33.285683 217.96935 -29.502798 2.3509886e-038
-25.728493 193.57256 43.277416 2.3509528e-038
-27.194941 204.60562 17.156858 2.3509528e-038
-29.812862 224.30199 -13.403011 2.3509886e-038
-30.239588 227.51253 -33.6562 2.3509886e-038
-22.647503 200.20816 38.659039 2.3509528e-038
-24.508303 216.65796 6.5989528 2.3509528e-038
-26.200712 231.61919 -10.596243 2.3509886e-038
-26.923628 238.00989 -40.356853 2.3509886e-038
-19.164415 205.34996 80.632797 9.1476764e-041
-23.761808 254.61182 -55.864841 2.3509886e-038
-15.597673 212.12244 78.960045 9.1476764e-041
-19.827419 269.64539 -69.957672 2.3509886e-038
-11.836698 220.26965 70.20623 9.1476764e-041
-14.836171 276.08698 -77.678963 2.3509886e-038
-7.7507281 228.34442 60.398113 9.1476764e-041
-9.4322166 277.88281 -82.273232 2.3509886e-038
-3.388576 239.49254 50.577633 9.1476764e-041
-3.9504414 279.20319 -85.48735 2.3509886e-038
1.3696818 242.62866 35.626865 9.1476764e-041
1.6169916 286.43768 -90.104141 2.3509886e-038
6.3509774 249.65182 23.336229 2.3509886e-038
7.4724126 293.73456 -94.493118 2.3509886e-038
11.161972 246.7634 10.122165 2.3509886e-038
13.425574 296.806 -96.446945 2.3509886e-038
18.6598 286.95172 -54.14032 2.3509886e-038
19.294676 296.7149 -95.482162 2.3509886e-038
25.466785 300.23886 -68.481331 2.3509886e-038
25.045444 295.27148 -91.604408 2.3509886e-038
