# .PCD v0.7 - Point Cloud Data file format
VERSION 0.7
FIELDS x y z rgb
SIZE 4 4 4 4
TYPE F F F F
COUNT 1 1 1 1
WIDTH 604
HEIGHT 1
VIEWPOINT 0 0 0 1 0 0 0
POINTS 604
DATA ascii
0 0 0 2.3418052e-038
-9.7790794 230.70697 72.799812 9.1476764e-041
-32.537643 209.35213 68.033249 3.5733111e-043
-61.959709 199.32907 40.367687 2.3509528e-038
-78.07946 209.85289 -11.86017 2.3418409e-038
-36.993034 202.6228 75.411232 3.5733111e-043
-34.4967 203.1138 75.593971 3.5733111e-043
-31.740427 205.46777 76.470062 3.5733111e-043
-20.898323 225.44534 83.905228 2.3509886e-038
-16.65851 223.80627 83.295204 9.1476764e-041
-13.213311 225.57765 83.954468 9.1476764e-041
-38.335014 204.67154 72.268326 3.5733111e-043
-34.830456 205.07893 72.41217 3.5733111e-043
-31.324018 207.77687 73.364799 3.5733111e-043
-29.673195 209.4305 73.948692 3.5733111e-043
-21.137075 227.4104 80.297287 9.1476764e-041
-16.851921 226.40472 79.942192 9.1476764e-041
-12.611458 227.8436 80.450241 9.1476764e-041
-11.429577 228.76915 80.777046 9.1476764e-041
-38.286579 206.60837 69.009857 3.5733111e-043
-35.156399 206.99806 69.140015 3.5733111e-043
-31.520601 209.08084 69.835693 3.5733111e-043
-28.078924 212.147 70.859825 3.5733111e-043
-20.44521 229.04944 76.505463 9.1476764e-041
-17.066959 229.29376 76.587067 9.1476764e-041
-12.727832 229.94604 76.804939 9.1476764e-041
-9.7769184 231.42934 77.300377 9.1476764e-041
-37.390896 207.76364 65.43132 3.5733111e-043
-35.359863 208.19604 65.56749 3.5733111e-043
-31.597958 209.59395 66.007744 3.5733111e-043
-27.925657 212.0775 66.789886 3.5733111e-043
-26.456652 213.95204 67.380234 3.5733111e-043
-19.405546 230.86243 72.705849 9.1476764e-041
-17.203745 231.13148 72.790588 9.1476764e-041
-12.796412 231.18504 72.807457 9.1476764e-041
-8.4155321 232.02429 73.071762 9.1476764e-041
-8.150054 232.12718 73.104164 9.1476764e-041
-36.357834 209.94189 62.111347 3.5733111e-043
-35.679058 210.07544 62.15086 3.5733111e-043
-31.798683 210.9254 62.402321 3.5733111e-043
-28.014462 212.75192 62.942699 3.5733111e-043
-25.050253 216.25168 63.9781 3.5733111e-043
-18.314848 232.22791 68.704674 9.1476764e-041
-17.312487 232.59244 68.812515 9.1476764e-041
-12.851103 232.17311 68.688461 9.1476764e-041
-8.398036 231.54192 68.501717 9.1476764e-041
-6.5407329 231.95317 68.623383 9.1476764e-041
-35.365696 212.50256 58.814102 3.5733111e-043
-32.081348 212.80035 58.896519 3.5733111e-043
-28.15601 213.82689 59.180634 3.5733111e-043
-24.495955 217.55748 60.213142 3.5733111e-043
-23.762995 219.13516 60.649796 3.5733111e-043
-17.383038 233.38095 64.59259 9.1476764e-041
-17.371799 233.38927 64.594887 9.1476764e-041
-12.908143 233.20361 64.54351 9.1476764e-041
-8.419342 232.12933 64.246178 9.1476764e-041
-4.9342222 233.04285 64.499016 9.1476764e-041
-34.45607 214.58676 55.296345 3.5733111e-043
-32.340286 214.51794 55.278614 3.5733111e-043
-28.362701 215.39656 55.505028 3.5733111e-043
-24.611078 218.57994 56.325344 3.5733111e-043
-22.232916 222.09555 57.23127 3.5733111e-043
-16.787264 234.29053 60.373764 9.1476764e-041
-12.968339 234.29115 60.373924 9.1476764e-041
-8.4638386 233.35612 60.132977 9.1476764e-041
-4.0423656 235.17561 60.601837 9.1476764e-041
-3.3337188 235.84422 60.774132 9.1476764e-041
-33.475685 216.0246 51.544815 3.5733111e-043
-32.55373 215.93375 51.523136 3.5733111e-043
-28.537077 216.72086 51.710949 3.5733111e-043
-24.660694 219.02058 52.259682 3.5733111e-043
-20.920332 223.71341 53.379417 3.5733111e-043
-19.704191 227.3689 54.251637 3.5733111e-043
-17.535883 233.44263 55.700867 3.5733111e-043
-17.395206 233.70374 55.763168 3.5733111e-043
-13.071795 236.1602 56.3493 9.1476764e-041
-8.5483913 235.68735 56.236473 9.1476764e-041
-4.0772405 237.20456 56.598488 9.1476764e-041
-1.6428809 238.77745 56.973789 2.3509886e-038
-66.588715 197.38722 43.331413 2.3509528e-038
-63.478798 196.83971 43.21122 2.3509528e-038
-60.456642 199.25822 43.742146 2.3509528e-038
-59.461525 201.69206 44.276436 2.3509528e-038
-32.450359 217.38623 47.721695 3.5733111e-043
-28.723711 218.13821 47.886772 3.5733111e-043
-24.74419 219.76216 48.243271 3.5733111e-043
-20.907873 223.58017 49.081417 3.5733111e-043
-17.323454 232.73976 51.092178 3.5733111e-043
-13.174335 238.01276 52.249733 9.1476764e-041
-8.6543255 238.60803 52.380409 9.1476764e-041
-4.1166496 239.49728 52.575623 9.1476764e-041
0.26436654 242.64079 53.265701 2.3509886e-038
-67.259499 198.87129 39.86248 2.3509528e-038
-64.077934 198.69756 39.827656 2.3509528e-038
-60.785126 200.34088 40.157051 2.3509528e-038
-57.623627 202.6666 40.623226 2.3509528e-038
-54.928852 204.33568 40.957779 2.3509528e-038
-31.471848 218.81123 43.859314 3.5733111e-043
-28.878723 219.31543 43.960373 3.5733111e-043
-24.86331 220.8201 44.261978 3.5733111e-043
-20.95796 224.11577 44.922577 3.5733111e-043
-17.217144 231.31148 46.36491 3.5733111e-043
-13.197725 238.43533 47.792835 3.5733111e-043
-8.7216139 240.46327 48.199326 9.1476764e-041
-4.1532149 241.62456 48.432102 2.3509886e-038
0.46791747 247.23198 49.556068 2.3509886e-038
2.496084 253.58044 50.828579 2.3509886e-038
-66.099617 200.62082 36.385056 2.3509528e-038
-64.721931 200.69452 36.398422 2.3509528e-038
-61.039013 201.17766 36.486046 2.3509528e-038
-57.305637 201.5482 36.553249 2.3509528e-038
-53.751366 202.64731 36.752586 2.3509528e-038
-50.425587 204.84506 37.151173 2.3509528e-038
-50.318863 204.99202 37.177826 2.3509528e-038
-30.486973 220.16429 39.929504 3.5733111e-043
-29.031754 220.4776 39.986328 3.5733111e-043
-25.015148 222.16862 40.293015 3.5733111e-043
-21.040972 225.00348 40.807156 3.5733111e-043
-17.162663 230.57953 41.818436 3.5733111e-043
-13.175878 238.04062 43.1716 3.5733111e-043
-8.7632113 241.61011 43.81897 3.5733111e-043
-4.1865745 243.56534 44.173573 2.3509886e-038
0.47050804 248.60074 45.086803 2.3509886e-038
4.7952132 259.6391 47.088749 2.3509886e-038
-63.92207 203.15022 32.967419 2.3509528e-038
-61.465069 202.58189 32.875187 2.3509528e-038
-57.528545 202.33218 32.834663 2.3509528e-038
-53.92926 203.31799 32.994644 2.3509528e-038
-50.47031 205.02675 33.271942 2.3509528e-038
-47.849014 210.71135 34.194443 2.3509528e-038
-47.559078 212.08975 34.418133 2.3509528e-038
-29.493027 222.18167 36.055859 3.5733111e-043
-29.266649 222.26149 36.068813 3.5733111e-043
-25.238499 224.1523 36.375652 3.5733111e-043
-21.196028 226.66158 36.78286 3.5733111e-043
-17.162395 230.57594 37.418091 3.5733111e-043
-13.116492 236.96773 38.455357 3.5733111e-043
-8.7813854 242.11122 39.290043 3.5733111e-043
-4.2070146 244.7545 39.719002 2.3509886e-038
0.46891016 247.75647 40.206161 2.3509886e-038
5.3385673 254.53398 41.306023 2.3509886e-038
6.3429718 256.50348 41.625637 2.3509886e-038
-60.511269 204.49866 29.284134 2.3509528e-038
-58.176712 204.61183 29.300341 2.3509528e-038
-54.448517 205.27562 29.395395 2.3509528e-038
-50.711784 206.00769 29.500225 2.3509528e-038
-47.525513 209.28676 29.96979 2.3509528e-038
-44.767796 215.2278 30.820543 2.3509528e-038
-44.161343 216.64769 31.023869 2.3509528e-038
-28.358559 224.81749 32.193783 3.5733111e-043
-25.443569 225.97359 32.359337 3.5733111e-043
-21.339275 228.19341 32.677212 3.5733111e-043
-17.17066 230.687 33.034294 3.5733111e-043
-13.020199 235.22806 33.684574 3.5733111e-043
-8.7517147 241.29317 34.553093 3.5733111e-043
-4.2102561 244.94308 35.07576 2.3509886e-038
0.46763489 247.08267 35.382149 2.3509886e-038
5.2532907 250.46814 35.866947 2.3509886e-038
7.3781204 253.05516 36.237408 2.3509886e-038
-57.243465 207.35353 25.736374 2.3509528e-038
-54.901646 206.98396 25.690506 2.3509528e-038
-50.97131 207.06197 25.700186 2.3509528e-038
-47.401352 208.73999 25.908461 2.3509528e-038
-44.031849 211.68961 26.274563 2.3509528e-038
-40.82634 216.10316 26.822367 2.3509528e-038
-39.986008 218.03331 27.061932 2.3509528e-038
-27.003328 227.10506 28.187901 3.5733111e-043
-25.62888 227.61942 28.251743 3.5733111e-043
-21.449404 229.37106 28.469154 3.5733111e-043
-17.199379 231.0728 28.68037 3.5733111e-043
-12.948316 233.9294 29.034927 3.5733111e-043
-8.6789799 239.28781 29.700005 3.5733111e-043
-4.1984982 244.25905 30.317026 2.3509886e-038
0.46690705 246.69809 30.619757 2.3509886e-038
5.2220592 248.97906 30.902866 2.3509886e-038
8.7125053 251.45355 31.209995 2.3509886e-038
-53.647717 207.83417 21.830286 2.3509528e-038
-51.256603 208.22092 21.870909 2.3509528e-038
-47.538349 209.34328 21.988798 2.3509528e-038
-43.806881 210.60805 22.121645 2.3509528e-038
-40.322552 213.43649 22.418737 2.3509528e-038
-36.939873 217.49904 22.845455 2.3509528e-038
-35.675865 218.98216 23.001238 2.3509528e-038
-25.7202 229.4899 24.10494 3.5733111e-043
-21.592514 230.90143 24.253202 3.5733111e-043
-17.283983 232.20947 24.390596 3.5733111e-043
-12.928685 233.57474 24.533998 3.5733111e-043
-8.5958996 236.99721 24.893484 2.3509886e-038
-4.1679778 242.48344 25.469742 2.3509886e-038
0.46556252 245.98769 25.837818 2.3509886e-038
5.2060437 248.21548 26.071821 2.3509886e-038
10.02928 250.38629 26.299835 2.3509886e-038
10.310128 250.5739 26.319542 2.3509886e-038
-51.035801 211.14397 18.149027 2.3509528e-038
-47.943027 211.12535 18.147429 2.3509528e-038
-43.99448 211.50996 18.180489 2.3509528e-038
-40.242882 213.01479 18.309835 2.3509528e-038
-36.619366 215.61189 18.533072 2.3509528e-038
-33.240162 220.48695 18.95211 2.3509528e-038
-31.968225 222.90787 19.160202 2.3509528e-038
-24.941805 231.71864 19.917538 9.1476764e-041
-21.743868 232.51994 19.986416 9.1476764e-041
-17.358023 233.20419 20.045231 9.1476764e-041
-12.93209 233.63626 20.082369 2.3509886e-038
-8.5429401 235.53703 20.24575 2.3509886e-038
-4.1278486 240.14882 20.64216 2.3509886e-038
0.4629451 244.60475 21.025173 2.3509886e-038
5.1886663 247.38695 21.264318 2.3509886e-038
9.9789553 249.12993 21.414137 2.3509886e-038
11.909348 250.23682 21.509281 2.3509886e-038
-48.051121 213.25592 14.261353 2.3509528e-038
-44.377541 213.35158 14.267751 2.3509528e-038
-40.502033 214.38654 14.336964 2.3509528e-038
-36.737144 216.30536 14.465282 2.3509528e-038
-33.170502 220.0249 14.714025 2.3509528e-038
-29.655651 225.21568 15.061156 2.3509528e-038
-26.007622 230.98315 15.446851 2.3509886e-038
-21.820862 233.34329 15.604683 2.3509886e-038
-17.39208 233.66174 15.625979 2.3509886e-038
-12.947004 233.9057 15.642295 2.3509886e-038
-8.5304527 235.19276 15.728366 2.3509886e-038
-4.1000233 238.53 15.951542 2.3509886e-038
0.45943221 242.74864 16.23366 2.3509886e-038
5.1598854 246.01472 16.452078 2.3509886e-038
9.9437323 248.25056 16.601599 2.3509886e-038
13.188794 250.06151 16.722704 2.3509886e-038
-44.991745 216.11026 10.328571 2.3509528e-038
-44.952507 216.11581 10.328836 2.3509528e-038
-41.009777 217.07413 10.374638 2.3509528e-038
-37.107765 218.48756 10.44219 2.3509528e-038
-33.220921 220.35933 10.531647 2.3509528e-038
-29.486265 223.92932 10.702269 2.3509528e-038
-25.831974 229.42316 10.964835 2.3509528e-038
-21.800631 233.12694 11.14185 2.3509886e-038
-17.421993 234.06361 11.186618 2.3509886e-038
-12.987144 234.63087 11.213728 2.3509886e-038
-8.5488749 235.70065 11.264856 2.3509886e-038
-4.0908966 237.99905 11.374703 2.3509886e-038
0.45646667 241.18176 11.526815 2.3509886e-038
5.1300387 244.59167 11.689785 2.3509886e-038
9.9420538 248.20865 11.862652 2.3509886e-038
14.064194 251.31967 12.011337 2.3509886e-038
-42.271862 221.04126 6.3464847 2.3509528e-038
-41.778934 221.14546 6.3494763 2.3509528e-038
-37.7145 222.05995 6.3757329 2.3509528e-038
-33.595219 222.84212 6.3981905 2.3509528e-038
-29.619928 224.94441 6.4585505 2.3509528e-038
-25.77261 228.89592 6.5720057 2.3509528e-038
-21.738344 232.46089 6.6743622 2.3509886e-038
-17.439459 234.29828 6.7271166 2.3509886e-038
-13.024536 235.30641 6.756062 2.3509886e-038
-8.5640202 236.11824 6.7793713 2.3509886e-038
-4.0825586 237.51395 6.8194442 2.3509886e-038
0.45381853 239.78256 6.8845801 2.3509886e-038
5.0963879 242.98726 6.976593 2.3509886e-038
9.9312096 247.93791 7.1187348 2.3509886e-038
14.490681 253.11848 7.2674785 2.3509886e-038
-40.040417 226.65958 2.1828284 2.3509528e-038
-38.463989 226.4729 2.1810305 2.3509528e-038
-34.124535 226.35312 2.179877 2.3509528e-038
-29.914902 227.18456 2.1878841 2.3509528e-038
-25.837263 229.47014 2.2098954 2.3509886e-038
-21.675535 231.78922 2.232229 2.3509886e-038
-17.396278 233.71815 2.2508054 2.3509886e-038
-13.010587 235.0544 2.2636743 2.3509886e-038
-8.549839 235.72725 2.270154 2.3509886e-038
-4.0700159 236.78427 2.2803335 2.3509886e-038
0.45191875 238.77878 2.2995417 2.3509886e-038
5.0731196 241.87787 2.3293869 2.3509886e-038
9.9060831 247.31062 2.381707 2.3509886e-038
14.620606 253.92142 2.4453716 2.3509886e-038
-39.117535 234.66141 -2.2177639 2.3418409e-038
-34.967945 231.9476 -2.1921158 2.3509886e-038
-30.384445 230.75043 -2.1808014 2.3509886e-038
-26.03178 231.19771 -2.1850288 2.3509886e-038
-21.678448 231.82037 -2.1909134 2.3509886e-038
-17.349733 233.09282 -2.2029393 2.3509886e-038
-12.981917 234.53645 -2.2165828 2.3509886e-038
-8.5389004 235.42564 -2.2249868 2.3509886e-038
-4.0711613 236.85088 -2.2384562 2.3509886e-038
0.45273656 239.21089 -2.2607603 2.3509886e-038
5.0905924 242.71094 -2.2938392 2.3509886e-038
9.9509039 248.42961 -2.3478858 2.3509886e-038
14.716755 255.3064 -2.4128778 2.3509886e-038
-39.620735 240.32971 -6.8571382 2.3418409e-038
-35.762764 237.21976 -6.768404 2.3418409e-038
-30.872358 234.45581 -6.6895423 2.3509886e-038
-26.282595 233.42529 -6.6601396 2.3509886e-038
-21.791605 233.03044 -6.6488733 2.3509886e-038
-17.396454 233.7205 -6.6685629 2.3509886e-038
-13.007546 234.9995 -6.7050552 2.3509886e-038
-8.573781 236.38734 -6.7446532 2.3509886e-038
-4.0951405 238.24594 -6.7976832 2.3509886e-038
0.45609587 240.98584 -6.8758588 2.3509886e-038
5.1484628 245.47012 -7.0038052 2.3509886e-038
10.077372 251.58691 -7.1783309 2.3509886e-038
14.862784 257.82715 -7.3563786 2.3509886e-038
-82.243042 207.85582 -9.8967447 2.3418409e-038
-79.396317 209.08415 -9.9552298 2.3418409e-038
-75.727272 209.97296 -9.9975491 2.3418409e-038
-72.154556 211.24313 -10.058026 2.3418409e-038
-69.32814 214.97777 -10.235846 2.3418409e-038
-66.517815 219.23518 -10.438556 2.3418409e-038
-63.33807 222.76471 -10.60661 2.3418409e-038
-59.948322 226.01036 -10.761147 2.3418409e-038
-59.598465 226.37369 -10.778446 2.3418409e-038
-42.945854 239.61337 -11.408833 2.3418409e-038
-40.675243 239.49257 -11.403081 2.3418409e-038
-35.897591 238.11407 -11.337447 2.3418409e-038
-31.11171 236.27354 -11.249812 2.3418409e-038
-26.485266 235.2253 -11.199902 2.3509886e-038
-21.949921 234.7234 -11.176005 2.3509886e-038
-17.487062 234.93784 -11.186214 2.3509886e-038
-13.057693 235.90544 -11.232285 2.3509886e-038
-8.6237698 237.76558 -11.320853 2.3509886e-038
-4.1275158 240.12946 -11.433406 2.3509886e-038
0.46050984 243.31804 -11.585225 2.3509886e-038
5.2108479 248.44455 -11.829317 2.3509886e-038
10.195126 254.52673 -12.118912 2.3509886e-038
15.005264 260.27155 -12.392442 2.3509886e-038
-81.543358 209.73116 -13.987988 2.3418409e-038
-79.943726 210.52573 -14.040981 2.3418409e-038
-76.142731 211.12492 -14.080945 2.3418409e-038
-72.329315 211.75475 -14.12295 2.3418409e-038
-69.239662 214.70341 -14.319612 2.3418409e-038
-66.205544 218.20596 -14.553213 2.3418409e-038
-62.800064 220.87251 -14.731058 2.3418409e-038
-59.264217 223.43124 -14.901712 2.3418409e-038
-56.039104 227.64899 -15.183015 2.3418409e-038
-52.807396 232.54642 -15.509648 2.3418409e-038
-49.141006 236.25264 -15.756834 2.3418409e-038
-44.898457 237.65782 -15.850552 2.3418409e-038
-40.410053 237.93117 -15.868783 2.3418409e-038
-35.844288 237.76051 -15.857402 2.3418409e-038
-31.223543 237.12283 -15.814871 2.3418409e-038
-26.655499 236.73718 -15.789149 2.3509886e-038
-22.113504 236.47269 -15.77151 2.3509886e-038
-17.590033 236.32123 -15.761409 2.3509886e-038
-13.118647 237.00667 -15.807124 2.3509886e-038
-8.6678133 238.97993 -15.938731 2.3509886e-038
-4.1559172 241.78178 -16.125599 2.3509886e-038
0.46473622 245.55112 -16.376995 2.3509886e-038
5.2648563 251.01956 -16.741713 2.3509886e-038
10.309669 257.38635 -17.166344 2.3509886e-038
15.22108 263.51862 -17.575333 2.3509886e-038
-76.628258 213.57146 -18.319344 2.3418409e-038
-72.418175 212.01489 -18.185827 2.3418409e-038
-69.058533 214.14175 -18.368261 2.3418409e-038
-66.261993 218.392 -18.73283 2.3418409e-038
-62.994019 221.55467 -19.004112 2.3418409e-038
-59.427605 224.04723 -19.217916 2.3418409e-038
-55.912491 227.13463 -19.48274 2.3418409e-038
-52.367752 230.61037 -19.780876 2.3418409e-038
-48.596195 233.63339 -20.04018 2.3418409e-038
-44.551025 235.81877 -20.227633 2.3418409e-038
-40.30336 237.30296 -20.354942 2.3418409e-038
-35.869415 237.92719 -20.408485 2.3418409e-038
-31.347506 238.06424 -20.420242 2.3509886e-038
-26.829935 238.28642 -20.439299 2.3509886e-038
-22.297579 238.4411 -20.452566 2.3509886e-038
-17.752388 238.50247 -20.45783 2.3509886e-038
-13.233985 239.09039 -20.508261 2.3509886e-038
-8.7368793 240.88414 -20.662121 2.3509886e-038
-4.1910558 243.82607 -20.914469 2.3509886e-038
0.46926135 247.94203 -21.267521 2.3509886e-038
5.3240838 253.84343 -21.77372 2.3509886e-038
10.455637 261.03052 -22.390202 2.3509886e-038
15.678154 268.41257 -23.023405 2.3509886e-038
-62.589401 226.82571 -23.784365 2.3418409e-038
-60.353512 227.53798 -23.859051 2.3418409e-038
-56.266876 228.57428 -23.967714 2.3418409e-038
-52.392403 230.71893 -24.192598 2.3418409e-038
-48.424423 232.80757 -24.411608 2.3418409e-038
-44.372532 234.87398 -24.628284 2.3418409e-038
-40.209919 236.75279 -24.825294 2.3418409e-038
-35.853649 237.8226 -24.937471 2.3418409e-038
-31.413738 238.56725 -25.015553 2.3509886e-038
-26.956106 239.40697 -25.103603 2.3509886e-038
-22.464764 240.22891 -25.189789 2.3509886e-038
-17.936489 240.97586 -25.268114 2.3509886e-038
-13.385518 241.82806 -25.357473 2.3509886e-038
-8.8304577 243.46419 -25.529032 2.3509886e-038
-4.229589 246.06783 -25.802042 2.3509886e-038
0.47326472 250.05728 -26.220367 2.3509886e-038
5.3719783 256.12698 -26.856819 2.3509886e-038
10.59591 264.53253 -27.738207 2.3509886e-038
16.207867 274.0752 -28.738827 2.3509886e-038
16.563778 274.70963 -28.805347 2.3509886e-038
-49.989555 236.92314 -29.363966 2.3509886e-038
-49.31464 237.08743 -29.384329 2.3509886e-038
-45.031708 238.36313 -29.542437 2.3509886e-038
-40.564419 238.84006 -29.601545 2.3509886e-038
-35.994968 238.76001 -29.591625 2.3509886e-038
-31.488396 239.13422 -29.638006 2.3509886e-038
-27.065006 240.37418 -29.791683 2.3509886e-038
-22.610388 241.78616 -29.966684 2.3509886e-038
-18.086975 242.99763 -30.116833 2.3509886e-038
-13.523627 244.3232 -30.281118 2.3509886e-038
-8.9237957 246.03761 -30.493605 2.3509886e-038
-4.2670798 248.24896 -30.767675 2.3509886e-038
0.47678173 251.91554 -31.222107 2.3509886e-038
5.4017072 257.54437 -31.919737 2.3509886e-038
10.682775 266.70114 -33.054611 2.3509886e-038
16.460022 278.33917 -34.497021 2.3509886e-038
18.043325 281.41885 -34.878712 2.3509886e-038
-43.883373 246.19882 -35.211384 2.3509886e-038
-41.488983 244.28381 -34.9375 2.3509886e-038
-36.460423 241.84743 -34.58905 2.3509886e-038
-31.804218 241.53271 -34.544041 2.3509886e-038
-27.311235 242.56102 -34.691105 2.3509886e-038
-22.80884 243.90833 -34.883801 2.3509886e-038
-18.246195 245.13673 -35.059486 2.3509886e-038
-13.646964 246.55145 -35.261822 2.3509886e-038
-9.0068226 248.32672 -35.515717 2.3509886e-038
-4.307982 250.62856 -35.844925 2.3509886e-038
0.48122132 254.26129 -36.364479 2.3509886e-038
5.4355478 259.15784 -37.064789 2.3509886e-038
10.718833 267.60135 -38.272377 2.3509886e-038
16.56986 280.19653 -40.073746 2.3509886e-038
19.983025 287.47586 -41.114834 2.3509886e-038
-38.825848 247.15369 -40.063972 2.3509886e-038
-37.132431 246.30495 -39.926392 2.3509886e-038
-32.317898 245.43378 -39.785172 2.3509886e-038
-27.65103 245.57884 -39.808689 2.3509886e-038
-23.038057 246.35948 -39.93523 2.3509886e-038
-18.412064 247.36517 -40.098259 2.3509886e-038
-13.74507 248.32387 -40.253662 2.3509886e-038
-9.07024 250.07523 -40.53756 2.3509886e-038
-4.347054 252.90167 -40.995731 2.3509886e-038
0.48588681 256.72638 -41.615723 2.3509886e-038
5.4827337 261.40759 -42.37455 2.3509886e-038
10.778605 269.0936 -43.620468 2.3509886e-038
16.652002 281.58557 -45.645435 2.3509886e-038
22.324999 293.81021 -47.627064 2.3509886e-038
-35.574768 251.25706 -45.523457 2.3509886e-038
-32.915646 249.97325 -45.290855 2.3509886e-038
-28.019728 248.85339 -45.087955 2.3509886e-038
-23.263645 248.77182 -45.073174 2.3509886e-038
-18.55986 249.3508 -45.178078 2.3509886e-038
-13.832942 249.91139 -45.279648 2.3509886e-038
-9.1270313 251.64101 -45.593025 2.3509886e-038
-4.3804736 254.84595 -46.173702 2.3509886e-038
0.48963383 258.70618 -46.873112 2.3509886e-038
5.5333629 263.82147 -47.799915 2.3509886e-038
10.889544 271.86322 -49.256939 2.3509886e-038
16.756802 283.3577 -51.339546 2.3509886e-038
23.021978 294.3316 -53.327824 2.3509886e-038
24.927242 297.30362 -53.866302 2.3509886e-038
-32.619274 255.08412 -51.084183 2.3509886e-038
-28.477152 252.91595 -50.649975 2.3509886e-038
-23.508385 251.38896 -50.344177 2.3509886e-038
-18.728085 251.6109 -50.388622 2.3509886e-038
-13.975611 252.48891 -50.564457 2.3509886e-038
-9.21873 254.16922 -50.900963 2.3509886e-038
-4.4180808 257.03384 -51.474648 2.3509886e-038
0.49340346 260.69794 -52.208427 2.3509886e-038
5.5861163 266.33667 -53.337666 2.3509886e-038
11.021327 275.15329 -55.103313 2.3509886e-038
16.883335 285.49744 -57.174877 2.3509886e-038
23.007177 294.14236 -58.906147 2.3509886e-038
28.194944 301.84564 -60.448837 2.3509886e-038
-29.58415 260.60193 -57.161835 2.3509886e-038
-29.310865 260.32047 -57.10009 2.3509886e-038
-23.950571 256.11752 -56.178196 2.3509886e-038
-19.019514 255.52625 -56.048504 2.3509886e-038
-14.194169 256.43747 -56.248379 2.3509886e-038
-9.3504581 257.80109 -56.547482 2.3509886e-038
-4.4704671 260.0816 -57.047699 2.3509886e-038
0.49901271 263.66165 -57.832966 2.3509886e-038
5.6525307 269.5032 -59.114285 2.3509886e-038
11.13027 277.87311 -60.950184 2.3509886e-038
16.966293 286.90021 -62.930241 2.3509886e-038
23.100712 295.3382 -64.781067 2.3509886e-038
29.756697 305.82684 -67.081703 2.3509886e-038
32.222401 309.96005 -67.988312 2.3509886e-038
-25.592049 263.80624 -62.898464 2.3509886e-038
-24.604559 263.11099 -62.732697 2.3509886e-038
-19.464706 261.50739 -62.350353 2.3509886e-038
-14.475641 261.52264 -62.353992 2.3509886e-038
-9.5207853 262.49716 -62.586338 2.3509886e-038
-4.547576 264.5676 -63.079983 2.3509886e-038
0.50717241 267.97296 -63.891918 2.3509886e-038
5.7313075 273.25916 -65.15229 2.3509886e-038
11.205867 279.76041 -66.702362 2.3509886e-038
16.972868 287.01141 -68.43119 2.3509886e-038
23.118744 295.56873 -70.471489 2.3509886e-038
29.832142 306.60223 -73.102165 2.3509886e-038
35.321651 315.12866 -75.135094 2.3509886e-038
-20.91132 270.42816 -69.637421 2.3509886e-038
-20.117167 270.27316 -69.597496 2.3509886e-038
-14.909261 269.3566 -69.361488 2.3509886e-038
-9.7705507 269.38345 -69.368401 2.3509886e-038
-4.6544394 270.78467 -69.729225 2.3509886e-038
0.51728421 273.3157 -70.380981 2.3509886e-038
5.8138456 277.19443 -71.379791 2.3509886e-038
11.291849 281.90701 -72.593315 2.3509886e-038
17.002144 287.50647 -74.035217 2.3509886e-038
23.063379 294.8609 -75.929047 2.3509886e-038
29.725475 305.50595 -78.670235 2.3509886e-038
36.152611 315.35553 -81.206573 2.3509886e-038
-15.089632 282.21823 -78.058548 2.3509886e-038
-10.133094 279.37912 -77.273285 2.3509886e-038
-4.7824483 278.23193 -76.955986 2.3509886e-038
0.52826113 279.11557 -77.200386 2.3509886e-038
5.9037032 281.4787 -77.854004 2.3509886e-038
11.414935 284.97992 -78.822403 2.3509886e-038
17.084242 288.89478 -79.905212 2.3509886e-038
23.009363 294.17032 -81.364372 2.3509886e-038
29.49552 303.14258 -83.846001 2.3509886e-038
34.271366 310.64822 -85.921989 2.3509886e-038
-6.5061345 287.90442 -85.124886 2.3509886e-038
-4.9419575 287.51184 -85.008804 2.3509886e-038
0.54439509 287.6402 -85.046761 2.3509886e-038
6.0425525 288.09882 -85.182365 2.3509886e-038
11.6063 289.75745 -85.672783 2.3509886e-038
17.273664 292.09787 -86.364769 2.3509886e-038
23.141504 295.85971 -87.477036 2.3509886e-038
29.469685 302.87704 -89.551849 2.3509886e-038
29.874418 303.40131 -89.706871 2.3509886e-038
2.7989337 299.05203 -94.127228 2.3509886e-038
6.2459736 297.79758 -93.732391 2.3509886e-038
11.901942 297.13831 -93.524879 2.3509886e-038
17.63081 298.13721 -93.839287 2.3509886e-038
22.98996 300.23309 -94.49897 2.3509886e-038
-79.959526 210.56734 -7.2095647 2.3418409e-038
-80.464035 211.89592 -15.768428 2.3418409e-038
-75.926682 210.52589 -6.7813692 2.3418409e-038
-77.020409 213.55852 -18.145531 2.3418409e-038
-72.037392 210.90012 -7.4185882 2.3418409e-038
-72.572533 212.4668 -19.486439 2.3418409e-038
-63.28532 196.23978 44.917568 2.3509528e-038
-65.121071 201.93219 34.645634 2.3509528e-038
-69.353897 215.05765 -8.5256262 2.3418409e-038
-69.29216 214.8662 -20.66781 2.3418409e-038
-60.375198 198.98981 44.626854 2.3509528e-038
-61.862354 203.8913 30.697941 2.3509528e-038
-66.639305 219.63557 -9.5107841 2.3418409e-038
-67.044731 220.97182 -22.008186 2.3418409e-038
-58.035091 204.11374 43.336048 2.3509528e-038
-58.643257 206.25272 27.257214 2.3509528e-038
-63.456169 223.18008 -10.167871 2.3418409e-038
-64.100594 225.44656 -23.239054 2.3418409e-038
-54.141167 204.1169 40.342648 2.3509528e-038
-55.049206 207.54028 23.434401 2.3509528e-038
-59.968048 226.08473 -10.705759 2.3418409e-038
-60.54562 228.26225 -24.50684 2.3418409e-038
-50.434288 204.8804 37.277752 2.3509528e-038
-51.707188 210.05135 19.154633 2.3509528e-038
-56.497711 229.51199 -11.493625 2.3418409e-038
-56.593178 229.89981 -25.786745 2.3418409e-038
-47.915276 211.00314 34.791569 2.3509528e-038
-48.37928 213.04646 14.675413 2.3509528e-038
-53.207478 234.30826 -12.386794 2.3418409e-038
-52.918938 233.03763 -27.448626 2.3509886e-038
-45.011971 216.4017 31.833054 2.3509528e-038
-44.960884 216.15608 10.286489 2.3509528e-038
-49.493095 237.94537 -12.877704 2.3418409e-038
-49.455193 237.76314 -29.791765 2.3509886e-038
-41.068348 217.38417 28.09914 2.3509528e-038
-41.921024 221.89757 5.7714953 2.3509528e-038
-45.151913 238.99939 -12.343855 2.3418409e-038
-46.036007 243.67914 -33.054176 2.3509886e-038
-34.416512 202.64166 77.223946 3.5733111e-043
-35.872856 211.21651 60.544201 3.5733111e-043
-37.183342 218.93254 24.421629 2.3509528e-038
-39.248703 231.09322 -0.44541085 2.3418409e-038
-40.869171 240.63443 -9.5555735 2.3418409e-038
-41.918388 246.81212 -36.964909 2.3509886e-038
-31.141003 206.56293 76.024757 3.5733111e-043
-32.71133 216.97914 48.723927 3.5733111e-043
-33.275459 220.72108 20.559391 2.3509528e-038
-37.477097 248.59116 -42.121029 2.3509886e-038
-27.955137 212.30139 70.606178 3.5733111e-043
-29.311546 222.60246 35.409065 3.5733111e-043
-29.780426 226.16328 17.124344 2.3509528e-038
-33.426167 253.85034 -49.48288 2.3509886e-038
-24.474203 217.36432 62.478455 3.5733111e-043
-25.816465 229.28542 24.449474 3.5733111e-043
-26.02808 231.16484 16.011087 2.3509886e-038
-29.375092 260.89087 -57.532242 2.3509886e-038
-20.955956 224.09435 55.254337 3.5733111e-043
-24.746164 264.62527 -64.07431 2.3509886e-038
-16.585667 222.82761 86.981293 2.3509886e-038
-17.372252 233.39537 64.532028 9.1476764e-041
-17.396997 233.72781 56.042297 3.5733111e-043
-20.227831 271.75992 -70.65992 2.3509886e-038
-12.54105 226.57158 82.795609 9.1476764e-041
-15.577751 281.43381 -77.462936 2.3509886e-038
-8.4201155 232.15065 73.854202 9.1476764e-041
-10.379642 286.17667 -82.440903 2.3509886e-038
-4.0300121 234.45689 62.361412 9.1476764e-041
-4.970067 289.14716 -86.326759 2.3509886e-038
0.46064037 243.38699 52.982986 2.3509886e-038
0.56136101 296.60443 -91.942627 2.3509886e-038
5.4345164 259.10867 45.307777 2.3509886e-038
6.3089967 300.8024 -96.479034 2.3509886e-038
10.039674 250.64578 27.103703 2.3509886e-038
12.07244 301.39487 -98.034744 2.3509886e-038
16.047932 271.37073 -25.849747 2.3509886e-038
17.79517 300.91656 -97.122986 2.3509886e-038
23.098795 295.31369 -49.573086 2.3509886e-038
23.481194 300.20258 -94.151733 2.3509886e-038
29.655434 304.7861 -63.177505 2.3509886e-038
29.479479 302.97772 -89.986977 2.3509886e-038
