# .PCD v0.7 - Point Cloud Data file format
VERSION 0.7
FIELDS x y z rgb
SIZE 4 4 4 4
TYPE F F F F
COUNT 1 1 1 1
WIDTH 588
HEIGHT 1
VIEWPOINT 0 0 0 1 0 0 0
POINTS 588
DATA ascii
0 0 0 2.3418052e-038
-15.206377 230.62318 77.118057 9.1476764e-041
-36.082745 201.61424 64.569122 3.5733111e-043
-70.850311 197.93994 32.628437 2.3509528e-038
-82.313705 210.57138 -11.900777 2.3418409e-038
-18.891562 229.2318 82.106873 9.1476764e-041
-18.21817 229.30148 82.131844 9.1476764e-041
-13.586386 229.4437 82.182777 9.1476764e-041
-12.597456 229.40149 82.167656 9.1476764e-041
-42.048801 200.54576 67.773727 3.5733111e-043
-40.172768 199.99556 67.587791 3.5733111e-043
-36.163216 200.20378 67.658165 3.5733111e-043
-33.817783 201.43121 68.072968 3.5733111e-043
-18.967875 229.94139 77.707886 9.1476764e-041
-18.263947 229.87764 77.68634 9.1476764e-041
-13.602105 229.70917 77.629402 9.1476764e-041
-10.516919 230.09637 77.760254 9.1476764e-041
-42.788136 203.7823 64.743729 3.5733111e-043
-40.672256 202.48221 64.330673 3.5733111e-043
-36.331684 201.13644 63.903107 3.5733111e-043
-32.411549 202.07236 64.200462 3.5733111e-043
-31.240152 202.76707 64.421173 3.5733111e-043
-18.647429 230.40652 73.202515 9.1476764e-041
-18.303942 230.38103 73.194412 9.1476764e-041
-13.662127 230.72281 73.303009 9.1476764e-041
-9.1005516 233.47804 74.178368 9.1476764e-041
-8.8368397 233.7621 74.268616 9.1476764e-041
-42.123501 205.93892 61.261467 3.5733111e-043
-41.209141 205.15503 61.028278 3.5733111e-043
-36.561028 202.40613 60.210552 3.5733111e-043
-32.431301 202.1955 60.147896 3.5733111e-043
-28.965534 203.52213 60.542534 3.5733111e-043
-17.998421 231.65222 68.9105 9.1476764e-041
-13.739746 232.03362 69.023956 9.1476764e-041
-9.1540337 234.85013 69.861801 9.1476764e-041
-7.1996746 236.71944 70.41787 9.1476764e-041
-40.775906 207.51183 57.530098 3.5733111e-043
-37.004311 204.86018 56.794964 3.5733111e-043
-32.696022 203.84593 56.513775 3.5733111e-043
-28.779703 205.33537 56.926704 3.5733111e-043
-27.326933 206.68263 57.300217 3.5733111e-043
-17.098633 233.51651 64.739578 9.1476764e-041
-13.825987 233.49002 64.732231 9.1476764e-041
-9.177166 235.44359 65.273834 9.1476764e-041
-5.4402981 237.72197 65.905487 9.1476764e-041
-39.389156 209.40269 53.816799 3.5733111e-043
-37.591705 208.11209 53.485111 3.5733111e-043
-33.12159 206.49918 53.070591 3.5733111e-043
-29.065367 207.37354 53.2953 3.5733111e-043
-25.76898 209.56583 53.858723 3.5733111e-043
-16.066381 234.34726 60.227589 9.1476764e-041
-13.889097 234.55583 60.281193 9.1476764e-041
-9.1912575 235.80513 60.602264 9.1476764e-041
-4.4711204 238.56256 61.310925 9.1476764e-041
-3.6104369 239.34378 61.5117 9.1476764e-041
-38.134537 211.40195 50.052624 3.5733111e-043
-33.512516 208.93643 49.468876 3.5733111e-043
-29.259069 208.75554 49.426044 3.5733111e-043
-25.235071 210.42691 49.82177 3.5733111e-043
-23.926691 211.7572 50.136734 3.5733111e-043
-15.29894 235.90746 55.854671 9.1476764e-041
-13.981668 236.11913 55.904785 9.1476764e-041
-9.2252798 236.67798 56.037106 9.1476764e-041
-4.4654708 238.26112 56.411942 9.1476764e-041
-1.7171868 239.87112 56.793133 9.1476764e-041
-36.928783 213.42053 46.211716 3.5733111e-043
-33.918365 211.46674 45.788666 3.5733111e-043
-29.475889 210.30251 45.536575 3.5733111e-043
-25.343718 211.33289 45.759682 3.5733111e-043
-21.83835 213.95908 46.328327 3.5733111e-043
-15.107102 238.42993 51.626976 9.1476764e-041
-14.126823 238.57048 51.65741 9.1476764e-041
-9.2858276 238.23134 51.583973 9.1476764e-041
-4.4715619 238.58611 51.660789 9.1476764e-041
0.25391313 240.40398 52.054417 9.1476764e-041
-35.677521 215.43434 42.288185 3.5733111e-043
-34.403831 214.49341 42.103489 3.5733111e-043
-29.748581 212.24808 41.662746 3.5733111e-043
-25.496439 212.60637 41.733074 3.5733111e-043
-21.516672 215.84244 42.368294 3.5733111e-043
-19.583403 222.18259 43.612816 3.5733111e-043
-15.742482 236.25485 46.375099 9.1476764e-041
-14.124231 238.5267 46.821045 9.1476764e-041
-9.3444929 239.73643 47.058506 9.1476764e-041
-4.5026727 240.24608 47.158546 9.1476764e-041
0.36505112 244.28725 47.951797 9.1476764e-041
3.0735681 251.15479 49.299847 9.1476764e-041
-76.300041 199.0183 35.038445 2.3509528e-038
-76.194046 198.94287 35.025166 2.3509528e-038
-71.506691 197.11934 34.704124 2.3509528e-038
-67.733154 197.74829 34.814854 2.3509528e-038
-66.146851 198.60034 34.964859 2.3509528e-038
-34.271481 216.91798 38.1898 3.5733111e-043
-30.027586 214.23869 37.71809 3.5733111e-043
-25.65452 213.92456 37.662785 3.5733111e-043
-21.589108 216.56908 38.128372 3.5733111e-043
-17.793932 223.96182 39.429909 3.5733111e-043
-13.980617 236.10138 41.567158 9.1476764e-041
-9.3874178 240.83768 42.401016 9.1476764e-041
-4.5428109 242.3877 42.673904 9.1476764e-041
0.37024489 247.76286 43.620235 9.1476764e-041
5.790133 266.45126 46.91045 2.3509886e-038
7.5683861 274.56702 48.339279 2.3509886e-038
-76.637886 201.41554 31.384594 2.3509528e-038
-72.161652 198.92484 30.996494 2.3509528e-038
-67.986923 198.48917 30.928606 2.3509528e-038
-64.406723 199.84346 31.139635 2.3509528e-038
-60.678341 200.57011 31.252861 2.3509528e-038
-32.996597 219.04315 34.131332 3.5733111e-043
-30.454611 217.28542 33.857441 3.5733111e-043
-25.911772 216.0697 33.668007 3.5733111e-043
-21.713852 217.82042 33.940807 3.5733111e-043
-17.663046 222.31445 34.641064 3.5733111e-043
-13.821309 233.41103 36.370136 3.5733111e-043
-9.4045973 241.27843 37.596035 9.1476764e-041
-4.5744538 244.07605 38.031963 9.1476764e-041
0.37084672 248.16557 38.669189 9.1476764e-041
5.7016253 262.3783 40.88382 2.3509886e-038
11.087523 281.71216 43.896423 2.3509886e-038
-74.097511 202.40056 27.442251 2.3509528e-038
-73.224609 201.85504 27.368286 2.3509528e-038
-68.442833 199.82022 27.092398 2.3509528e-038
-64.351067 199.67078 27.072136 2.3509528e-038
-60.398628 199.96263 27.111706 2.3509528e-038
-56.913513 201.95467 27.381792 2.3509528e-038
-55.958202 202.87959 27.507198 2.3509528e-038
-31.808079 222.19882 30.126575 3.5733111e-043
-31.040102 221.46272 30.026772 3.5733111e-043
-26.239191 218.79993 29.665741 3.5733111e-043
-21.901945 219.70726 29.788761 3.5733111e-043
-17.678015 222.50284 30.167795 3.5733111e-043
-13.632698 230.2258 31.214905 3.5733111e-043
-9.3698235 240.38629 32.592503 9.1476764e-041
-4.5895085 244.87932 33.201683 9.1476764e-041
0.37009177 247.66039 33.578751 9.1476764e-041
5.5580554 255.77148 34.678486 9.1476764e-041
11.417716 272.06528 36.887661 2.3509886e-038
12.457724 274.93137 37.276257 2.3509886e-038
-70.433365 204.39902 23.576941 2.3509528e-038
-69.896866 204.06529 23.538446 2.3509528e-038
-65.076202 201.92075 23.291079 2.3509528e-038
-60.773579 201.20398 23.208403 2.3509528e-038
-57.144199 202.77322 23.38941 2.3509528e-038
-53.618549 204.98186 23.644171 2.3509528e-038
-51.703773 206.74278 23.847288 2.3509528e-038
-30.223164 224.48611 25.89394 3.5733111e-043
-26.62261 221.99715 25.606842 3.5733111e-043
-22.117325 221.86783 25.591927 3.5733111e-043
-17.77375 223.70782 25.804165 3.5733111e-043
-13.500112 227.98671 26.297726 3.5733111e-043
-9.2402487 237.062 27.344538 9.1476764e-041
-4.5680709 243.73547 28.114307 9.1476764e-041
0.36894384 246.89221 28.47843 9.1476764e-041
5.4522347 250.90182 28.940929 9.1476764e-041
10.918525 260.17038 30.010033 2.3509886e-038
13.052034 264.87555 30.552767 2.3509886e-038
-66.775414 207.32726 19.719175 2.3509528e-038
-61.932026 205.03928 19.501564 2.3509528e-038
-57.696976 204.73473 19.472597 2.3509528e-038
-53.682106 205.22484 19.519213 2.3509528e-038
-49.897755 206.75226 19.664486 2.3509528e-038
-46.697491 209.38161 19.91457 2.3509528e-038
-28.566208 226.9313 21.583744 3.5733111e-043
-27.085438 225.85651 21.48152 3.5733111e-043
-22.374334 224.446 21.347363 3.5733111e-043
-17.911283 225.43886 21.441795 3.5733111e-043
-13.448317 227.11201 21.600931 3.5733111e-043
-9.051734 232.22559 22.08729 3.5733111e-043
-4.5066209 240.45674 22.870167 9.1476764e-041
0.36740148 245.86009 23.384087 9.1476764e-041
5.4140167 249.14308 23.696335 2.3509886e-038
10.680932 254.50891 24.206686 2.3509886e-038
13.849503 258.81561 24.616304 2.3509886e-038
-63.592434 211.48109 15.834672 2.3509886e-038
-58.837708 208.78256 15.632618 2.3509528e-038
-54.040833 206.59624 15.468918 2.3509528e-038
-49.807449 206.37807 15.452582 2.3509528e-038
-46.002216 208.05643 15.578249 2.3509528e-038
-42.455803 211.3614 15.825709 2.3509528e-038
-41.520676 212.58884 15.917614 2.3509528e-038
-27.19235 229.48357 17.18261 2.3509886e-038
-22.690485 227.61743 17.042881 3.5733111e-043
-18.081596 227.5825 17.040266 3.5733111e-043
-13.494791 227.89687 17.063805 3.5733111e-043
-8.9459209 229.51093 17.184656 2.3509886e-038
-4.4235001 236.0217 17.672152 2.3509886e-038
0.36381724 243.46156 18.229212 2.3509886e-038
5.3867917 247.89024 18.560812 2.3509886e-038
10.593061 252.41512 18.899612 2.3509886e-038
15.051291 256.43243 19.200409 2.3509886e-038
-60.375118 215.56953 11.778471 2.3509886e-038
-55.11158 210.68967 11.511841 2.3509528e-038
-50.18425 207.93936 11.361567 2.3509528e-038
-45.957058 207.85217 11.356803 2.3509528e-038
-42.109604 209.63788 11.454372 2.3509528e-038
-38.549759 213.41597 11.660802 2.3509528e-038
-36.374359 216.79228 11.845281 2.3509528e-038
-26.766172 232.29543 12.692354 2.3509886e-038
-23.001585 230.7382 12.60727 2.3509886e-038
-18.219107 229.31325 12.529412 2.3509886e-038
-13.59877 229.65283 12.547966 2.3509886e-038
-8.9665928 230.04128 12.569191 2.3509886e-038
-4.3687882 233.10248 12.736451 2.3509886e-038
0.35822716 239.72076 13.098065 2.3509886e-038
5.3354716 245.52859 13.415399 2.3509886e-038
10.508385 250.39742 13.681426 2.3509886e-038
15.874767 255.20865 13.944306 2.3509886e-038
16.386717 255.73552 13.973094 2.3509886e-038
-55.700474 215.10764 7.4002566 2.3509886e-038
-51.020634 211.40492 7.2728734 2.3509528e-038
-46.387806 209.80035 7.2176723 2.3509528e-038
-42.270813 210.44044 7.2396932 2.3509528e-038
-38.458336 212.90985 7.3246469 2.3509528e-038
-34.724236 216.49098 7.4478474 2.3509528e-038
-31.079212 221.74176 7.6284881 2.3509528e-038
-27.50581 229.36185 7.8906379 2.3509528e-038
-23.042583 231.14948 7.9521379 2.3509886e-038
-18.258629 229.8107 7.9060802 2.3509886e-038
-13.666422 230.79532 7.9399533 2.3509886e-038
-9.0276861 231.60863 7.9679332 2.3509886e-038
-4.3613296 232.70451 8.0056353 2.3509886e-038
0.35291862 236.16837 8.1248007 2.3509886e-038
5.2582035 241.97285 8.3244886 2.3509886e-038
10.454144 249.10495 8.5698519 2.3509886e-038
15.876498 255.23648 8.7807922 2.3509886e-038
17.562078 256.95889 8.8400478 2.3509886e-038
-51.159504 217.45735 3.0805666 2.3509886e-038
-47.694286 215.70923 3.0558023 2.3509528e-038
-43.075779 214.44788 3.0379336 2.3509528e-038
-38.818699 214.90485 3.0444071 2.3509528e-038
-34.762005 216.72647 3.0702128 2.3509528e-038
-30.772249 219.55167 3.1102355 2.3509528e-038
-26.929602 224.55704 3.1811433 2.3509528e-038
-22.727242 227.98616 3.2297211 2.3509886e-038
-18.198641 229.05566 3.2448719 2.3509886e-038
-13.676305 230.96222 3.2718809 2.3509886e-038
-9.0570059 232.36086 3.2916942 2.3509886e-038
-4.364028 232.8485 3.2986023 2.3509886e-038
0.34967399 233.99709 3.3148737 2.3509886e-038
5.1706591 237.94421 3.3707898 2.3509886e-038
10.35743 246.80042 3.4962497 2.3509886e-038
15.962398 256.61743 3.6353202 2.3509886e-038
18.385544 260.02844 3.6836417 2.3509886e-038
-46.636608 223.85695 -1.3587967 2.3509886e-038
-44.732224 222.69429 -1.3517394 2.3509886e-038
-39.76804 220.16051 -1.3363595 2.3509528e-038
-35.146893 219.12607 -1.3300805 2.3509528e-038
-30.791323 219.68776 -1.33349 2.3509528e-038
-26.649687 222.22293 -1.3488783 2.3509886e-038
-22.482586 225.53192 -1.3689636 2.3509886e-038
-18.107382 227.90706 -1.3833807 2.3509886e-038
-13.616246 229.94797 -1.3957689 2.3509886e-038
-9.027668 231.60817 -1.4058461 2.3509886e-038
-4.363914 232.84242 -1.4133379 2.3509886e-038
0.34976974 234.06117 -1.4207356 2.3509886e-038
5.1372223 236.40552 -1.4349656 2.3509886e-038
10.234373 243.86818 -1.4802635 2.3509886e-038
16.099924 258.82834 -1.5710708 2.3509886e-038
19.04937 266.48047 -1.6175185 2.3509886e-038
-43.007847 232.4597 -6.1151323 2.3509886e-038
-41.772533 231.25761 -6.0835104 2.3509886e-038
-36.307892 226.36441 -5.9547887 2.3509886e-038
-31.316328 223.43353 -5.8776884 2.3509886e-038
-26.740099 222.97684 -5.865674 2.3509886e-038
-22.37174 224.41998 -5.9036379 2.3509886e-038
-18.014351 226.73613 -5.9645672 2.3509886e-038
-13.545158 228.74745 -6.017477 2.3509886e-038
-8.9931278 230.72202 -6.0694203 2.3509886e-038
-4.3647728 232.88821 -6.1264052 2.3509886e-038
0.35093164 234.83868 -6.1777139 2.3509886e-038
5.1511745 237.04756 -6.2358217 2.3509886e-038
10.221482 243.56102 -6.407166 2.3509886e-038
16.19706 260.38992 -6.8498707 2.3509886e-038
19.383163 270.46307 -7.1148572 2.3509886e-038
-85.815773 209.59712 -9.7551613 2.3418409e-038
-84.543892 209.66623 -9.7583771 2.3418409e-038
-80.959297 211.38495 -9.8383713 2.3418409e-038
-77.456352 213.52052 -9.9377661 2.3418409e-038
-75.239174 214.98584 -10.005966 2.3418409e-038
-42.373245 240.83052 -11.20884 2.3509886e-038
-37.992893 236.86969 -11.024494 2.3509886e-038
-32.217682 229.86444 -10.698452 2.3509886e-038
-27.09189 225.91032 -10.514418 2.3509886e-038
-22.450859 225.21365 -10.481993 2.3509886e-038
-17.98465 226.36229 -10.535454 2.3509886e-038
-13.500358 227.99088 -10.611252 2.3509886e-038
-8.9744396 230.24258 -10.716052 2.3509886e-038
-4.3650684 232.90401 -10.83992 2.3509886e-038
0.35178664 235.41084 -10.956594 2.3509886e-038
5.1855998 238.63177 -11.106505 2.3509886e-038
10.31203 245.71861 -11.436344 2.3509886e-038
16.282728 261.76718 -12.183284 2.3509886e-038
19.469982 271.58817 -12.640377 2.3509886e-038
-85.589737 209.27214 -13.974925 2.3418409e-038
-84.456177 209.44868 -13.986713 2.3418409e-038
-80.687279 210.6747 -14.068584 2.3418409e-038
-76.792465 211.6904 -14.136413 2.3418409e-038
-73.129807 213.50389 -14.257515 2.3418409e-038
-69.724762 216.34447 -14.447205 2.3418409e-038
-66.224579 219.25069 -14.641279 2.3418409e-038
-62.535034 221.90233 -14.818352 2.3418409e-038
-58.822426 224.8761 -15.016936 2.3418409e-038
-56.681808 226.6971 -15.13854 2.3418409e-038
-45.137543 237.00522 -15.826903 2.3509886e-038
-43.067471 238.42654 -15.921818 2.3509886e-038
-38.021374 237.04726 -15.82971 2.3509886e-038
-32.482483 231.75371 -15.476213 2.3509886e-038
-27.404844 228.51993 -15.260267 2.3509886e-038
-22.680317 227.51543 -15.193188 2.3509886e-038
-18.058399 227.29051 -15.178167 2.3509886e-038
-13.491735 227.84525 -15.215213 2.3509886e-038
-8.9529543 229.69135 -15.338491 2.3509886e-038
-4.3604321 232.65665 -15.536511 2.3509886e-038
0.35286504 236.13249 -15.768623 2.3509886e-038
5.2277131 240.56975 -16.064938 2.3509886e-038
10.42049 248.30304 -16.581356 2.3509886e-038
16.378424 263.3056 -17.58321 2.3509886e-038
19.541004 272.52667 -18.19898 2.3509886e-038
-80.586586 212.01277 -18.448288 2.3418409e-038
-77.01004 212.29018 -18.472427 2.3418409e-038
-73.102966 213.42555 -18.571222 2.3418409e-038
-69.465065 215.53867 -18.755095 2.3418409e-038
-65.599297 217.18057 -18.897964 2.3418409e-038
-61.707424 218.96561 -19.053289 2.3418409e-038
-57.92318 221.43832 -19.268454 2.3418409e-038
-54.129032 224.28462 -19.516123 2.3418409e-038
-50.216881 227.11827 -19.762693 2.3418409e-038
-46.148838 229.74675 -19.991411 2.3418409e-038
-41.791664 231.36354 -20.132095 2.3418409e-038
-37.102772 231.32014 -20.128319 2.3509886e-038
-32.262573 230.18475 -20.029522 2.3509886e-038
-27.549147 229.72322 -19.989363 2.3509886e-038
-22.888014 229.59892 -19.978548 2.3509886e-038
-18.192261 228.97537 -19.924288 2.3509886e-038
-13.549808 228.82597 -19.911289 2.3509886e-038
-8.9634552 229.96078 -20.010035 2.3509886e-038
-4.3638296 232.83792 -20.260387 2.3509886e-038
0.35492331 237.50986 -20.666918 2.3509886e-038
5.2757154 242.7787 -21.125385 2.3509886e-038
10.509804 250.43124 -21.791271 2.3509886e-038
16.448702 264.43546 -23.009846 2.3509886e-038
19.594791 272.94092 -23.749949 2.3509886e-038
-67.898308 218.16962 -23.398966 2.3418409e-038
-65.98037 218.44217 -23.428198 2.3418409e-038
-61.844505 219.45203 -23.536505 2.3418409e-038
-57.833775 221.09653 -23.712881 2.3418409e-038
-53.910278 223.3782 -23.957594 2.3418409e-038
-49.838802 225.40833 -24.175327 2.3418409e-038
-45.616665 227.0974 -24.356482 2.3418409e-038
-41.292969 228.60271 -24.517927 2.3418409e-038
-36.800709 229.43692 -24.607397 2.3418409e-038
-32.157871 229.43771 -24.607483 2.3509886e-038
-27.54884 229.72067 -24.637829 2.3509886e-038
-22.973742 230.45891 -24.717009 2.3509886e-038
-18.325954 230.6581 -24.738371 2.3509886e-038
-13.665115 230.77327 -24.750723 2.3509886e-038
-9.0358162 231.81723 -24.86269 2.3509886e-038
-4.3925805 234.37196 -25.136686 2.3509886e-038
0.35723352 239.05582 -25.639036 2.3509886e-038
5.3228664 244.94852 -26.271036 2.3509886e-038
10.628052 253.2489 -27.161263 2.3509886e-038
16.561913 266.25543 -28.556229 2.3509886e-038
19.857393 274.07278 -29.394653 2.3509886e-038
-55.680592 223.52887 -28.497143 2.3418409e-038
-54.018105 223.82501 -28.534897 2.3418409e-038
-49.809734 225.27686 -28.71999 2.3418409e-038
-45.549919 226.76509 -28.909721 2.3418409e-038
-41.192059 228.04405 -29.072771 2.3418409e-038
-36.675842 228.65842 -29.151096 2.3418409e-038
-32.041122 228.60474 -29.144251 2.3418409e-038
-27.497116 229.28937 -29.231533 2.3509886e-038
-23.007759 230.80016 -29.424141 2.3509886e-038
-18.421705 231.86325 -29.559671 2.3509886e-038
-13.771842 232.57564 -29.650492 2.3509886e-038
-9.1221333 234.03171 -29.836124 2.3509886e-038
-4.4297333 236.35429 -30.132223 2.3509886e-038
0.35924274 240.40036 -30.648046 2.3509886e-038
5.3514442 246.26361 -31.39554 2.3509886e-038
10.736555 255.83434 -32.615688 2.3509886e-038
16.771185 269.61975 -34.373158 2.3509886e-038
20.699932 278.47736 -35.502388 2.3509886e-038
-46.599293 229.48405 -33.900253 2.3418409e-038
-46.103592 229.5215 -33.905785 2.3418409e-038
-41.603256 230.32048 -34.023815 2.3418409e-038
-36.795036 229.40157 -33.888069 2.3418409e-038
-32.04303 228.61833 -33.772369 2.3418409e-038
-27.528708 229.55278 -33.910408 2.3509886e-038
-23.069963 231.42413 -34.186852 2.3509886e-038
-18.529524 233.22029 -34.452187 2.3509886e-038
-13.876367 234.34082 -34.617714 2.3509886e-038
-9.1899834 235.77243 -34.829201 2.3509886e-038
-4.4673424 238.36099 -35.21159 2.3509886e-038
0.36225203 242.41415 -35.810337 2.3509886e-038
5.385499 247.83076 -36.6105 2.3509886e-038
10.806996 257.51285 -38.040771 2.3509886e-038
16.960546 272.66403 -40.278969 2.3509886e-038
22.089973 285.42795 -42.164501 2.3509886e-038
-41.303734 236.51976 -39.725861 2.3418409e-038
-37.453266 233.50536 -39.219559 2.3418409e-038
-32.479744 231.73418 -38.922073 2.3418409e-038
-27.817886 231.96416 -38.960697 2.3509886e-038
-23.275797 233.48894 -39.216801 2.3509886e-038
-18.70167 235.38698 -39.535599 2.3509886e-038
-13.990121 236.26187 -39.682545 2.3509886e-038
-9.2456102 237.19954 -39.840034 2.3509886e-038
-4.4988146 240.04022 -40.317158 2.3509886e-038
0.36524862 244.41942 -41.052685 2.3509886e-038
5.4289689 249.83118 -41.961643 2.3509886e-038
10.86731 258.94998 -43.49324 2.3509886e-038
17.069599 274.41721 -46.091114 2.3509886e-038
23.789814 292.17462 -49.073647 2.3509886e-038
-36.553558 239.69333 -45.10939 2.3509886e-038
-33.293304 237.53871 -44.703899 2.3509886e-038
-28.208471 235.22112 -44.267735 2.3509886e-038
-23.487301 235.61064 -44.341042 2.3509886e-038
-18.834915 237.06407 -44.614574 2.3509886e-038
-14.072036 237.64523 -44.723946 2.3509886e-038
-9.2976456 238.53455 -44.891312 2.3509886e-038
-4.5242658 241.39819 -45.430244 2.3509886e-038
0.3672969 245.79012 -46.256783 2.3509886e-038
5.4581928 251.17599 -47.270386 2.3509886e-038
10.924541 260.31375 -48.990078 2.3509886e-038
17.15591 275.80475 -51.905426 2.3509886e-038
24.281963 294.5433 -55.43195 2.3509886e-038
25.69803 297.7951 -56.04393 2.3509886e-038
-32.963795 243.82962 -50.822025 2.3509886e-038
-28.718012 239.47 -49.913342 2.3509886e-038
-23.652842 237.27124 -49.455048 2.3509886e-038
-18.911661 238.03004 -49.613209 2.3509886e-038
-14.156828 239.07718 -49.831467 2.3509886e-038
-9.3702297 240.39673 -50.106499 2.3509886e-038
-4.5530272 242.93279 -50.635098 2.3509886e-038
0.36854941 246.62825 -51.405354 2.3509886e-038
5.4773784 252.05887 -52.53727 2.3509886e-038
11.002469 262.17062 -54.644886 2.3509886e-038
17.278751 277.7796 -57.898308 2.3509886e-038
24.333281 295.16577 -61.522152 2.3509886e-038
27.788149 302.29205 -63.007496 2.3509886e-038
-30.21912 249.12405 -56.966904 2.3509886e-038
-29.785564 248.37198 -56.794926 2.3509886e-038
-24.048996 241.24521 -55.165257 2.3509886e-038
-19.084452 240.20485 -54.927361 2.3509886e-038
-14.298681 241.47276 -55.217293 2.3509886e-038
-9.4671984 242.88449 -55.540112 2.3509886e-038
-4.5852981 244.65466 -55.944897 2.3509886e-038
0.36981955 247.47821 -56.590553 2.3509886e-038
5.4988289 253.04597 -57.863728 2.3509886e-038
11.08067 264.03403 -60.376354 2.3509886e-038
17.364288 279.15472 -63.833981 2.3509886e-038
24.233789 293.95892 -67.219246 2.3509886e-038
29.70697 303.55063 -69.412567 2.3509886e-038
-27.239229 251.3262 -62.55637 2.3509886e-038
-24.647726 247.25131 -61.542114 2.3509886e-038
-19.330833 243.30591 -60.560078 2.3509886e-038
-14.455852 244.12701 -60.764458 2.3509886e-038
-9.563776 245.36223 -61.071907 2.3509886e-038
-4.6269088 246.87483 -61.448406 2.3509886e-038
0.3732276 249.75885 -62.166252 2.3509886e-038
5.5529871 255.53825 -63.604771 2.3509886e-038
11.146031 265.59146 -66.107071 2.3509886e-038
17.322245 278.47882 -69.314796 2.3509886e-038
24.028664 291.47073 -72.548553 2.3509886e-038
30.937021 302.71643 -75.347664 2.3509886e-038
-23.333611 251.34689 -67.64782 2.3509886e-038
-19.732946 248.36708 -66.845833 2.3509886e-038
-14.687317 248.03595 -66.756721 2.3509886e-038
-9.7098579 249.11003 -67.045792 2.3509886e-038
-4.7110753 251.36566 -67.652878 2.3509886e-038
0.38094035 254.92012 -68.609528 2.3509886e-038
5.6513162 260.06317 -69.993736 2.3509886e-038
11.218179 267.31064 -71.944336 2.3509886e-038
17.212473 276.71408 -74.475182 2.3509886e-038
23.677301 287.20865 -77.299706 2.3509886e-038
30.507463 297.12466 -79.968513 2.3509886e-038
30.979668 297.70709 -80.125267 2.3509886e-038
-18.475138 257.78568 -74.597412 2.3509886e-038
-15.144478 255.75638 -74.01017 2.3509886e-038
-9.9522619 255.32898 -73.886497 2.3509886e-038
-4.8365693 258.06155 -74.677246 2.3509886e-038
0.39049265 261.31238 -75.61795 2.3509886e-038
5.7500916 264.60864 -76.571823 2.3509886e-038
11.315882 269.63873 -78.02742 2.3509886e-038
17.20105 276.53046 -80.021721 2.3509886e-038
23.382637 283.63437 -82.077446 2.3509886e-038
29.820747 290.43643 -84.045815 2.3509886e-038
30.270748 290.89755 -84.179245 2.3509886e-038
-11.649872 263.71701 -81.650436 2.3509886e-038
-10.277411 263.67078 -81.636116 2.3509886e-038
-4.9675536 265.05042 -82.063271 2.3509886e-038
0.39889964 266.9382 -82.647766 2.3509886e-038
5.8569255 269.52493 -83.448647 2.3509886e-038
11.506561 274.18231 -84.890633 2.3509886e-038
17.383789 279.46823 -86.527229 2.3509886e-038
23.389475 283.71732 -87.842796 2.3509886e-038
29.070307 287.87119 -89.128899 2.3509886e-038
-1.6284599 273.72586 -90.288506 2.3509886e-038
0.41068211 274.82288 -90.65036 2.3509886e-038
6.0591812 278.83237 -91.972885 2.3509886e-038
11.859705 282.59714 -93.214691 2.3509886e-038
17.728294 285.00665 -94.009476 2.3509886e-038
23.630226 286.63763 -94.547455 2.3509886e-038
25.894619 287.54483 -94.846687 2.3509886e-038
-84.701607 210.05734 -9.0762787 2.3418409e-038
-84.651932 209.93416 -15.240232 2.3418409e-038
-76.149704 198.82707 35.178215 2.3509528e-038
-76.89402 200.77049 32.759708 2.3509528e-038
-81.277428 212.21559 -8.734931 2.3418409e-038
-81.122131 211.8101 -18.14068 2.3418409e-038
-71.232559 196.36366 36.79665 2.3509528e-038
-73.486877 202.57803 26.785891 2.3509528e-038
-77.633438 214.00867 -9.3977289 2.3418409e-038
-77.189384 212.78458 -19.88604 2.3418409e-038
-67.688248 197.61717 35.765694 2.3509528e-038
-70.078407 204.59531 23.223463 2.3509528e-038
-73.879913 215.69388 -10.382308 2.3418409e-038
-73.476585 214.51634 -21.138897 2.3418409e-038
-64.46199 200.01495 33.902866 2.3509528e-038
-66.807312 207.2921 19.755548 2.3509528e-038
-70.407486 218.46286 -11.447951 2.3418409e-038
-69.983841 217.14833 -22.512009 2.3418409e-038
-60.576729 200.55228 31.179071 2.3509528e-038
-63.791519 211.19553 16.091471 2.3509886e-038
-66.908867 221.51616 -12.532982 2.3418409e-038
-66.16906 219.06689 -24.200003 2.3418409e-038
-56.90659 201.93008 28.320984 2.3509528e-038
-60.692989 215.36594 12.133777 2.3509886e-038
-62.965088 223.42838 -13.547854 2.3418409e-038
-62.331177 221.17897 -25.980568 2.3418409e-038
-53.667786 205.17009 25.520081 2.3509528e-038
-56.307838 215.26292 7.929297 2.3509886e-038
-58.971542 225.44618 -14.552367 2.3418409e-038
-58.264553 222.74338 -27.566607 2.3418409e-038
-50.162941 207.85106 22.5784 2.3509528e-038
-52.193974 216.26668 4.1264629 2.3509886e-038
-54.893909 227.45392 -15.565623 2.3418409e-038
-54.072903 224.05206 -29.12351 2.3418409e-038
-46.341515 209.59099 19.644363 2.3509528e-038
-48.807911 220.74586 0.73535091 2.3509886e-038
-50.779274 229.66185 -16.351139 2.3418409e-038
-50.054565 226.38416 -31.245085 2.3418409e-038
-40.025501 199.26242 70.157364 3.5733111e-043
-41.514889 206.67715 59.471062 3.5733111e-043
-42.567722 211.91858 16.74271 2.3509528e-038
-45.419449 226.11557 -2.6560133 2.3509886e-038
-46.976688 233.8681 -16.412273 2.3509886e-038
-46.192593 229.96458 -34.291031 2.3418409e-038
-36.079269 199.73904 69.906609 3.5733111e-043
-38.174858 211.34047 50.176388 3.5733111e-043
-38.750225 214.52576 13.713475 2.3509528e-038
-42.467842 235.10695 -7.5652394 2.3509886e-038
-43.532768 241.0025 -14.320126 2.3509886e-038
-42.577099 235.71179 -38.477528 2.3418409e-038
-32.464554 202.40282 66.304626 3.5733111e-043
-34.725624 216.49965 39.503174 3.5733111e-043
-34.973457 218.04478 10.80217 2.3509528e-038
-38.175278 238.00677 -42.950508 2.3418409e-038
-28.59918 204.04741 59.86401 3.5733111e-043
-31.267859 223.08769 28.614767 3.5733111e-043
-31.226175 222.7903 8.7087955 2.3509528e-038
-33.968773 242.35799 -48.951706 2.3509886e-038
-25.226208 210.353 52.727116 3.5733111e-043
-27.432934 228.75417 18.234592 2.3509886e-038
-27.69153 230.91051 9.5916119 2.3509886e-038
-29.914782 249.44948 -57.574451 2.3509886e-038
-21.435072 215.0239 45.660408 3.5733111e-043
-25.073887 251.52629 -65.669403 2.3509886e-038
-18.206739 229.15759 85.677452 9.1476764e-041
-18.342979 230.87238 70.914185 9.1476764e-041
-18.045856 227.13264 43.222023 3.5733111e-043
-20.240932 254.7608 -71.985405 2.3509886e-038
-13.577355 229.29118 83.988907 9.1476764e-041
-15.437509 260.70502 -78.004684 2.3509886e-038
-9.085968 233.10388 74.802933 9.1476764e-041
-10.337594 265.21481 -83.003853 2.3509886e-038
-4.4699802 238.50169 63.538315 9.1476764e-041
-5.063067 270.14667 -87.501999 2.3509886e-038
0.3594943 240.5687 51.845699 9.1476764e-041
0.41330218 276.57623 -92.094391 2.3509886e-038
5.7865381 266.28583 48.9151 2.3509886e-038
6.195488 285.10495 -97.000931 2.3509886e-038
11.75419 280.08292 41.576073 2.3509886e-038
12.141788 289.31873 -99.659546 2.3509886e-038
15.906885 255.72499 15.838742 2.3509886e-038
17.998163 289.34515 -99.551125 2.3509886e-038
24.195744 293.49744 -50.61784 2.3509886e-038
23.738518 287.95123 -96.823975 2.3509886e-038
31.039486 302.30624 -76.155113 2.3509886e-038
29.627691 288.55618 -87.137894 2.3509886e-038
