# .PCD v0.7 - Point Cloud Data file format
VERSION 0.7
FIELDS x y z rgb
SIZE 4 4 4 4
TYPE F F F F
COUNT 1 1 1 1
WIDTH 724
HEIGHT 1
VIEWPOINT 0 0 0 1 0 0 0
POINTS 724
DATA ascii
57.919636 236.49815 16.707588 2.3418052e-038
-87.958878 252.379 -34.470371 9.1476764e-041
-61.846947 247.76936 42.009247 3.5733111e-043
-22.132011 247.32758 61.736664 2.3509528e-038
11.333457 240.63991 51.000557 2.3418409e-038
-25.734911 248.99797 66.841843 2.3509528e-038
-25.089825 248.61867 66.740021 2.3509528e-038
-20.122917 246.91103 66.281609 2.3509528e-038
-19.85368 246.86771 66.269989 2.3509528e-038
-28.184448 252.06107 62.769516 2.3509528e-038
-25.164143 249.35509 62.095661 2.3509528e-038
-20.118849 246.86111 61.474594 2.3509528e-038
-16.839405 246.42584 61.366199 2.3509528e-038
-28.367203 253.94994 58.308632 2.3509528e-038
-25.322968 250.92891 57.614983 2.3509528e-038
-20.199366 247.84904 56.907825 2.3509528e-038
-15.415272 247.36977 56.797779 2.3509528e-038
8.0970297 241.92947 55.548649 2.3418409e-038
8.4591618 241.61504 55.476452 2.3418409e-038
13.049685 239.75545 55.04948 2.3418409e-038
15.142687 239.87523 55.076984 2.3418409e-038
-27.977497 254.53592 53.500538 2.3509528e-038
-25.411301 251.8042 52.926361 2.3509528e-038
-20.217501 248.07156 52.141804 2.3509528e-038
-15.38066 247.75409 52.075073 2.3509528e-038
-14.466531 248.2411 52.177441 2.3509528e-038
5.6250792 244.26141 51.340954 2.3418409e-038
8.4614801 241.68124 50.798634 2.3418409e-038
13.07619 240.24242 50.496204 2.3418409e-038
16.943947 240.77434 50.608009 2.3418409e-038
-65.903572 248.90189 47.483082 3.5733111e-043
-63.426636 247.50613 47.216812 3.5733111e-043
-58.438454 246.73747 47.070175 3.5733111e-043
-57.954666 246.84407 47.090511 3.5733111e-043
-27.648853 254.2588 48.505028 2.3509528e-038
-25.421368 251.90398 48.055794 2.3509528e-038
-20.200615 247.86438 47.28516 2.3509528e-038
-15.399212 248.05292 47.321125 2.3509528e-038
-13.697519 249.41127 47.580257 2.3509528e-038
4.9257407 245.33434 46.802502 2.3418409e-038
8.4800444 242.21147 46.206753 2.3418409e-038
13.113685 240.9313 45.962532 2.3418409e-038
17.406845 241.57863 46.086021 2.3418409e-038
-67.306999 249.78632 42.801395 3.5733111e-043
-63.470043 247.67551 42.439701 3.5733111e-043
-58.534737 247.14398 42.348625 3.5733111e-043
-55.007896 247.54704 42.417694 3.5733111e-043
-27.611719 255.01955 43.69812 2.3509528e-038
-25.500147 252.6846 43.298019 2.3509528e-038
-20.237785 248.32047 42.550217 2.3509528e-038
-15.414974 248.30682 42.547882 2.3509528e-038
-12.796292 249.95117 42.829643 2.3509528e-038
4.7618179 246.46359 42.23204 2.3418409e-038
8.5181599 243.30017 41.68998 2.3418409e-038
13.178684 242.12549 41.488697 2.3418409e-038
17.565048 242.93031 41.626606 2.3418409e-038
-67.181664 250.58455 38.072254 3.5733111e-043
-63.783363 248.89815 37.816036 3.5733111e-043
-58.618702 247.4985 37.603382 3.5733111e-043
-53.678375 246.88068 37.509514 3.5733111e-043
-52.728813 247.1548 37.551163 3.5733111e-043
-27.766823 256.63995 38.992279 2.3509886e-038
-25.644751 254.11752 38.609035 2.3509528e-038
-20.315201 249.27037 37.872585 2.3509528e-038
-15.453247 248.92332 37.819862 2.3509528e-038
-11.716336 251.39249 38.195011 2.3509528e-038
4.7321057 248.35387 37.733341 2.3418409e-038
8.5579491 244.43665 37.138184 2.3418409e-038
13.22283 242.93655 36.910267 2.3418409e-038
17.658762 244.14368 37.09367 2.3418409e-038
-66.512787 251.8363 33.372223 3.5733111e-043
-64.169159 250.40364 33.182373 3.5733111e-043
-58.635166 247.56802 32.80661 3.5733111e-043
-53.539925 246.24391 32.631145 3.5733111e-043
-50.625713 247.03842 32.736427 3.5733111e-043
-27.822033 257.46472 34.11808 2.3509886e-038
-25.750011 255.16054 33.812737 2.3509528e-038
-20.407457 250.40236 33.182205 2.3509528e-038
-15.500995 249.69244 33.088127 2.3509528e-038
-10.769745 252.44284 33.452595 2.3509528e-038
-10.47299 252.74509 33.492649 2.3509528e-038
4.5723562 248.63081 32.947445 2.3418409e-038
8.5495186 244.19586 32.359745 2.3418409e-038
13.209321 242.68835 32.159977 2.3418409e-038
17.671642 244.31859 32.376011 2.3418409e-038
-65.332573 252.72414 28.582407 3.5733111e-043
-64.591858 252.05309 28.506512 3.5733111e-043
-58.696259 247.82596 28.028439 3.5733111e-043
-53.628834 246.65283 27.895758 3.5733111e-043
-49.162441 248.28491 28.080343 2.3509886e-038
-48.735691 248.68991 28.126146 2.3509886e-038
-27.778187 258.65024 29.252634 2.3509886e-038
-25.8799 256.44763 29.003525 2.3509886e-038
-20.51511 251.7233 28.469213 2.3509528e-038
-15.561996 250.67505 28.35066 2.3509528e-038
-10.747947 251.93187 28.492805 2.3509528e-038
-9.4170275 252.59903 28.568258 2.3509528e-038
4.0690107 247.7576 28.020704 2.3418409e-038
8.5142899 243.18962 27.50408 2.3418409e-038
13.184808 242.23801 27.396454 2.3418409e-038
17.637619 243.84819 27.578562 2.3418409e-038
-63.67115 253.02408 23.703049 3.5733111e-043
-58.901379 248.692 23.297224 3.5733111e-043
-53.776215 247.33067 23.169697 3.5733111e-043
-49.217373 248.56233 23.285078 3.5733111e-043
-46.652454 250.10985 23.430048 2.3509886e-038
-27.487131 260.15823 24.37137 2.3509886e-038
-26.049843 258.13162 24.181519 2.3509886e-038
-20.619282 253.00148 23.700932 2.3509528e-038
-15.628578 251.74757 23.583467 2.3509528e-038
-10.754301 252.08083 23.614685 2.3509528e-038
-8.8387375 252.82773 23.684656 2.3509528e-038
3.3269935 248.54146 23.283123 2.3418409e-038
3.863199 247.7585 23.209774 2.3418409e-038
8.4977322 242.71669 22.737463 2.3418409e-038
13.167193 241.91438 22.662302 2.3418409e-038
17.568935 242.99976 22.763981 2.3418409e-038
-61.682465 252.24429 18.73185 3.5733111e-043
-59.198364 249.94594 18.561172 3.5733111e-043
-53.944721 248.10568 18.424513 3.5733111e-043
-49.267838 248.81718 18.47735 3.5733111e-043
-44.859749 251.18858 18.653452 3.5733111e-043
-44.510345 251.59145 18.683369 2.3509886e-038
-26.767958 261.04758 19.385588 2.3509886e-038
-26.262712 260.24097 19.325691 2.3509886e-038
-20.717773 254.20999 18.877825 2.3509528e-038
-15.678957 252.5591 18.755228 2.3509528e-038
-10.786461 252.83464 18.77569 2.3509528e-038
-8.6461773 253.90068 18.854855 2.3509528e-038
2.6138773 250.09123 18.571962 2.3509528e-038
3.8684614 248.09599 18.423794 2.3418409e-038
8.4970169 242.69627 18.022808 2.3418409e-038
13.17243 242.01059 17.971888 2.3418409e-038
17.513748 242.96048 18.042427 2.3418409e-038
54.306553 241.1983 17.911566 2.3418052e-038
54.999763 239.97093 17.820421 2.3418052e-038
58.744934 236.29193 17.547216 2.3418052e-038
61.233402 235.91185 17.51899 2.3418052e-038
-59.956661 252.13489 13.827711 3.5733111e-043
-59.660069 251.89534 13.814573 3.5733111e-043
-54.219437 249.36916 13.676031 3.5733111e-043
-49.374928 249.35805 13.675422 3.5733111e-043
-44.89328 251.37633 13.78611 3.5733111e-043
-42.537075 253.752 13.916396 2.3509886e-038
-25.952789 262.76993 14.410963 2.3509886e-038
-20.85413 255.8831 14.033272 2.3509528e-038
-15.729492 253.37312 13.895618 2.3509528e-038
-10.818316 253.58134 13.907039 2.3509528e-038
-8.6075134 254.55037 13.960182 2.3509528e-038
2.0064614 251.13818 13.773049 2.3509528e-038
3.8729889 248.38635 13.622132 2.3418409e-038
8.5209885 243.38098 13.347625 2.3418409e-038
13.223857 242.95543 13.324286 2.3418409e-038
17.387838 244.12657 13.388515 2.3418409e-038
50.685722 242.72926 13.311883 2.3418052e-038
50.866291 242.4801 13.298218 2.3418052e-038
54.536232 237.94849 13.049693 2.3418052e-038
58.619431 235.78712 12.931159 2.3418052e-038
60.622822 235.87851 12.936171 2.3418052e-038
-58.615784 253.55998 8.9821777 3.5733111e-043
-54.681232 251.4931 8.9089603 3.5733111e-043
-49.668751 250.84195 8.8858938 3.5733111e-043
-45.124485 252.67094 8.9506845 3.5733111e-043
-40.857521 256.57797 9.0890884 2.3509886e-038
-25.265989 265.15445 9.3929043 2.3509886e-038
-21.058338 258.38876 9.1532335 2.3509886e-038
-15.798144 254.47899 9.0147333 2.3509528e-038
-10.843138 254.16318 9.0035458 2.3509528e-038
-8.458848 255.11595 9.0372972 2.3509528e-038
1.359359 253.22383 8.9702711 2.3509528e-038
3.8913109 249.5614 8.8405313 2.3418409e-038
8.5705853 244.79759 8.6717768 2.3418409e-038
13.310591 244.54895 8.6629686 2.3418409e-038
16.985191 245.99881 8.7143297 2.3418409e-038
46.804852 241.3835 8.5508347 2.3418052e-038
50.137554 239.0062 8.4666214 2.3418052e-038
54.327953 237.03975 8.3969612 2.3418052e-038
58.883183 236.84802 8.3901691 2.3418052e-038
59.131527 236.91905 8.3926849 2.3418052e-038
-57.489788 256.43015 4.1044211 3.5733111e-043
-55.442978 254.99654 4.0814748 3.5733111e-043
-50.03812 252.70737 4.0448341 3.5733111e-043
-45.274506 253.51099 4.0576968 3.5733111e-043
-40.748928 256.00623 4.0976353 2.3509886e-038
-38.929531 257.6069 4.1232562 2.3509886e-038
-24.732771 266.23669 4.2613845 2.3509886e-038
-21.228897 260.48154 4.1692677 2.3509886e-038
-15.857786 255.4397 4.0885682 2.3509886e-038
-10.848195 254.28169 4.0700331 2.3509528e-038
-7.6960964 255.41862 4.0882306 2.3509528e-038
0.042540278 256.58893 4.1069627 2.3509886e-038
3.9209933 251.46503 4.0249496 2.3418409e-038
8.6391382 246.75563 3.9495704 2.3418409e-038
13.413908 246.44714 3.944633 2.3418409e-038
16.365011 247.61075 3.9632576 2.3418409e-038
43.611084 243.69489 3.9005804 2.3418052e-038
45.83091 240.76308 3.8536539 2.3418052e-038
49.923038 237.98361 3.809166 2.3418052e-038
54.361946 237.18806 3.7964325 2.3418052e-038
57.064503 237.85837 3.8071613 2.3418052e-038
-55.861195 258.09109 -0.8806681 3.5733111e-043
-50.284912 253.95372 -0.86655045 3.5733111e-043
-45.320202 253.76683 -0.86591274 3.5733111e-043
-40.62735 255.24237 -0.87094766 3.5733111e-043
-36.282265 257.50183 -0.87865746 2.3509886e-038
-25.363533 267.97705 -0.91440135 2.3509886e-038
-21.347025 261.931 -0.89377081 2.3509886e-038
-15.903371 256.17398 -0.87412643 2.3509886e-038
-10.84429 254.19017 -0.86735731 2.3509886e-038
-5.9506803 256.01068 -0.87356931 2.3509886e-038
-0.98517907 257.52017 -0.87872005 2.3509886e-038
3.9427793 252.86221 -0.86282593 2.3509886e-038
8.7139244 248.89169 -0.84927762 2.3418409e-038
13.519492 248.38699 -0.84755546 2.3418409e-038
15.938334 249.06949 -0.84988421 2.3418409e-038
40.208767 246.24144 -0.84023428 2.3418052e-038
41.781151 244.42192 -0.83402568 2.3418052e-038
45.765892 240.42154 -0.82037538 2.3418052e-038
50.066517 238.66756 -0.81439042 2.3418052e-038
54.794247 239.07425 -0.81577814 2.3418052e-038
54.818207 239.08321 -0.81580871 2.3418052e-038
-53.695442 257.99857 -5.8902388 3.5733111e-043
-50.657501 255.83542 -5.8408532 3.5733111e-043
-45.497837 254.76152 -5.8163352 3.5733111e-043
-40.578667 254.93654 -5.8203316 2.3509886e-038
-35.778515 256.01181 -5.8448806 2.3509886e-038
-31.608839 262.67337 -5.9969673 2.3509886e-038
-26.920677 266.76086 -6.0902867 2.3509886e-038
-21.353153 262.0062 -5.9817348 2.3509886e-038
-15.954375 256.99557 -5.8673406 2.3509886e-038
-10.876268 254.93973 -5.8204041 2.3509886e-038
-5.9354196 255.35411 -5.8298645 2.3509886e-038
-0.97906882 255.92297 -5.8428521 2.3509886e-038
3.9500575 253.32901 -5.7836304 2.3509886e-038
8.7789755 250.74971 -5.7247438 2.3509886e-038
13.595466 249.78282 -5.7026691 2.3418409e-038
16.203255 250.23117 -5.7129054 2.3418409e-038
36.438072 249.45824 -5.6952586 2.3418052e-038
37.557106 247.86832 -5.6589599 2.3418052e-038
41.649109 243.64948 -5.5626421 2.3418052e-038
45.850182 240.86432 -5.4990554 2.3418052e-038
50.429329 240.39709 -5.4883881 2.3418052e-038
52.669693 241.591 -5.515646 2.3418052e-038
-52.0299 260.26068 -10.995687 3.5733111e-043
-51.433556 259.75473 -10.974311 3.5733111e-043
-45.8559 256.76645 -10.848061 3.5733111e-043
-40.676014 255.54813 -10.796588 2.3509886e-038
-35.711132 255.52968 -10.795809 2.3509886e-038
-31.014647 257.73557 -10.889006 2.3509886e-038
-26.258272 260.19699 -10.992997 2.3509886e-038
-21.146881 259.47519 -10.962502 2.3509886e-038
-15.992908 257.61624 -10.883965 2.3509886e-038
-10.934283 256.29962 -10.828338 2.3509886e-038
-5.9324436 255.2261 -10.782983 2.3509886e-038
-0.97424281 254.6615 -10.75913 2.3509886e-038
3.9589455 253.899 -10.726915 2.3509886e-038
8.8407068 252.51294 -10.668355 2.3509886e-038
13.674704 251.23862 -10.614517 2.3418052e-038
18.017033 252.07945 -10.650042 2.3418052e-038
31.64307 253.28783 -10.701094 2.3418052e-038
33.225819 251.5161 -10.626241 2.3418052e-038
37.452179 247.17583 -10.44287 2.3418052e-038
41.815727 244.62419 -10.335067 2.3418052e-038
46.196407 242.68315 -10.253059 2.3418052e-038
49.845627 242.25157 -10.234826 2.3418052e-038
-50.671696 262.82129 -16.207397 2.3509886e-038
-46.317463 259.35092 -15.99339 2.3509886e-038
-40.849117 256.63565 -15.825946 2.3509886e-038
-35.732296 255.68109 -15.767082 2.3509886e-038
-30.846418 256.33759 -15.807568 2.3509886e-038
-25.981771 257.45709 -15.876602 2.3509886e-038
-21.004969 257.73392 -15.893674 2.3509886e-038
-15.990896 257.58386 -15.884419 2.3509886e-038
-10.969262 257.11954 -15.855787 2.3509886e-038
-5.9524851 256.08832 -15.792194 2.3509886e-038
-0.97688532 255.35223 -15.746802 2.3509886e-038
3.9757755 254.97836 -15.723748 2.3509886e-038
8.8857298 253.7989 -15.651013 2.3509886e-038
13.722871 252.12357 -15.547701 2.3418052e-038
18.585245 251.67102 -15.519794 2.3418052e-038
23.606279 253.10805 -15.608411 2.3418052e-038
28.390175 251.94519 -15.536701 2.3418052e-038
32.95042 249.43135 -15.38168 2.3418052e-038
37.496243 247.46664 -15.260522 2.3418052e-038
42.155003 246.60898 -15.207632 2.3418052e-038
46.757153 245.62892 -15.147196 2.3418052e-038
47.276546 245.52101 -15.140541 2.3418052e-038
-49.558495 264.31973 -21.432428 2.3509886e-038
-46.743046 261.73395 -21.222757 2.3509886e-038
-41.025803 257.7457 -20.899366 2.3509886e-038
-35.834522 256.41257 -20.791271 2.3509886e-038
-30.922716 256.97162 -20.836603 2.3509886e-038
-26.013069 257.76724 -20.901114 2.3509886e-038
-21.017918 257.89282 -20.911297 2.3509886e-038
-15.99082 257.58264 -20.886147 2.3509886e-038
-10.973569 257.22049 -20.856781 2.3509886e-038
-5.9669228 256.70944 -20.815344 2.3509886e-038
-0.98133379 256.51501 -20.79958 2.3509886e-038
3.996248 256.29132 -20.781441 2.3509886e-038
8.9301205 255.06682 -20.68215 2.3509886e-038
13.776548 253.10976 -20.523462 2.3418052e-038
18.579498 251.59317 -20.400488 2.3418052e-038
23.401241 250.90962 -20.345064 2.3418052e-038
28.217888 250.41624 -20.305058 2.3418052e-038
33.006062 249.85255 -20.25935 2.3418052e-038
37.749523 249.1382 -20.201427 2.3418052e-038
42.538799 248.8542 -20.1784 2.3418052e-038
44.732109 249.5424 -20.234203 2.3509886e-038
-48.989578 265.79504 -26.713341 2.3509886e-038
-47.12537 263.87473 -26.520344 2.3509886e-038
-41.203014 258.85901 -26.016245 2.3509886e-038
-35.937363 257.14844 -25.844328 2.3509886e-038
-30.995293 257.57474 -25.887171 2.3509886e-038
-26.071392 258.34515 -25.964602 2.3509886e-038
-21.077913 258.62897 -25.993126 2.3509886e-038
-16.031004 258.22995 -25.95302 2.3509886e-038
-10.98986 257.60233 -25.889944 2.3509886e-038
-5.9747591 257.04657 -25.834089 2.3509886e-038
-0.98398954 257.20923 -25.850437 2.3509886e-038
4.0131965 257.37827 -25.867426 2.3509886e-038
8.9800749 256.49362 -25.778515 2.3509886e-038
13.877398 254.96262 -25.624643 2.3509886e-038
18.742155 253.79581 -25.507376 2.3418052e-038
23.578627 252.81155 -25.408455 2.3418052e-038
28.404243 252.07004 -25.333929 2.3418052e-038
33.232212 251.56447 -25.283119 2.3418052e-038
37.994186 250.75296 -25.201559 2.3418052e-038
41.925064 250.90646 -25.216988 2.3509886e-038
-96.895798 255.94408 -30.693266 9.1476764e-041
-94.978722 254.79007 -30.554878 9.1476764e-041
-89.501671 253.2917 -30.375191 9.1476764e-041
-85.125603 254.91599 -30.569977 9.1476764e-041
-83.27739 256.21408 -30.725647 9.1476764e-041
-48.995296 267.82007 -32.117455 2.3509886e-038
-47.504208 265.996 -31.898714 2.3509886e-038
-41.35947 259.84195 -31.160707 2.3509886e-038
-36.006756 257.64499 -30.897243 2.3509886e-038
-31.030075 257.8638 -30.923485 2.3509886e-038
-26.098181 258.6106 -31.013042 2.3509886e-038
-21.109388 259.01517 -31.061558 2.3509886e-038
-16.084148 259.08597 -31.070049 2.3509886e-038
-11.032568 258.60342 -31.01218 2.3509886e-038
-5.986124 257.53552 -30.884117 2.3509886e-038
-0.98444802 257.32907 -30.859358 2.3509886e-038
4.0159802 257.55682 -30.886671 2.3509886e-038
9.0081673 257.29602 -30.855394 2.3509886e-038
13.972157 256.70358 -30.784349 2.3509886e-038
18.933786 256.39075 -30.746834 2.3509886e-038
23.846323 255.68181 -30.661816 2.3509886e-038
28.654428 254.29028 -30.494942 2.3418052e-038
33.455521 253.25491 -30.370779 2.3418052e-038
38.317684 252.88797 -30.326773 2.3509886e-038
39.855194 253.14268 -30.357321 2.3509886e-038
-96.461945 252.285 -35.153397 9.1476764e-041
-93.552406 250.96384 -34.969303 9.1476764e-041
-88.601501 250.74419 -34.938702 9.1476764e-041
-84.444786 252.87721 -35.235912 9.1476764e-041
-80.457169 255.81131 -35.644753 9.1476764e-041
-76.156952 258.0722 -35.959785 9.1476764e-041
-75.952187 258.19318 -35.976643 9.1476764e-041
-49.357273 270.12738 -37.639553 2.3509886e-038
-47.854107 267.95523 -37.336887 2.3509886e-038
-41.469471 260.53302 -36.302677 2.3509886e-038
-36.056187 257.99872 -35.949543 2.3509886e-038
-31.079899 258.27783 -35.988434 2.3509886e-038
-26.146194 259.08636 -36.101101 2.3509886e-038
-21.137758 259.36325 -36.139683 2.3509886e-038
-16.115784 259.59555 -36.172047 2.3509886e-038
-11.075272 259.60437 -36.173275 2.3509886e-038
-6.0085192 258.49902 -36.019257 2.3509886e-038
-0.98606956 257.75296 -35.915298 2.3509886e-038
4.0170279 257.62399 -35.897335 2.3509886e-038
9.0174322 257.56064 -35.888504 2.3509886e-038
14.015602 257.50177 -35.880302 2.3509886e-038
19.015116 257.4921 -35.878952 2.3509886e-038
23.944941 256.7392 -35.774044 2.3509886e-038
28.784826 255.44748 -35.594055 2.3509886e-038
33.735626 255.37526 -35.583992 2.3509886e-038
38.792526 257.50888 -35.881287 2.3509886e-038
-93.450111 250.25725 -39.730404 9.1476764e-041
-93.267883 250.20058 -39.721409 9.1476764e-041
-88.253181 249.75842 -39.651211 9.1476764e-041
-84.041756 251.6703 -39.954739 9.1476764e-041
-80.087708 254.63661 -40.425667 9.1476764e-041
-75.854141 257.04605 -40.808182 9.1476764e-041
-71.771362 260.34192 -41.331429 9.1476764e-041
-70.588089 262.12332 -41.614239 9.1476764e-041
-49.901684 272.03766 -43.188221 2.3509886e-038
-48.065414 269.13843 -42.727947 2.3509886e-038
-41.511288 260.79575 -41.403477 2.3509886e-038
-36.047058 257.93335 -40.949047 2.3509886e-038
-31.078625 258.26724 -41.002056 2.3509886e-038
-26.190552 259.52594 -41.201881 2.3509886e-038
-21.21838 260.35248 -41.333107 2.3509886e-038
-16.16935 260.45844 -41.349926 2.3509886e-038
-11.1161 260.5614 -41.366276 2.3509886e-038
-6.0419183 259.93591 -41.266972 2.3509886e-038
-0.99116015 259.08359 -41.13166 2.3509886e-038
4.0357437 258.82431 -41.090496 2.3509886e-038
9.0555944 258.65067 -41.062927 2.3509886e-038
14.060126 258.31979 -41.010399 2.3509886e-038
19.053238 258.0083 -40.960949 2.3509886e-038
24.004662 257.37952 -40.861126 2.3509886e-038
28.939205 256.8175 -40.771893 2.3509886e-038
34.10458 258.16821 -40.986336 2.3509886e-038
38.486416 262.30161 -41.642544 2.3509886e-038
-89.299202 250.11479 -44.564594 9.1476764e-041
-88.371132 250.09224 -44.560574 9.1476764e-041
-84.003578 251.55598 -44.821377 9.1476764e-041
-79.820587 253.78731 -45.218948 9.1476764e-041
-75.581039 256.12061 -45.634682 9.1476764e-041
-71.438286 259.1337 -46.171551 9.1476764e-041
-67.516045 263.46399 -46.943104 9.1476764e-041
-65.348412 267.96613 -47.745281 9.1476764e-041
-51.100296 272.69037 -48.587029 2.3509886e-038
-47.953266 268.5105 -47.84227 2.3509886e-038
-41.605061 261.38489 -46.572655 2.3509886e-038
-36.120956 258.46213 -46.051891 2.3509886e-038
-31.090883 258.36911 -46.03532 2.3509886e-038
-26.20792 259.69803 -46.272099 2.3509886e-038
-21.286654 261.19025 -46.537975 2.3509886e-038
-16.237034 261.54868 -46.601841 2.3509886e-038
-11.1665 261.74277 -46.636425 2.3509886e-038
-6.0831275 261.70883 -46.630375 2.3509886e-038
-0.99822772 260.93103 -46.491787 2.3509886e-038
4.0631781 260.58374 -46.429909 2.3509886e-038
9.1147652 260.34076 -46.38662 2.3509886e-038
14.146728 259.91089 -46.310028 2.3509886e-038
19.16853 259.56952 -46.249203 2.3509886e-038
24.161501 259.06116 -46.158623 2.3509886e-038
29.15756 258.75528 -46.104122 2.3509886e-038
34.456341 260.83102 -46.473972 2.3509886e-038
38.694462 265.97031 -47.389675 2.3509886e-038
-85.055984 254.20108 -50.228813 9.1476764e-041
-84.884438 254.19379 -50.227367 9.1476764e-041
-79.907021 254.06212 -50.201351 9.1476764e-041
-75.288017 255.12767 -50.4119 9.1476764e-041
-70.981911 257.47827 -50.876366 9.1476764e-041
-66.676117 260.18637 -51.411472 9.1476764e-041
-62.603474 264.32291 -52.228832 9.1476764e-041
-58.428925 268.72968 -53.099586 9.1476764e-041
-53.38155 269.59268 -53.270107 2.3509886e-038
-47.545246 266.22583 -52.604836 2.3509886e-038
-41.710041 262.04443 -51.778614 2.3509886e-038
-36.308838 259.80652 -51.336414 2.3509886e-038
-31.205523 259.32178 -51.240635 2.3509886e-038
-26.229694 259.91379 -51.357613 2.3509886e-038
-21.291128 261.24512 -51.620678 2.3509886e-038
-16.278471 262.21619 -51.812553 2.3509886e-038
-11.214016 262.85654 -51.939087 2.3509886e-038
-6.1199527 263.29312 -52.025349 2.3509886e-038
-1.0052552 262.76797 -51.921585 2.3509886e-038
4.0863156 262.06766 -51.783199 2.3509886e-038
9.1604509 261.64563 -51.69981 2.3509886e-038
14.24155 261.65302 -51.701271 2.3509886e-038
19.314716 261.54907 -51.680737 2.3509886e-038
24.315508 260.71243 -51.515423 2.3509886e-038
29.284492 259.88171 -51.351273 2.3509886e-038
34.551979 261.55499 -51.681904 2.3509886e-038
38.987865 266.41153 -52.641533 2.3509886e-038
-78.775154 255.91954 -55.537876 9.1476764e-041
-75.493477 255.82388 -55.517117 9.1476764e-041
-70.861122 257.04013 -55.781059 9.1476764e-041
-66.299736 258.71765 -56.145103 9.1476764e-041
-61.791912 260.89636 -56.617908 9.1476764e-041
-57.219891 263.16901 -57.111107 9.1476764e-041
-52.345608 264.36084 -57.369751 9.1476764e-041
-47.100887 263.73764 -57.234509 2.3509886e-038
-41.723488 262.12888 -56.885384 2.3509886e-038
-36.468559 260.9494 -56.629417 2.3509886e-038
-31.348045 260.50616 -56.53323 2.3509886e-038
-26.282621 260.43826 -56.518497 2.3509886e-038
-21.294193 261.28275 -56.701759 2.3509886e-038
-16.314463 262.7959 -57.030132 2.3509886e-038
-11.262372 263.99002 -57.289272 2.3509886e-038
-6.1503949 264.60281 -57.422256 2.3509886e-038
-1.0111448 264.30743 -57.358158 2.3509886e-038
4.1097488 263.57047 -57.198223 2.3509886e-038
9.2127686 263.13995 -57.104801 2.3509886e-038
14.325751 263.19998 -57.117828 2.3509886e-038
19.403713 262.75424 -57.021091 2.3509886e-038
24.381155 261.41632 -56.730747 2.3509886e-038
29.336555 260.34372 -56.497982 2.3509886e-038
34.553337 261.56528 -56.763073 2.3509886e-038
39.465981 266.11584 -57.750607 2.3509886e-038
-73.511574 259.78506 -61.421314 9.1476764e-041
-71.511925 259.40085 -61.330471 9.1476764e-041
-66.466537 259.36856 -61.322842 9.1476764e-041
-61.492596 259.6326 -61.385262 9.1476764e-041
-56.62014 260.41061 -61.56921 9.1476764e-041
-51.733711 261.27057 -61.772537 9.1476764e-041
-46.720989 261.61044 -61.85289 9.1476764e-041
-41.639454 261.60098 -61.850647 2.3509886e-038
-36.535057 261.42523 -61.809101 2.3509886e-038
-31.436642 261.2424 -61.765873 2.3509886e-038
-26.345491 261.06125 -61.723042 2.3509886e-038
-21.330341 261.72629 -61.88028 2.3509886e-038
-16.350412 263.375 -62.270088 2.3509886e-038
-11.302397 264.92819 -62.637306 2.3509886e-038
-6.1769533 265.74539 -62.830524 2.3509886e-038
-1.0160807 265.59769 -62.795601 2.3509886e-038
4.134984 265.1889 -62.698952 2.3509886e-038
9.2750273 264.91824 -62.634953 2.3509886e-038
14.395114 264.47437 -62.53001 2.3509886e-038
19.457197 263.47849 -62.294556 2.3509886e-038
24.449675 262.15097 -61.980686 2.3509886e-038
29.47179 261.54388 -61.837147 2.3509886e-038
34.85981 263.88522 -62.39072 2.3509886e-038
40.853512 273.12332 -64.574898 2.3509886e-038
-69.274277 264.12741 -67.576874 9.1476764e-041
-67.396957 262.9993 -67.288239 9.1476764e-041
-61.641647 260.26193 -66.587891 9.1476764e-041
-56.392258 259.36252 -66.357773 9.1476764e-041
-51.382416 259.49646 -66.392044 9.1476764e-041
-46.414688 259.89532 -66.494095 9.1476764e-041
-41.43705 260.32935 -66.605133 2.3509886e-038
-36.398846 260.45056 -66.636154 2.3509886e-038
-31.343409 260.46762 -66.640511 2.3509886e-038
-26.311483 260.72424 -66.706177 2.3509886e-038
-21.331541 261.741 -66.966309 2.3509886e-038
-16.360601 263.53912 -67.426361 2.3509886e-038
-11.326537 265.49405 -67.926529 2.3509886e-038
-6.2044783 266.9296 -68.293808 2.3509886e-038
-1.0230594 267.42188 -68.419754 2.3509886e-038
4.169683 267.41425 -68.417801 2.3509886e-038
9.3465681 266.96161 -68.301994 2.3509886e-038
14.46945 265.84012 -68.01506 2.3509886e-038
19.530277 264.46811 -67.664032 2.3509886e-038
24.570206 263.44333 -67.40184 2.3509886e-038
29.706425 263.6261 -67.448608 2.3509886e-038
35.407917 268.03433 -68.576454 2.3509886e-038
42.007561 282.2142 -72.204369 2.3509886e-038
-64.58905 265.18307 -72.996361 9.1476764e-041
-62.383102 263.39249 -72.503471 9.1476764e-041
-56.652687 260.5603 -71.723862 9.1476764e-041
-51.322723 259.19501 -71.348038 9.1476764e-041
-46.224098 258.82813 -71.247055 2.3509886e-038
-41.201229 258.84781 -71.252464 2.3509886e-038
-36.143185 258.62119 -71.190086 2.3509886e-038
-31.130072 258.69476 -71.210342 2.3509886e-038
-26.199099 259.61063 -71.462448 2.3509886e-038
-21.291767 261.25296 -71.914528 2.3509886e-038
-16.356342 263.47049 -72.524948 2.3509886e-038
-11.344131 265.90643 -73.19548 2.3509886e-038
-6.230124 268.0329 -73.780838 2.3509886e-038
-1.0308743 269.4646 -74.174934 2.3509886e-038
4.2044802 269.64587 -74.224831 2.3509886e-038
9.4088421 268.7403 -73.975555 2.3509886e-038
14.55269 267.36942 -73.59819 2.3509886e-038
19.632881 265.85751 -73.182014 2.3509886e-038
24.708815 264.9295 -72.926567 2.3509886e-038
29.970316 265.96796 -73.212425 2.3509886e-038
36.067665 273.02859 -75.155983 2.3509886e-038
41.750393 286.80768 -78.948921 2.3509886e-038
-60.189632 267.00595 -78.68293 9.1476764e-041
-57.646118 265.12936 -78.129929 9.1476764e-041
-51.678284 260.99069 -76.910309 9.1476764e-041
-46.227329 258.84622 -76.278374 2.3509886e-038
-41.112835 258.29248 -76.115181 2.3509886e-038
-36.048096 257.9408 -76.011551 2.3509886e-038
-31.046442 257.99982 -76.028946 2.3509886e-038
-26.14411 259.0657 -76.343056 2.3509886e-038
-21.270536 260.99246 -76.910835 2.3509886e-038
-16.358776 263.50974 -77.652641 2.3509886e-038
-11.361441 266.31219 -78.478485 2.3509886e-038
-6.2523332 268.9884 -79.267128 2.3509886e-038
-1.0366932 270.98566 -79.855698 2.3509886e-038
4.2285457 271.18927 -79.915695 2.3509886e-038
9.4576502 270.1344 -79.604836 2.3509886e-038
14.633747 268.85864 -79.228889 2.3509886e-038
19.759996 267.5788 -78.851746 2.3509886e-038
24.880238 266.76752 -78.612663 2.3509886e-038
30.233822 268.30643 -79.066162 2.3509886e-038
36.685596 277.70627 -81.836166 2.3509886e-038
40.018784 285.85443 -84.237312 2.3509886e-038
-56.030773 270.23074 -84.880638 2.3509886e-038
-52.712234 266.21243 -83.618469 2.3509886e-038
-46.595577 260.9082 -81.952393 2.3509886e-038
-41.265015 259.24854 -81.431076 2.3509886e-038
-36.182884 258.90527 -81.32325 2.3509886e-038
-31.159485 258.93921 -81.333916 2.3509886e-038
-26.206163 259.68063 -81.566795 2.3509886e-038
-21.304098 261.40427 -82.108208 2.3509886e-038
-16.382637 263.89407 -82.890266 2.3509886e-038
-11.384615 266.85538 -83.820427 2.3509886e-038
-6.2733927 269.89441 -84.774994 2.3509886e-038
-1.0415102 272.24481 -85.513268 2.3509886e-038
4.2548213 272.87442 -85.711021 2.3509886e-038
9.5262918 272.09497 -85.466202 2.3509886e-038
14.73636 270.7439 -85.041824 2.3509886e-038
19.927599 269.84842 -84.760536 2.3509886e-038
25.152975 269.69183 -84.711357 2.3509886e-038
30.622849 271.75879 -85.360603 2.3509886e-038
37.431328 283.35138 -89.001884 2.3509886e-038
37.606361 283.77863 -89.136086 2.3509886e-038
-50.312637 269.50034 -89.884438 2.3509886e-038
-47.52549 266.11517 -88.755417 2.3509886e-038
-41.702362 261.99619 -87.38163 2.3509886e-038
-36.473434 260.98431 -87.044144 2.3509886e-038
-31.385641 260.8186 -86.988884 2.3509886e-038
-26.373747 261.34125 -87.163193 2.3509886e-038
-21.423645 262.87115 -87.673447 2.3509886e-038
-16.461517 265.1647 -88.4384 2.3509886e-038
-11.425849 267.8219 -89.324638 2.3509886e-038
-6.2951846 270.83197 -90.328568 2.3509886e-038
-1.0468993 273.6535 -91.269615 2.3509886e-038
4.2907572 275.17908 -91.778427 2.3509886e-038
9.6230059 274.85736 -91.671127 2.3509886e-038
14.888594 273.54083 -91.232025 2.3509886e-038
20.164846 273.06107 -91.072014 2.3509886e-038
25.55843 274.03912 -91.398216 2.3509886e-038
31.336117 278.08859 -92.74881 2.3509886e-038
34.829639 283.65549 -94.605499 2.3509886e-038
-43.55328 267.86475 -94.540405 2.3509886e-038
-42.548725 267.31348 -94.34584 2.3509886e-038
-37.056709 265.1579 -93.585052 2.3509886e-038
-31.723793 263.62869 -93.045334 2.3509886e-038
-26.607706 263.65958 -93.056221 2.3509886e-038
-21.600855 265.04553 -93.545387 2.3509886e-038
-16.590979 267.25009 -94.323471 2.3509886e-038
-11.49387 269.41632 -95.08802 2.3509886e-038
-6.3244352 272.09036 -96.031799 2.3509886e-038
-1.0541655 275.55283 -97.253845 2.3509886e-038
4.3400211 278.33853 -98.23703 2.3509886e-038
9.7700977 279.05869 -98.491203 2.3509886e-038
15.163163 278.58536 -98.324142 2.3509886e-038
20.568106 278.52182 -98.30172 2.3509886e-038
26.198317 280.90002 -99.14109 2.3509886e-038
30.793804 285.99597 -100.93965 2.3509886e-038
-35.808907 271.56116 -101.11825 2.3509886e-038
-32.356281 268.8847 -100.12166 2.3509886e-038
-27.010649 267.6524 -99.662796 2.3509886e-038
-21.875647 268.41724 -99.947594 2.3509886e-038
-16.786127 270.39355 -100.68349 2.3509886e-038
-11.635687 272.74051 -101.5574 2.3509886e-038
-6.4045177 275.53571 -102.59822 2.3509886e-038
-1.0703071 279.77216 -104.1757 2.3509886e-038
4.4329286 284.29697 -105.86055 2.3509886e-038
10.077388 287.83566 -107.17822 2.3509886e-038
15.762423 289.59525 -107.83341 2.3509886e-038
21.309515 288.56155 -107.44851 2.3509886e-038
21.384123 288.54608 -107.44275 2.3509886e-038
-19.881418 274.4501 -107.52332 2.3509886e-038
-17.129896 275.93106 -108.10353 2.3509886e-038
-11.909991 279.17023 -109.37256 2.3509886e-038
-6.5704293 282.67355 -110.74509 2.3509886e-038
-1.1006166 287.69489 -112.71233 2.3509886e-038
3.9137862 292.52832 -114.60596 2.3509886e-038
-95.617752 256.50433 -29.344534 9.1476764e-041
-93.279305 250.2312 -39.966106 9.1476764e-041
-90.29998 255.55092 -28.173668 9.1476764e-041
-88.508362 250.48059 -45.543339 9.1476764e-041
-85.338264 255.55283 -29.549173 9.1476764e-041
-84.929199 254.32784 -50.384903 9.1476764e-041
-80.828804 256.99292 -32.36013 9.1476764e-041
-80.380661 255.56805 -54.231518 9.1476764e-041
-76.173912 258.12967 -35.799412 9.1476764e-041
-76.013092 257.58472 -58.355976 9.1476764e-041
-71.85289 260.63763 -40.015308 9.1476764e-041
-72.018181 261.23724 -63.451321 9.1476764e-041
-63.593327 248.15659 49.154648 3.5733111e-043
-64.814323 252.92119 26.939503 3.5733111e-043
-68.011612 265.39783 -44.917866 9.1476764e-041
-67.900253 264.96326 -69.419952 9.1476764e-041
-58.452507 246.79678 47.520645 3.5733111e-043
-59.745167 252.25464 13.128022 3.5733111e-043
-63.719555 269.03522 -49.135376 9.1476764e-041
-62.835178 265.30124 -74.918533 9.1476764e-041
-53.808418 247.47879 39.91428 3.5733111e-043
-56.10833 258.05667 -0.25955766 3.5733111e-043
-58.992558 271.32199 -51.966496 9.1476764e-041
-58.451637 268.83414 -81.570633 2.3509886e-038
-49.16473 248.29648 29.160351 2.3509886e-038
-51.675686 260.97754 -12.253003 3.5733111e-043
-53.826523 271.8399 -52.055943 2.3509886e-038
-53.542694 270.40652 -87.429451 2.3509886e-038
-44.883026 251.31894 19.515356 2.3509886e-038
-47.916119 268.30246 -91.314629 2.3509886e-038
-40.842789 256.59592 9.0468502 2.3509886e-038
-42.718513 268.38019 -95.3965 2.3509886e-038
-36.001007 257.60385 -1.2461566 2.3509886e-038
-37.989769 271.83438 -100.10516 2.3509886e-038
-31.72464 263.63568 -5.1957498 2.3509886e-038
-32.584969 270.78516 -102.2272 2.3509886e-038
-25.094055 248.66058 67.332222 2.3509528e-038
-26.401833 261.61954 17.216009 2.3509886e-038
-27.15753 269.10785 -3.7980683 2.3509886e-038
-27.406265 271.57263 -104.34093 2.3509886e-038
-20.129416 246.99077 66.559067 2.3509528e-038
-22.269709 273.25247 -106.4359 2.3509886e-038
-15.359424 247.41202 56.584431 2.3509528e-038
-17.18721 276.85428 -109.14615 2.3509886e-038
-10.775045 252.56708 34.647511 2.3509528e-038
-12.020249 281.75464 -112.13969 2.3509886e-038
-5.9550462 256.19849 0.89811754 2.3509886e-038
-6.6488681 286.04816 -114.30044 2.3509886e-038
-0.98546934 257.59604 2.1673143 2.3509886e-038
-1.1104413 290.263 -115.23779 2.3509886e-038
3.8636034 247.78444 26.644711 2.3418409e-038
4.5661535 292.84106 -114.5023 2.3509886e-038
8.4614725 241.68105 55.916821 2.3418409e-038
10.346869 295.53271 -113.55196 2.3509886e-038
13.056719 239.88467 56.543552 2.3418409e-038
16.017021 294.27286 -111.28046 2.3509886e-038
18.645958 252.49315 -11.398558 2.3418052e-038
21.314409 288.62781 -107.50081 2.3509886e-038
23.768963 254.85236 -14.010314 2.3418052e-038
26.655544 285.80246 -103.98331 2.3509886e-038
28.668812 254.41792 -12.703962 2.3418052e-038
32.152966 285.33762 -99.197037 2.3509886e-038
33.341736 252.39357 -9.2052593 2.3418052e-038
37.475842 283.68832 -89.366455 2.3509886e-038
37.602928 248.17073 -4.2058463 2.3418052e-038
38.89679 256.7099 -34.999832 2.3509886e-038
41.937931 245.3391 1.4477497 2.3418052e-038
42.805756 250.41592 -23.566994 2.3509886e-038
45.955643 241.41835 7.4296832 2.3418052e-038
46.896748 246.36224 -15.974293 2.3418052e-038
50.925251 242.76115 13.612183 2.3418052e-038
50.736462 241.86119 -8.7432213 2.3418052e-038
55.122131 240.50484 18.858673 2.3418052e-038
54.801708 239.10681 -0.85517883 2.3418052e-038
59.395504 238.90875 21.458921 2.3418052e-038
58.924046 237.01239 7.9119029 2.3418052e-038
