# .PCD v0.7 - Point Cloud Data file format
VERSION 0.7
FIELDS x y z rgb
SIZE 4 4 4 4
TYPE F F F F
COUNT 1 1 1 1
WIDTH 830
HEIGHT 1
VIEWPOINT 0 0 0 1 0 0 0
POINTS 830
DATA ascii
-28.711931 265.05731 66.16227 2.3418052e-038
-1.2258331 260.27747 56.388321 9.1476764e-041
44.274193 247.3844 27.962646 3.5733111e-043
-100.00784 268.7894 -46.839108 2.3509528e-038
-66.225304 265.30984 48.731831 2.3418409e-038
-35.367901 266.4313 70.145737 2.3418052e-038
-31.878975 264.41263 69.614258 2.3418052e-038
-27.168077 263.53452 69.383072 2.3418052e-038
-24.976639 264.06259 69.522095 2.3418052e-038
-36.401249 268.38571 65.970497 2.3418052e-038
-31.997164 265.39294 65.234856 2.3418052e-038
-27.270042 264.52359 65.021164 2.3418052e-038
-22.97905 265.79483 65.333641 2.3418052e-038
-4.5350056 260.42719 64.014252 9.1476764e-041
-4.0880737 260.04468 63.920223 9.1476764e-041
0.45283324 258.24603 63.478111 9.1476764e-041
2.4403598 258.56821 63.557297 9.1476764e-041
-36.141788 269.27658 61.4841 2.3418052e-038
-32.100159 266.24722 60.7924 2.3418052e-038
-27.373735 265.52942 60.628506 2.3418052e-038
-22.840891 266.77963 60.913967 2.3418052e-038
-21.797817 267.59937 61.101143 2.3418052e-038
-5.8337507 262.19284 59.866665 9.1476764e-041
-4.0955243 260.51855 59.484371 9.1476764e-041
0.45401147 258.91797 59.118908 9.1476764e-041
4.4628162 260.96649 59.586647 9.1476764e-041
-35.325031 268.71127 56.659527 2.3418052e-038
-32.147564 266.64038 56.22287 2.3418052e-038
-27.445156 266.2222 56.134693 2.3418052e-038
-22.884647 267.29071 56.359997 2.3418052e-038
-20.77421 268.35449 56.584301 2.3418052e-038
-6.1529717 262.37979 55.324493 9.1476764e-041
-4.097734 260.65912 54.961681 9.1476764e-041
0.45475647 259.34283 54.684128 9.1476764e-041
5.0399275 262.11969 55.26965 9.1476764e-041
5.5297871 262.66101 55.383793 9.1476764e-041
-71.067917 265.66171 51.374317 2.3418409e-038
-68.942711 264.7995 51.207581 2.3418409e-038
-64.214859 264.38483 51.127388 2.3418409e-038
-61.693878 265.25909 51.296455 2.3418409e-038
-34.482533 268.26996 51.8787 2.3418052e-038
-32.218536 267.22906 51.67741 2.3418052e-038
-27.519684 266.94516 51.622509 2.3418052e-038
-22.934816 267.87668 51.80265 2.3418052e-038
-19.769945 269.40323 52.097858 2.3418052e-038
-6.2210588 263.3768 50.932453 9.1476764e-041
-4.109623 261.41541 50.55315 9.1476764e-041
0.45531091 259.65903 50.213501 9.1476764e-041
5.032979 261.7583 50.619465 9.1476764e-041
6.0639162 262.69348 50.800312 9.1476764e-041
-71.944572 267.3472 47.028599 2.3418409e-038
-69.321152 266.25302 46.836124 2.3418409e-038
-64.521301 265.64651 46.729435 2.3418409e-038
-60.107483 266.65857 46.907463 2.3418409e-038
-59.05714 267.34018 47.027363 2.3418409e-038
-33.884544 269.43253 47.395424 2.3418052e-038
-32.393883 268.68344 47.263653 2.3418052e-038
-27.614702 267.86682 47.120007 2.3418052e-038
-22.987932 268.49704 47.230865 2.3418052e-038
-18.652775 270.63544 47.607025 2.3509886e-038
-6.2679043 264.96506 46.609558 9.1476764e-041
-4.1275725 262.55719 46.185993 9.1476764e-041
0.45596465 260.03186 45.741768 9.1476764e-041
5.0272555 261.46063 45.993099 9.1476764e-041
6.2877989 262.37619 46.154156 9.1476764e-041
-71.865089 269.66452 42.724094 2.3418409e-038
-70.008125 268.89163 42.601643 2.3418409e-038
-64.941895 267.3782 42.361862 2.3418409e-038
-60.17416 266.95438 42.294712 2.3418409e-038
-56.724957 268.6199 42.55859 2.3418409e-038
-33.350357 271.38144 42.996113 2.3418052e-038
-32.658436 270.87769 42.916302 2.3418052e-038
-27.735088 269.03461 42.62429 2.3418052e-038
-23.034346 269.03915 42.625015 2.3418052e-038
-18.441 270.6221 42.875809 2.3418052e-038
-17.345871 271.16049 42.961105 9.1476764e-041
-6.331059 266.08762 42.157391 9.1476764e-041
-4.1397052 263.32895 41.720318 9.1476764e-041
0.45630896 260.22821 41.229061 9.1476764e-041
5.0248055 261.33322 41.404133 9.1476764e-041
6.4333429 262.2785 41.553894 9.1476764e-041
-71.227417 272.40274 38.397923 2.3418409e-038
-70.853722 272.13947 38.360813 2.3418409e-038
-65.283791 268.78586 37.888092 2.3418409e-038
-60.211113 267.11832 37.65303 2.3418409e-038
-55.80048 268.35437 37.827263 2.3418409e-038
-54.381279 269.86835 38.040676 2.3418409e-038
-32.868832 273.41415 38.540493 2.3418052e-038
-27.911016 270.74115 38.163704 2.3418052e-038
-23.097916 269.78165 38.028458 2.3418052e-038
-18.435328 270.53888 38.135193 9.1476764e-041
-16.009674 271.47827 38.267612 9.1476764e-041
-6.562448 266.53925 37.571404 9.1476764e-041
-4.1407094 263.39282 37.127888 9.1476764e-041
0.45622614 260.18097 36.675144 9.1476764e-041
5.020987 261.13461 36.80957 9.1476764e-041
6.7611027 262.38028 36.985157 9.1476764e-041
-69.534271 272.53165 33.653854 2.3418409e-038
-65.379074 269.17816 33.239742 2.3418409e-038
-60.177834 266.97067 32.967152 2.3418409e-038
-55.66613 267.70825 33.058231 2.3418409e-038
-51.82373 272.09531 33.599968 2.3418409e-038
-51.823357 272.09634 33.600098 2.3418409e-038
-32.516342 275.29269 33.994801 2.3418052e-038
-28.109501 272.66644 33.670502 2.3418052e-038
-23.182842 270.77359 33.436756 9.1476764e-041
-18.446741 270.70639 33.428455 9.1476764e-041
-14.730013 271.7597 33.558529 9.1476764e-041
-7.2891932 267.29556 33.007271 9.1476764e-041
-4.1358595 263.08432 32.48724 9.1476764e-041
0.45598152 260.04147 32.111492 9.1476764e-041
5.0190153 261.03207 32.233814 9.1476764e-041
7.3662949 263.03049 32.480595 9.1476764e-041
40.307083 247.96875 30.620678 3.5733111e-043
43.624088 247.16969 30.522003 3.5733111e-043
47.589092 248.29153 30.660538 3.5733111e-043
-67.211967 270.57761 28.684452 2.3418409e-038
-65.383148 269.19492 28.53787 2.3418409e-038
-60.21497 267.13541 28.319538 2.3418409e-038
-55.696373 267.85367 28.395683 2.3418409e-038
-51.680634 271.34396 28.765696 2.3418409e-038
-49.672775 277.59341 29.428209 2.3509886e-038
-32.009254 276.96677 29.36178 2.3418052e-038
-28.273582 274.25809 29.074627 2.3418052e-038
-23.261642 271.69397 28.802799 9.1476764e-041
-18.476442 271.14221 28.744307 9.1476764e-041
-13.806596 272.48697 28.886866 9.1476764e-041
-12.640644 272.64636 28.903765 9.1476764e-041
-9.7506218 271.38925 28.770494 9.1476764e-041
-8.9807148 270.54626 28.681128 9.1476764e-041
-4.1452999 263.68484 27.953737 9.1476764e-041
0.45678353 260.49884 27.615984 9.1476764e-041
5.0282688 261.51334 27.723528 2.3509886e-038
8.0898542 264.23898 28.012482 2.3509886e-038
37.610703 248.03979 26.295176 3.5733111e-043
39.355423 247.48662 26.236532 3.5733111e-043
43.656116 247.35117 26.222174 3.5733111e-043
48.136757 249.44725 26.444384 3.5733111e-043
-65.289917 269.95724 23.901421 2.3418409e-038
-60.470066 268.26712 23.75178 2.3418409e-038
-55.901768 268.84146 23.802633 2.3418409e-038
-51.63427 271.10056 24.002645 2.3418409e-038
-48.097748 278.04163 24.617193 2.3509886e-038
-47.677322 280.22098 24.810148 2.3509886e-038
-31.262445 278.48016 24.656021 2.3418052e-038
-28.430063 275.77597 24.416597 2.3418052e-038
-23.336662 272.57019 24.132765 9.1476764e-041
-18.523691 271.83563 24.067728 9.1476764e-041
-13.887263 274.07901 24.266352 9.1476764e-041
-9.076601 273.43484 24.209318 9.1476764e-041
-4.1772876 265.7196 23.526228 9.1476764e-041
0.45920724 261.88104 23.186371 9.1476764e-041
5.0480928 262.54437 23.2451 2.3509886e-038
8.5175962 265.26996 23.486418 2.3509886e-038
35.545883 248.90506 22.037506 3.5733111e-043
39.420918 247.89848 21.948385 3.5733111e-043
43.848904 248.44345 21.996635 3.5733111e-043
47.515858 250.33134 22.163786 3.5733111e-043
-63.805008 270.87607 19.24946 2.3418409e-038
-60.860069 269.99728 19.187012 2.3418409e-038
-56.126389 269.92172 19.181639 2.3418409e-038
-51.608223 270.96378 19.255692 2.3418409e-038
-47.443027 274.25687 19.489712 2.3418409e-038
-45.529705 277.22983 19.700979 2.3418052e-038
-30.449511 279.67303 19.874605 2.3418052e-038
-28.620001 277.61838 19.728592 2.3418052e-038
-23.419487 273.53757 19.438597 9.1476764e-041
-18.588484 272.78644 19.385218 9.1476764e-041
-13.997402 276.25272 19.631544 9.1476764e-041
-9.1856241 276.71921 19.664694 9.1476764e-041
-4.2136965 268.03555 19.047602 9.1476764e-041
0.46190679 263.42059 18.719645 9.1476764e-041
5.0682015 263.59018 18.731697 2.3509886e-038
8.4120283 266.2749 18.922483 2.3509886e-038
33.484486 250.34169 17.790209 3.5733111e-043
35.257763 249.08992 17.701256 3.5733111e-043
39.477997 248.25743 17.642094 3.5733111e-043
44.003975 249.32207 17.717752 3.5733111e-043
46.253143 250.72182 17.817223 3.5733111e-043
-62.388657 272.44421 14.600183 2.3418409e-038
-61.325764 272.06329 14.579769 2.3418409e-038
-56.322533 270.86499 14.515553 2.3418409e-038
-51.630684 271.08173 14.527167 2.3418409e-038
-47.317104 273.5289 14.658312 2.3418409e-038
-44.130981 277.44727 14.868294 2.3509886e-038
-29.675732 280.48926 15.031315 2.3418052e-038
-28.798079 279.34579 14.970036 2.3418052e-038
-23.467833 274.10226 14.689037 9.1476764e-041
-18.615547 273.18362 14.639807 9.1476764e-041
-14.051694 277.32419 14.861699 9.1476764e-041
-9.2431774 278.45303 14.922193 9.1476764e-041
-4.240273 269.72614 14.454521 9.1476764e-041
0.46407178 264.65527 14.182776 2.3509886e-038
5.0821557 264.31592 14.164589 2.3509886e-038
7.8485813 266.4147 14.277063 2.3509886e-038
31.240618 252.01231 13.505244 3.5733111e-043
31.264637 251.98752 13.503917 3.5733111e-043
35.270649 249.18097 13.353515 3.5733111e-043
39.509174 248.45348 13.314528 3.5733111e-043
44.112022 249.93427 13.393884 3.5733111e-043
44.560593 250.328 13.414984 3.5733111e-043
-61.007347 274.64459 9.9189281 2.3418409e-038
-56.653736 272.45779 9.8399515 2.3418409e-038
-51.783573 271.88443 9.8192444 2.3418409e-038
-47.377747 273.87946 9.8912945 2.3418409e-038
-43.439899 279.332 10.088217 2.3418409e-038
-42.850639 280.78485 10.140686 2.3509886e-038
-29.179667 280.8797 10.144113 2.3418052e-038
-28.917927 280.5083 10.130699 2.3418052e-038
-23.482672 274.27557 9.9056005 9.1476764e-041
-18.586958 272.76407 9.8510113 9.1476764e-041
-13.999429 276.29272 9.9784508 9.1476764e-041
-9.2122526 277.52139 10.022825 9.1476764e-041
-4.2486944 270.26181 9.7606421 9.1476764e-041
0.46532539 265.37015 9.5839767 2.3509886e-038
5.0840774 264.41586 9.5495129 2.3509886e-038
7.2820754 265.37366 9.5841026 2.3509886e-038
28.72868 253.12856 9.1418657 3.5733111e-043
31.218657 251.61693 9.0872717 3.5733111e-043
35.355804 249.78256 9.0210238 3.5733111e-043
39.630577 249.21692 9.0005951 3.5733111e-043
42.782898 250.08223 9.031846 3.5733111e-043
-59.474525 276.40891 5.1526442 2.3418409e-038
-57.102947 274.61816 5.1192617 2.3418409e-038
-51.991562 272.9765 5.0886588 2.3418409e-038
-47.413788 274.08783 5.109376 2.3418409e-038
-43.22644 277.95941 5.1815476 2.3418409e-038
-40.525673 282.5639 5.2673817 2.3509886e-038
-30.104506 282.34335 5.2632704 2.3509886e-038
-28.961397 280.92999 5.2369232 2.3509886e-038
-23.521864 274.73334 5.1214089 2.3509886e-038
-18.570358 272.52045 5.0801578 9.1476764e-041
-13.897791 274.28677 5.1130848 9.1476764e-041
-9.1168442 274.64722 5.1198039 9.1476764e-041
-4.2371645 269.52835 5.0243816 9.1476764e-041
0.46565291 265.55698 4.9503489 2.3509886e-038
5.0839729 264.41043 4.9289761 2.3509886e-038
7.3921132 264.95456 4.9391193 2.3509886e-038
26.085531 255.0914 4.7552562 3.5733111e-043
27.099104 254.21756 4.7389669 3.5733111e-043
31.303621 252.30173 4.7032533 3.5733111e-043
35.571758 251.30823 4.6847329 3.5733111e-043
39.960575 251.29211 4.6844325 3.5733111e-043
41.286949 251.95078 4.6967106 3.5733111e-043
-57.351791 275.91208 0.32207111 2.3418409e-038
-52.136688 273.73843 0.31953382 2.3418409e-038
-47.388836 273.94357 0.31977332 2.3418409e-038
-42.825569 275.38168 0.32145199 2.3418409e-038
-38.375778 278.00595 0.32451531 2.3509886e-038
-33.759495 280.01016 0.3268548 2.3509886e-038
-28.707369 278.46588 0.32505214 2.3509886e-038
-23.541468 274.96231 0.32096246 2.3509886e-038
-18.591024 272.82373 0.3184661 2.3509886e-038
-13.796705 272.29175 0.31784511 2.3509886e-038
-9.0109282 271.45645 0.31687009 2.3509886e-038
-4.2275496 268.91678 0.31390554 2.3509886e-038
0.46750364 266.6124 0.31121564 2.3509886e-038
5.1110296 265.81763 0.31028789 2.3509886e-038
8.5321217 266.86554 0.31151113 2.3509886e-038
23.017439 258.91678 0.30223256 3.5733111e-043
23.070129 258.85431 0.30215964 3.5733111e-043
27.233969 255.48273 0.298224 3.5733111e-043
31.535833 254.17331 0.29669553 3.5733111e-043
35.923214 253.79121 0.29624951 3.5733111e-043
39.724102 254.17584 0.29669851 3.5733111e-043
-55.320408 276.07605 -4.501924 2.3418409e-038
-52.385441 275.04449 -4.4851022 2.3418409e-038
-47.464256 274.37955 -4.4742594 2.3418409e-038
-42.644997 274.22055 -4.4716668 2.3509886e-038
-37.933537 274.80222 -4.4811516 2.3509886e-038
-33.226826 275.59207 -4.4940314 2.3509886e-038
-28.411713 275.59796 -4.4941278 2.3509886e-038
-23.525269 274.7731 -4.4806767 2.3509886e-038
-18.638071 273.51416 -4.4601474 2.3509886e-038
-13.787643 272.11292 -4.4372978 2.3509886e-038
-8.9931393 270.92056 -4.4178543 2.3509886e-038
-4.2396922 269.68918 -4.3977742 2.3509886e-038
0.47018334 268.14063 -4.3725224 2.3509886e-038
5.1356878 267.10007 -4.3555541 2.3509886e-038
9.8131475 267.37607 -4.3600545 2.3509886e-038
11.963255 267.54156 -4.3627529 2.3509886e-038
17.794144 264.08783 -4.3064342 2.3509886e-038
18.833149 262.84961 -4.286242 2.3509886e-038
23.08349 259.00424 -4.2235365 3.5733111e-043
27.416546 257.1955 -4.1940422 3.5733111e-043
31.842016 256.64108 -4.1850014 3.5733111e-043
36.348911 256.79871 -4.187572 3.5733111e-043
38.139713 257.26733 -4.1952133 3.5733111e-043
-53.848564 278.39102 -9.4043131 2.3418409e-038
-52.930569 277.90662 -9.3879499 2.3418409e-038
-47.713753 275.82184 -9.317523 2.3509886e-038
-42.705448 274.60925 -9.2765617 2.3509886e-038
-37.880024 274.41455 -9.2699833 2.3509886e-038
-33.103901 274.57251 -9.2753201 2.3509886e-038
-28.33614 274.86487 -9.2851954 2.3509886e-038
-23.535486 274.89246 -9.2861271 2.3509886e-038
-18.681454 274.15079 -9.2610731 2.3509886e-038
-13.833566 273.01923 -9.2228479 2.3509886e-038
-9.030652 272.05066 -9.1901283 2.3509886e-038
-4.2593198 270.93771 -9.1525326 2.3509886e-038
0.47203538 269.19681 -9.0937233 2.3509886e-038
5.1444435 267.55542 -9.0382748 2.3509886e-038
9.7742729 266.31686 -8.9964352 2.3509886e-038
14.3297 264.50397 -8.935194 2.3509886e-038
18.759983 261.82843 -8.8448124 3.5733111e-043
23.154625 259.80237 -8.77637 3.5733111e-043
27.597298 258.89114 -8.7455873 3.5733111e-043
32.113701 258.83081 -8.7435493 3.5733111e-043
36.550297 259.897 -8.7795668 3.5733111e-043
-52.629124 280.71017 -14.387809 2.3509886e-038
-48.050571 277.76892 -14.237055 2.3509886e-038
-42.845406 275.50925 -14.121235 2.3509886e-038
-37.932968 274.79813 -14.084787 2.3509886e-038
-33.154682 274.99368 -14.09481 2.3509886e-038
-28.394047 275.42661 -14.116999 2.3509886e-038
-23.576498 275.37146 -14.114173 2.3509886e-038
-18.715008 274.64319 -14.076845 2.3509886e-038
-13.872518 273.78796 -14.033011 2.3509886e-038
-9.0604744 272.94904 -13.990012 2.3509886e-038
-4.2714171 271.70721 -13.926362 2.3509886e-038
0.4733088 269.92303 -13.834913 2.3509886e-038
5.1566658 268.1911 -13.746143 2.3509886e-038
9.7840767 266.58398 -13.663771 2.3509886e-038
14.345702 264.79929 -13.572296 2.3509886e-038
18.829926 262.8046 -13.470058 3.5733111e-043
23.295155 261.37915 -13.396997 3.5733111e-043
27.793463 260.73138 -13.363794 3.5733111e-043
32.374737 260.93472 -13.374217 3.5733111e-043
35.23003 261.82684 -13.419943 3.5733111e-043
-51.56831 282.08685 -19.387581 2.3509886e-038
-48.339039 279.43646 -19.205421 2.3509886e-038
-42.964588 276.27563 -18.98818 2.3509886e-038
-37.997761 275.26749 -18.91889 2.3509886e-038
-33.237873 275.68372 -18.947498 2.3509886e-038
-28.475245 276.21423 -18.983961 2.3509886e-038
-23.626236 275.95239 -18.965965 2.3509886e-038
-18.740551 275.01804 -18.901747 2.3509886e-038
-13.888355 274.10059 -18.83869 2.3509886e-038
-9.0715427 273.2825 -18.782465 2.3509886e-038
-4.2781196 272.13354 -18.703501 2.3509886e-038
0.47472823 270.73251 -18.607206 2.3509886e-038
5.1800847 269.40906 -18.516247 2.3509886e-038
9.8427906 268.18375 -18.432032 2.3509886e-038
14.447606 266.6803 -18.328703 2.3509886e-038
18.974472 264.82202 -18.200983 3.5733111e-043
23.463757 263.2709 -18.094378 3.5733111e-043
27.991127 262.58566 -18.047281 3.5733111e-043
32.67519 263.35635 -18.10025 3.5733111e-043
34.56419 264.42572 -18.173746 3.5733111e-043
-50.871372 283.35706 -24.426308 2.3509886e-038
-48.616917 281.04282 -24.22681 2.3509886e-038
-43.091961 277.09467 -23.886469 2.3509886e-038
-38.096138 275.98013 -23.790394 2.3509886e-038
-33.32188 276.38049 -23.824902 2.3509886e-038
-28.529726 276.74271 -23.856127 2.3509886e-038
-23.668898 276.45068 -23.830956 2.3509886e-038
-18.776983 275.5527 -23.753544 2.3509886e-038
-13.905215 274.43332 -23.657051 2.3509886e-038
-9.0762959 273.42566 -23.570189 2.3509886e-038
-4.2830825 272.44925 -23.486019 2.3509886e-038
0.47617745 271.55899 -23.409275 2.3509886e-038
5.2044029 270.6738 -23.33297 2.3509886e-038
9.9033413 269.83356 -23.260538 2.3509886e-038
14.547065 268.51614 -23.146973 2.3509886e-038
19.109127 266.70135 -22.99053 2.3509886e-038
23.620726 265.03217 -22.846642 3.5733111e-043
28.190058 264.45184 -22.796614 3.5733111e-043
33.026226 266.18561 -22.946074 3.5733111e-043
34.317081 267.36606 -23.047829 3.5733111e-043
-50.638851 284.78247 -29.525496 2.3509886e-038
-48.885334 282.59448 -29.298651 2.3509886e-038
-43.231804 277.99393 -28.821676 2.3509886e-038
-38.22348 276.90265 -28.708536 2.3509886e-038
-33.411407 277.12305 -28.731386 2.3509886e-038
-28.577091 277.20215 -28.739588 2.3509886e-038
-23.717241 277.01532 -28.720219 2.3509886e-038
-18.842274 276.51083 -28.667913 2.3509886e-038
-13.956595 275.44733 -28.557653 2.3509886e-038
-9.0982237 274.08624 -28.416538 2.3509886e-038
-4.2912574 272.96924 -28.30073 2.3509886e-038
0.47750828 272.31793 -28.233206 2.3509886e-038
5.2240725 271.69681 -28.168808 2.3509886e-038
9.9484663 271.06305 -28.103104 2.3509886e-038
14.622463 269.9079 -27.983337 2.3509886e-038
19.214905 268.17767 -27.803951 2.3509886e-038
23.762804 266.62634 -27.643114 2.3509886e-038
28.390095 266.3284 -27.612226 3.5733111e-043
33.337536 268.69473 -27.857561 2.3509886e-038
33.864113 269.26532 -27.916718 2.3509886e-038
-50.943069 285.99481 -34.648682 2.3509886e-038
-49.022713 283.38861 -34.332943 2.3509886e-038
-43.302219 278.44672 -33.734222 2.3509886e-038
-38.289772 277.38287 -33.605339 2.3509886e-038
-33.478733 277.68146 -33.641514 2.3509886e-038
-28.649809 277.90753 -33.6689 2.3509886e-038
-23.792385 277.89297 -33.667137 2.3509886e-038
-18.92683 277.75171 -33.650021 2.3509886e-038
-14.038724 277.06824 -33.567215 2.3509886e-038
-9.1474648 275.56964 -33.385662 2.3509886e-038
-4.3102674 274.1785 -33.217121 2.3509886e-038
0.47948834 273.44714 -33.128517 2.3509886e-038
5.2444196 272.75504 -33.044666 2.3509886e-038
9.9881506 272.14432 -32.970676 2.3509886e-038
14.69214 271.194 -32.855549 2.3509886e-038
19.318647 269.62558 -32.665527 2.3509886e-038
23.902246 268.19092 -32.491718 2.3509886e-038
28.560293 267.92502 -32.459503 2.3509886e-038
33.364071 270.05768 -32.71788 2.3509886e-038
-51.968662 286.49518 -39.715546 2.3509528e-038
-48.956848 283.0079 -39.232121 2.3509528e-038
-43.333321 278.6467 -38.627548 2.3509886e-038
-38.292419 277.40207 -38.455009 2.3509886e-038
-33.486317 277.74438 -38.50246 2.3509886e-038
-28.707376 278.46591 -38.602486 2.3509886e-038
-23.874859 278.85626 -38.656601 2.3509886e-038
-19.005943 278.91266 -38.664417 2.3509886e-038
-14.114596 278.56564 -38.61631 2.3509886e-038
-9.2062721 277.34122 -38.446575 2.3509886e-038
-4.3390923 276.01205 -38.262318 2.3509886e-038
0.4824771 275.15161 -38.14304 2.3509886e-038
5.2705607 274.11462 -37.999283 2.3509886e-038
10.031651 273.32959 -37.890461 2.3509886e-038
14.759742 272.44183 -37.767395 2.3509886e-038
19.413618 270.95105 -37.560734 2.3509886e-038
24.015305 269.45944 -37.353958 2.3509886e-038
28.703716 269.27048 -37.327763 2.3509886e-038
33.398338 271.97293 -37.702393 2.3509886e-038
-107.86062 273.09039 -42.629326 2.3509528e-038
-103.62008 270.77698 -42.268204 2.3509528e-038
-98.718399 270.31122 -42.195496 2.3509528e-038
-94.290283 271.16055 -42.328079 2.3509528e-038
-90.057877 272.69232 -42.567184 2.3509528e-038
-86.225616 274.38092 -42.830776 2.3509528e-038
-53.982475 285.31323 -44.537308 2.3509528e-038
-48.827534 282.26031 -44.060753 2.3509528e-038
-43.456406 279.43817 -43.620209 2.3509886e-038
-38.37817 278.02332 -43.399353 2.3509886e-038
-33.508957 277.93213 -43.38512 2.3509886e-038
-28.740854 278.79068 -43.519138 2.3509886e-038
-23.944231 279.66653 -43.655861 2.3509886e-038
-19.074087 279.91272 -43.694286 2.3509886e-038
-14.174471 279.74734 -43.668476 2.3509886e-038
-9.2654591 279.12427 -43.571213 2.3509886e-038
-4.3723569 278.12805 -43.415703 2.3509886e-038
0.48592991 277.1207 -43.258457 2.3509886e-038
5.3034406 275.82465 -43.056141 2.3509886e-038
10.083676 274.74707 -42.887932 2.3509886e-038
14.819718 273.54889 -42.700897 2.3509886e-038
19.475073 271.80875 -42.42926 2.3509886e-038
24.074341 270.12189 -42.165943 2.3509886e-038
28.820272 270.36389 -42.20372 2.3509886e-038
34.175186 275.44604 -42.997044 2.3509886e-038
34.222488 275.5188 -43.008404 2.3509886e-038
-109.82244 272.26724 -47.258457 2.3509528e-038
-108.55343 271.28119 -47.087299 2.3509528e-038
-102.74211 268.48273 -46.601559 2.3509528e-038
-98.112457 268.65201 -46.630943 2.3509528e-038
-93.866516 269.94186 -46.854828 2.3509528e-038
-89.710983 271.64191 -47.14991 2.3509528e-038
-85.515213 273.40335 -47.45565 2.3509528e-038
-81.204285 274.98322 -47.729877 2.3509528e-038
-76.841194 276.57407 -48.006004 2.3509528e-038
-75.770592 276.95963 -48.072929 2.3509528e-038
-58.664013 283.59402 -49.224483 2.3509528e-038
-53.90765 283.03671 -49.12775 2.3509528e-038
-48.782749 282.00146 -48.948059 2.3509528e-038
-43.641941 280.63123 -48.71022 2.3509528e-038
-38.584244 279.51614 -48.51667 2.3509886e-038
-33.642841 279.0426 -48.434479 2.3509886e-038
-28.820131 279.55966 -48.524227 2.3509886e-038
-24.014996 280.49307 -48.686245 2.3509886e-038
-19.142679 280.91928 -48.76022 2.3509886e-038
-14.240339 281.0473 -48.782444 2.3509886e-038
-9.3298969 281.06546 -48.785595 2.3509886e-038
-4.4073095 280.35141 -48.661652 2.3509886e-038
0.48934126 279.06616 -48.438572 2.3509886e-038
5.3386364 277.65512 -48.193649 2.3509886e-038
10.139531 276.26895 -47.953049 2.3509886e-038
14.874441 274.55902 -47.656246 2.3509886e-038
19.525808 272.51688 -47.301785 2.3509886e-038
24.126387 270.70584 -46.987438 2.3509886e-038
28.899328 271.10553 -47.056808 2.3509886e-038
34.320969 276.621 -48.014153 2.3509886e-038
35.241367 278.03955 -48.260372 2.3509886e-038
-105.97926 268.80478 -51.35458 2.3509528e-038
-102.50027 267.85074 -51.17231 2.3509528e-038
-97.988968 268.31387 -51.260796 2.3509528e-038
-93.662926 269.35638 -51.459957 2.3509528e-038
-89.387619 270.66278 -51.709549 2.3509528e-038
-85.106148 272.09549 -51.983265 2.3509528e-038
-80.769241 273.51004 -52.253506 2.3509528e-038
-76.455254 275.18497 -52.573498 2.3509528e-038
-72.039642 276.6944 -52.86187 2.3509528e-038
-67.571579 278.20514 -53.150494 2.3509528e-038
-63.108521 279.97226 -53.488102 2.3509528e-038
-58.43362 281.01761 -53.687813 2.3509528e-038
-53.61731 281.5123 -53.782322 2.3509528e-038
-48.693798 281.48724 -53.777538 2.3509528e-038
-43.715492 281.10419 -53.70435 2.3509528e-038
-38.731186 280.58063 -53.604332 2.3509886e-038
-33.7859 280.22922 -53.537189 2.3509886e-038
-28.908566 280.41751 -53.573166 2.3509886e-038
-24.063349 281.05783 -53.695499 2.3509886e-038
-19.198326 281.7359 -53.825039 2.3509886e-038
-14.308501 282.39255 -53.950497 2.3509886e-038
-9.3901224 282.87976 -54.043575 2.3509886e-038
-4.4395266 282.40076 -53.952061 2.3509886e-038
0.49249613 280.86536 -53.658726 2.3509886e-038
5.3698297 279.27744 -53.355358 2.3509886e-038
10.190429 277.65576 -53.045536 2.3509886e-038
14.938304 275.73782 -52.679123 2.3509886e-038
19.608868 273.67609 -52.285233 2.3509886e-038
24.232487 271.89633 -51.945213 2.3509886e-038
29.019936 272.23694 -52.010288 2.3509886e-038
34.457775 277.72366 -53.058514 2.3509886e-038
35.961044 280.02783 -53.498718 2.3509886e-038
-99.122719 269.83716 -56.266994 2.3509528e-038
-98.554527 269.86249 -56.272274 2.3509528e-038
-94.008919 270.35138 -56.374214 2.3509528e-038
-89.504288 271.01605 -56.512817 2.3509528e-038
-84.975334 271.67725 -56.650692 2.3509528e-038
-80.558411 272.79608 -56.883995 2.3509528e-038
-76.305359 274.64545 -57.269627 2.3509528e-038
-71.933319 276.28604 -57.611721 2.3509528e-038
-67.411552 277.54626 -57.874508 2.3509528e-038
-62.813713 278.66437 -58.107658 2.3509528e-038
-58.096718 279.39737 -58.260506 2.3509528e-038
-53.337315 280.04221 -58.394966 2.3509528e-038
-48.499046 280.36145 -58.461536 2.3509528e-038
-43.611008 280.43231 -58.476315 2.3509886e-038
-38.683155 280.23267 -58.434685 2.3509886e-038
-33.774876 280.13776 -58.414886 2.3509886e-038
-28.895752 280.29321 -58.447308 2.3509886e-038
-24.046568 280.86182 -58.565876 2.3509886e-038
-19.216213 281.99838 -58.802876 2.3509886e-038
-14.358378 283.37692 -59.090332 2.3509886e-038
-9.4415159 284.42804 -59.309509 2.3509886e-038
-4.4703026 284.35843 -59.294998 2.3509886e-038
0.49602228 282.87628 -58.985935 2.3509886e-038
5.4036903 281.03848 -58.602715 2.3509886e-038
10.243715 279.10764 -58.200089 2.3509886e-038
15.011889 277.0961 -57.78064 2.3509886e-038
19.710409 275.09329 -57.363007 2.3509886e-038
24.374899 273.49423 -57.029572 2.3509886e-038
29.232523 274.23123 -57.18325 2.3509886e-038
34.83643 280.77554 -58.547886 2.3509886e-038
36.761356 284.11896 -59.245056 2.3509886e-038
-87.089134 273.9437 -61.91021 2.3509886e-038
-85.716492 274.04684 -61.933517 2.3509886e-038
-81.233002 275.08047 -62.167114 2.3509528e-038
-76.815804 276.4827 -62.484016 2.3509528e-038
-72.198341 277.30392 -62.669613 2.3509528e-038
-67.456314 277.73056 -62.766022 2.3509528e-038
-62.690647 278.11841 -62.85368 2.3509528e-038
-57.868259 278.29868 -62.894421 2.3509528e-038
-53.054314 278.55634 -62.952652 2.3509528e-038
-48.249054 278.91629 -63.033997 2.3509886e-038
-43.44101 279.33917 -63.129566 2.3509886e-038
-38.562756 279.36047 -63.13438 2.3509886e-038
-33.689495 279.4296 -63.149998 2.3509886e-038
-28.829931 279.65475 -63.200882 2.3509886e-038
-24.000751 280.32669 -63.352741 2.3509886e-038
-19.212139 281.9386 -63.71703 2.3509886e-038
-14.389655 283.99423 -64.181587 2.3509886e-038
-9.4794312 285.57022 -64.537766 2.3509886e-038
-4.4952073 285.94263 -64.621918 2.3509886e-038
0.49950275 284.86118 -64.377518 2.3509886e-038
5.4418893 283.02515 -63.962578 2.3509886e-038
10.306157 280.80896 -63.461727 2.3509886e-038
15.08602 278.46442 -62.931873 2.3509886e-038
19.807772 276.45215 -62.477112 2.3509886e-038
24.540634 275.35385 -62.228901 2.3509886e-038
29.55759 277.28073 -62.66436 2.3509886e-038
35.521454 286.29672 -64.701942 2.3509886e-038
38.233532 292.06256 -66.004997 2.3509886e-038
-77.596573 281.92154 -68.639488 2.3509886e-038
-73.15361 280.97299 -68.408546 2.3509886e-038
-67.970444 279.84732 -68.134476 2.3509886e-038
-62.815487 278.67224 -67.848381 2.3509886e-038
-57.763542 277.79507 -67.634819 2.3509886e-038
-52.84005 277.43137 -67.546272 2.3509886e-038
-48.018044 277.58087 -67.582664 2.3509886e-038
-43.253971 278.13644 -67.717934 2.3509886e-038
-38.436245 278.444 -67.792809 2.3509886e-038
-33.605141 278.72992 -67.862427 2.3509886e-038
-28.765152 279.02637 -67.934601 2.3509886e-038
-23.959648 279.84662 -68.134308 2.3509886e-038
-19.20121 281.77823 -68.604599 2.3509886e-038
-14.397125 284.14166 -69.180023 2.3509886e-038
-9.4933128 285.98843 -69.629654 2.3509886e-038
-4.508441 286.78442 -69.823456 2.3509886e-038
0.50194377 286.25323 -69.69413 2.3509886e-038
5.473948 284.6925 -69.31414 2.3509886e-038
10.371489 282.58902 -68.802002 2.3509886e-038
15.177455 280.15216 -68.208702 2.3509886e-038
19.932354 278.19092 -67.731194 2.3509886e-038
24.760147 277.81686 -67.640129 2.3509886e-038
29.99538 281.38763 -68.509499 2.3509886e-038
36.448013 293.76462 -71.522926 2.3509886e-038
41.268909 306.01843 -74.506371 2.3509886e-038
-69.921967 286.13388 -74.665001 2.3509886e-038
-69.419052 285.81152 -74.580879 2.3509886e-038
-63.585594 282.08871 -73.609444 2.3509886e-038
-58.011398 278.98706 -72.800079 2.3509886e-038
-52.839642 277.42923 -72.39357 2.3509886e-038
-47.930485 277.07474 -72.301064 2.3509886e-038
-43.122746 277.29263 -72.357933 2.3509886e-038
-38.298195 277.44391 -72.3974 2.3509886e-038
-33.486885 277.74905 -72.477028 2.3509886e-038
-28.694155 278.33768 -72.63063 2.3509886e-038
-23.93922 279.608 -72.962112 2.3509886e-038
-19.207113 281.86484 -73.551018 2.3509886e-038
-14.406141 284.31958 -74.191574 2.3509886e-038
-9.501997 286.25003 -74.695305 2.3509886e-038
-4.5213094 287.603 -75.048355 2.3509886e-038
0.50470525 287.82809 -75.107094 2.3509886e-038
5.5090194 286.51651 -74.764847 2.3509886e-038
10.441033 284.48389 -74.234444 2.3509886e-038
15.287851 282.18991 -73.635841 2.3509886e-038
20.088697 280.37296 -73.161713 2.3509886e-038
25.009029 280.60938 -73.223412 2.3509886e-038
30.438509 285.54465 -74.511238 2.3509886e-038
37.17746 299.64383 -78.190338 2.3509886e-038
45.177513 319.17123 -83.285904 2.3509886e-038
45.514347 319.95651 -83.490822 2.3509886e-038
-61.671005 285.62448 -79.523117 2.3509886e-038
-58.821316 282.88208 -78.75959 2.3509886e-038
-53.246464 279.56522 -77.836105 2.3509886e-038
-48.134022 278.25131 -77.470299 2.3509886e-038
-43.198685 277.78094 -77.339333 2.3509886e-038
-38.29356 277.41034 -77.236145 2.3509886e-038
-33.455383 277.48779 -77.257706 2.3509886e-038
-28.698511 278.37994 -77.506104 2.3509886e-038
-23.972563 279.99747 -77.956451 2.3509886e-038
-19.232697 282.24026 -78.580894 2.3509886e-038
-14.421088 284.61459 -79.241943 2.3509886e-038
-9.5182915 286.74091 -79.833946 2.3509886e-038
-4.539042 288.73096 -80.388016 2.3509886e-038
0.50778776 289.586 -80.626076 2.3509886e-038
5.5462527 288.45294 -80.310616 2.3509886e-038
10.522324 286.69879 -79.822227 2.3509886e-038
15.435191 284.90958 -79.324074 2.3509886e-038
20.309898 283.46024 -78.920547 2.3509886e-038
25.317881 284.0748 -79.09166 2.3509886e-038
30.892376 289.80237 -80.686317 2.3509886e-038
37.598354 303.03616 -84.370842 2.3509886e-038
44.972019 317.71942 -88.458939 2.3509886e-038
49.735222 324.94754 -90.471382 2.3509886e-038
-53.480068 283.97104 -84.024902 2.3509886e-038
-48.765388 281.90109 -83.412422 2.3509886e-038
-43.617939 280.47687 -82.991005 2.3509886e-038
-38.568596 279.4028 -82.673195 2.3509886e-038
-33.630436 278.93973 -82.536179 2.3509886e-038
-28.826443 279.62091 -82.73774 2.3509886e-038
-24.077026 281.21759 -83.210167 2.3509886e-038
-19.301064 283.24359 -83.809662 2.3509886e-038
-14.461924 285.4205 -84.453789 2.3509886e-038
-9.5504246 287.70892 -85.130905 2.3509886e-038
-4.5597291 290.04691 -85.822701 2.3509886e-038
0.51071376 291.2547 -86.180084 2.3509886e-038
5.585144 290.47568 -85.94957 2.3509886e-038
10.6211 289.39014 -85.628372 2.3509886e-038
15.619625 288.31396 -85.309937 2.3509886e-038
20.597086 287.46841 -85.059746 2.3509886e-038
25.727968 288.67612 -85.417099 2.3509886e-038
31.41493 294.70447 -87.200844 2.3509886e-038
37.960808 305.95749 -90.530533 2.3509886e-038
44.908249 317.26892 -93.877495 2.3509886e-038
51.757092 325.47449 -96.305466 2.3509886e-038
54.286213 328.00809 -97.055138 2.3509886e-038
-45.393066 286.68057 -89.836113 2.3509886e-038
-44.52166 286.28809 -89.71312 2.3509886e-038
-39.216305 284.095 -89.025879 2.3509886e-038
-34.094906 282.79218 -88.617622 2.3509886e-038
-29.151844 282.77734 -88.612976 2.3509886e-038
-24.309378 283.93143 -88.974625 2.3509886e-038
-19.464144 285.63678 -89.509026 2.3509886e-038
-14.57162 287.58548 -90.119675 2.3509886e-038
-9.6271372 290.0199 -90.882545 2.3509886e-038
-4.599103 292.55148 -91.675865 2.3509886e-038
0.51590091 294.21286 -92.19648 2.3509886e-038
5.6583414 294.28256 -92.218323 2.3509886e-038
10.784592 293.84473 -92.081123 2.3509886e-038
15.874804 293.02414 -91.823982 2.3509886e-038
20.963778 292.58624 -91.686752 2.3509886e-038
26.243484 294.46036 -92.27404 2.3509886e-038
31.993322 300.13037 -94.050835 2.3509886e-038
38.320499 308.85654 -96.785324 2.3509886e-038
44.99913 317.91098 -99.622673 2.3509886e-038
51.816105 325.84564 -102.10913 2.3509886e-038
58.425255 332.16443 -104.08924 2.3509886e-038
-33.957977 289.30554 -95.714066 2.3509886e-038
-29.756746 288.64499 -95.495529 2.3509886e-038
-24.790108 289.54633 -95.793724 2.3509886e-038
-19.87793 291.70911 -96.509262 2.3509886e-038
-14.880105 293.67374 -97.159233 2.3509886e-038
-9.819479 295.81424 -97.867416 2.3509886e-038
-4.6804461 297.7258 -98.499825 2.3509886e-038
0.52540773 299.63449 -99.131302 2.3509886e-038
5.7883334 301.04324 -99.597382 2.3509886e-038
11.053637 301.17532 -99.641075 2.3509886e-038
16.269329 300.30646 -99.353622 2.3509886e-038
21.486958 299.88812 -99.215218 2.3509886e-038
26.877975 301.57956 -99.774818 2.3509886e-038
32.565262 305.49576 -101.07046 2.3509886e-038
38.598457 311.09683 -102.92352 2.3509886e-038
44.978241 317.76343 -105.12909 2.3509886e-038
51.650078 324.80157 -107.4576 2.3509886e-038
58.441959 331.12625 -109.55006 2.3509886e-038
59.796146 332.22153 -109.91242 2.3509886e-038
-12.970117 305.57718 -106.43707 2.3509886e-038
-10.137139 305.38382 -106.36973 2.3509886e-038
-4.7906437 304.7355 -106.14391 2.3509886e-038
0.53813487 306.89267 -106.89528 2.3509886e-038
5.9663463 310.30145 -108.08261 2.3509886e-038
11.404345 310.73096 -108.23221 2.3509886e-038
16.766233 309.47855 -107.79597 2.3509886e-038
22.100422 308.4501 -107.43775 2.3509886e-038
27.522827 308.815 -107.56485 2.3509886e-038
33.082443 310.34747 -108.09863 2.3509886e-038
38.872494 313.30554 -109.12897 2.3509886e-038
44.985664 317.81583 -110.69997 2.3509886e-038
51.387859 323.15259 -112.55885 2.3509886e-038
57.940117 328.28287 -114.34579 2.3509886e-038
58.145065 328.44293 -114.40155 2.3509886e-038
7.982605 321.16409 -117.47827 2.3509886e-038
11.754044 320.25909 -117.14724 2.3509886e-038
17.230595 318.04993 -116.33915 2.3509886e-038
22.640104 315.9823 -115.58283 2.3509886e-038
28.074926 315.00974 -115.22708 2.3509886e-038
33.598221 315.186 -115.29155 2.3509886e-038
39.290009 316.67059 -115.8346 2.3509886e-038
45.207088 319.38016 -116.82573 2.3509886e-038
51.321167 322.73322 -118.05225 2.3509886e-038
54.261005 324.39517 -118.66016 2.3509886e-038
21.350788 322.41977 -123.57159 2.3509886e-038
23.045729 321.64349 -123.27408 2.3509886e-038
28.543911 320.27191 -122.7484 2.3509886e-038
34.12006 320.08139 -122.67538 2.3509886e-038
39.780018 320.62 -122.88181 2.3509886e-038
45.550533 321.80655 -123.33657 2.3509886e-038
47.788139 322.44431 -123.58101 2.3509886e-038
-109.43079 273.47375 -44.260326 2.3509528e-038
-108.14143 270.25159 -49.528179 2.3509528e-038
-104.16852 272.21014 -40.657955 2.3509528e-038
-102.75412 268.5141 -53.735729 2.3509528e-038
-99.356277 272.05786 -39.817558 2.3509528e-038
-98.61544 270.02927 -56.564289 2.3509528e-038
-94.595009 272.03687 -39.997501 2.3509528e-038
-94.523117 271.83011 -58.878155 2.3509528e-038
-90.165184 273.01724 -41.087463 2.3509528e-038
-90.197861 273.11618 -60.69091 2.3509886e-038
-85.856529 274.49457 -43.009876 2.3509528e-038
-85.849915 274.47339 -62.482605 2.3509886e-038
-81.421074 275.71735 -45.312805 2.3509528e-038
-82.020775 277.74811 -65.00943 2.3509886e-038
-76.890381 276.7511 -47.573326 2.3509528e-038
-78.211174 281.505 -68.162445 2.3509886e-038
-68.98085 264.94598 54.30759 2.3418409e-038
-71.006088 272.72467 37.570271 2.3418409e-038
-72.277435 277.6077 -49.346478 2.3509528e-038
-73.967087 284.09744 -71.481323 2.3509886e-038
-64.189468 264.28033 53.828709 2.3418409e-038
-65.563019 269.93549 24.664484 2.3418409e-038
-67.755157 278.96094 -50.454956 2.3509528e-038
-69.528801 286.26337 -74.9524 2.3509886e-038
-60.09024 266.58206 48.84639 2.3418409e-038
-61.655125 273.52448 12.148283 2.3418409e-038
-63.430012 281.3985 -50.733303 2.3509528e-038
-64.618187 286.66968 -78.11718 2.3509886e-038
-55.937099 269.01138 41.008671 2.3418409e-038
-57.37355 275.91953 0.36933193 2.3418409e-038
-58.949669 283.49936 -49.372593 2.3509528e-038
-59.141865 284.42365 -80.62175 2.3509886e-038
-51.823807 272.09567 33.60088 2.3418409e-038
-53.248146 279.57404 -11.759616 2.3509886e-038
-54.309196 285.14499 -45.04475 2.3509528e-038
-54.066143 283.86884 -83.612801 2.3509886e-038
-48.47176 280.2037 26.602657 2.3509886e-038
-49.310173 285.05035 -86.995506 2.3509886e-038
-43.42646 279.24561 12.124563 2.3509886e-038
-44.622742 286.93808 -90.337387 2.3509886e-038
-38.911797 281.88904 3.3297598 2.3509886e-038
-39.750801 287.96704 -93.090904 2.3509886e-038
-31.806513 263.81161 72.893051 2.3418052e-038
-32.928761 273.11984 39.1814 2.3418052e-038
-33.928982 281.41595 1.4082261 2.3509886e-038
-34.850235 289.05707 -95.357635 2.3509886e-038
-27.125025 263.11688 71.759232 2.3418052e-038
-29.910614 290.13754 -96.98481 2.3509886e-038
-22.780924 266.07922 64.691818 2.3418052e-038
-25.07268 292.84671 -98.897263 2.3509886e-038
-18.449287 270.74374 46.850147 2.3509886e-038
-20.319759 298.19299 -101.83349 2.3509886e-038
-13.78826 272.12506 30.902315 9.1476764e-041
-15.373397 303.40933 -104.99176 2.3509886e-038
-8.9691496 270.19788 29.484346 9.1476764e-041
-10.187659 306.90576 -107.64797 2.3509886e-038
-4.0863004 259.93182 64.642693 9.1476764e-041
-4.8332376 307.44492 -109.06347 2.3509886e-038
0.4527815 258.21652 65.551025 9.1476764e-041
0.54726827 312.10135 -111.99906 2.3509886e-038
5.0380096 262.01993 57.695267 9.1476764e-041
6.1462421 319.65756 -116.33158 2.3509886e-038
9.8264732 267.73914 -2.2872305 2.3509886e-038
11.837852 322.5426 -119.4295 2.3509886e-038
14.42989 266.35327 -5.1898937 2.3509886e-038
17.481079 322.67349 -121.8942 2.3509886e-038
18.853376 263.1319 -3.7311234 2.3509886e-038
23.098137 322.37497 -124.34522 2.3509886e-038
23.070108 258.85406 0.37199292 3.5733111e-043
28.761595 322.71439 -126.63535 2.3509886e-038
27.085672 254.09157 6.4129753 3.5733111e-043
34.435192 323.03763 -127.85691 2.3509886e-038
31.265747 251.99646 13.550593 3.5733111e-043
33.480251 269.845 -31.254642 2.3509886e-038
34.16153 275.33597 -42.717384 2.3509886e-038
40.040657 322.7207 -127.16942 2.3509886e-038
35.256535 249.08124 21.419638 3.5733111e-043
36.746994 259.61108 -8.1694555 3.5733111e-043
45.172653 319.1369 -82.883568 2.3509886e-038
45.634903 322.40259 -124.81208 2.3509886e-038
39.431278 247.96364 29.446255 3.5733111e-043
40.287395 253.34731 1.8522035 3.5733111e-043
51.827351 325.91635 -93.484772 2.3509886e-038
51.379078 323.09738 -121.07456 2.3509886e-038
43.74062 247.82994 33.15834 3.5733111e-043
44.143616 250.11328 12.434537 3.5733111e-043
58.657513 332.34753 -104.56428 2.3509886e-038
57.900459 328.05817 -114.71752 2.3509886e-038
