# .PCD v0.7 - Point Cloud Data file format
VERSION 0.7
FIELDS x y z rgb
SIZE 4 4 4 4
TYPE F F F F
COUNT 1 1 1 1
WIDTH 462
HEIGHT 1
VIEWPOINT 0 0 0 1 0 0 0
POINTS 462
DATA ascii
0 0 0 2.3418409e-038
0 0 0 2.3418409e-038
0 0 0 2.3418409e-038
0 0 0 2.3418409e-038
0 0 0 2.3418409e-038
-17.231091 284.85516 13.167649 2.3509886e-038
-17.219036 284.87183 13.16842 2.3509886e-038
-14.694983 287.08521 13.270735 2.3509886e-038
-46.595436 250.03371 7.063838 2.3509886e-038
-46.57399 250.04214 7.0640764 2.3509886e-038
-42.613262 253.21284 7.1536536 2.3509886e-038
-38.362652 255.21332 7.2101703 2.3509886e-038
-33.420422 252.53105 7.1343918 2.3509886e-038
-28.797804 251.80042 7.1137505 2.3509886e-038
-24.55916 254.78076 7.1979499 2.3509886e-038
-20.538151 261.90256 7.3991518 2.3509886e-038
-16.245073 268.75858 7.5928445 2.3509886e-038
-11.448253 269.55719 7.6154065 2.3509886e-038
-6.5628471 267.91144 7.5689116 2.3509886e-038
-1.7595431 269.77997 7.6217008 2.3509886e-038
3.1417603 274.33871 7.7504926 2.3509886e-038
8.2027168 278.75381 7.8752255 2.3509886e-038
12.49755 281.27502 7.946454 2.3509886e-038
-67.168999 248.0596 2.5493779 2.3509886e-038
-64.04332 248.07465 2.5495327 2.3509886e-038
-60.420013 251.55377 2.5852883 2.3509886e-038
-56.557575 254.51964 2.6157696 2.3509886e-038
-51.483807 252.07654 2.5906613 2.3509886e-038
-46.706055 250.75117 2.57704 2.3509886e-038
-42.474621 252.38901 2.5938723 2.3509886e-038
-38.053799 253.15863 2.6017821 2.3509886e-038
-33.25634 251.29121 2.5825901 2.3509886e-038
-28.652958 250.53394 2.5748072 2.3509886e-038
-24.304157 252.1353 2.5912652 2.3509886e-038
-20.111441 256.46115 2.6357229 2.3509886e-038
-15.568872 257.5715 2.6471343 2.3509886e-038
-10.782104 253.87222 2.6091158 2.3509886e-038
-6.185123 252.49181 2.594929 2.3509886e-038
-1.6728791 256.49231 2.6360433 2.3509886e-038
3.0183296 263.56073 2.7086875 2.3509886e-038
7.9035258 268.58636 2.7603371 2.3509886e-038
12.794259 269.91739 2.7740166 2.3509886e-038
17.645954 269.91971 2.7740402 2.3509886e-038
22.541834 271.41452 2.789403 2.3509886e-038
-67.783104 247.13371 -1.902184 2.3509886e-038
-63.86874 247.39839 -1.9042213 2.3509886e-038
-60.389721 251.42764 -1.9352343 2.3509886e-038
-56.696602 255.14528 -1.9638489 2.3509886e-038
-51.794399 253.59726 -1.9519337 2.3509886e-038
-46.919754 251.89847 -1.9388582 2.3509886e-038
-42.512127 252.61188 -1.9443493 2.3509886e-038
-38.084038 253.3598 -1.950106 2.3509886e-038
-33.390106 252.30196 -1.9419639 2.3509886e-038
-28.754236 251.41948 -1.9351715 2.3509886e-038
-24.307993 252.17509 -1.9409875 2.3509886e-038
-19.986771 254.87137 -1.9617406 2.3509886e-038
-15.27243 252.66716 -1.9447747 2.3509886e-038
-10.510869 247.48581 -1.9048941 2.3509886e-038
-6.0430455 246.69183 -1.898783 2.3509886e-038
-1.6468856 252.50691 -1.9435413 2.3509886e-038
2.9715483 259.4758 -1.9971807 2.3509886e-038
7.6864061 261.20798 -2.0105133 2.3509886e-038
12.324897 260.01538 -2.0013337 2.3509886e-038
17.058607 260.93536 -2.008415 2.3509886e-038
22.139614 265.62512 -2.044512 2.3509886e-038
27.089226 271.78021 -2.0918877 2.3509886e-038
-68.618179 248.00581 -6.3666091 2.3509886e-038
-68.458595 247.91647 -6.364316 2.3509886e-038
-63.98082 247.83255 -6.3621616 2.3509886e-038
-60.489872 251.84462 -6.4651561 2.3509886e-038
-56.919064 256.14639 -6.5755882 2.3509886e-038
-52.220882 255.68542 -6.5637541 2.3509886e-038
-47.199749 253.40167 -6.5051274 2.3509886e-038
-42.621655 253.2627 -6.5015602 2.3509886e-038
-38.228893 254.32346 -6.5287905 2.3509886e-038
-33.62426 254.07129 -6.5223174 2.3509886e-038
-28.923655 252.90083 -6.4922705 2.3509886e-038
-24.415709 253.29256 -6.5023265 2.3509886e-038
-20.034166 255.47575 -6.5583715 2.3509886e-038
-15.298113 253.09206 -6.497179 2.3509886e-038
-10.55101 248.43097 -6.3775239 2.3509886e-038
-6.0738091 247.94771 -6.3651175 2.3509886e-038
-1.6566561 254.00496 -6.5206146 2.3509886e-038
2.9678874 259.1561 -6.6528511 2.3509886e-038
7.5923514 258.01169 -6.6234727 2.3509886e-038
12.153932 256.40857 -6.5823183 2.3509886e-038
16.996441 259.98447 -6.6741161 2.3509886e-038
22.252432 266.97864 -6.8536654 2.3509886e-038
27.712082 273.5014 -7.021112 2.3509886e-038
29.807451 275.5517 -7.0737457 2.3509886e-038
-69.363029 249.65097 -10.896126 2.3509886e-038
-68.841148 249.30186 -10.880889 2.3509886e-038
-64.20047 248.68336 -10.853894 2.3509886e-038
-60.698208 252.71201 -11.029727 2.3509886e-038
-57.373398 258.19098 -11.268859 2.3509886e-038
-52.960495 259.30676 -11.317556 2.3509886e-038
-47.689869 256.03296 -11.174671 2.3509886e-038
-42.857658 254.66507 -11.114969 2.3509886e-038
-38.391167 255.40302 -11.147176 2.3509886e-038
-33.811817 255.48851 -11.150908 2.3509886e-038
-29.080427 254.27159 -11.097795 2.3509886e-038
-24.567053 254.86264 -11.123591 2.3509886e-038
-20.164949 257.14349 -11.22314 2.3509886e-038
-15.433976 255.33977 -11.144417 2.3509886e-038
-10.677755 251.41525 -10.973128 2.3509886e-038
-6.1501875 251.06564 -10.95787 2.3509886e-038
-1.6722661 256.39835 -11.190619 2.3509886e-038
2.9753895 259.81119 -11.339573 2.3509886e-038
7.5913253 257.97684 -11.259512 2.3509886e-038
12.226244 257.93411 -11.257648 2.3509886e-038
17.277023 264.27637 -11.534457 2.3509886e-038
22.657553 271.8392 -11.864541 2.3509886e-038
27.954147 275.89044 -12.041359 2.3509886e-038
31.322971 277.32886 -12.104138 2.3509886e-038
-69.180824 250.73305 -15.450095 2.3509886e-038
-64.631187 250.35179 -15.426601 2.3509886e-038
-61.130646 254.51244 -15.682979 2.3509886e-038
-57.888302 260.50815 -16.052435 2.3509886e-038
-53.724819 263.04904 -16.209003 2.3509886e-038
-48.398819 259.83911 -16.011208 2.3509886e-038
-43.289001 257.22818 -15.850323 2.3509886e-038
-38.673538 257.28156 -15.853612 2.3509886e-038
-34.116051 257.78738 -15.884781 2.3509886e-038
-29.38278 256.91531 -15.831044 2.3509886e-038
-24.807823 257.36044 -15.858471 2.3509886e-038
-20.339506 259.36945 -15.982266 2.3509886e-038
-15.597017 258.03711 -15.90017 2.3509886e-038
-10.807753 254.47614 -15.680743 2.3509886e-038
-6.217062 253.79562 -15.638809 2.3509886e-038
-1.6826977 257.99774 -15.897743 2.3509886e-038
2.9820881 260.39612 -16.04553 2.3509886e-038
7.6320915 259.36218 -15.981819 2.3509886e-038
12.408914 261.78787 -16.131289 2.3509886e-038
17.616646 269.47137 -16.604746 2.3509886e-038
22.962822 275.50174 -16.976334 2.3509886e-038
28.048286 276.81952 -17.057537 2.3509886e-038
32.170994 276.60873 -17.044546 2.3509886e-038
-68.183449 252.66298 -20.110449 2.3509886e-038
-65.453857 253.53844 -20.180128 2.3509886e-038
-61.676632 256.78561 -20.438583 2.3509886e-038
-58.036366 261.17447 -20.787912 2.3509886e-038
-54.020061 264.49463 -21.052176 2.3509886e-038
-49.20713 264.17868 -21.027029 2.3509886e-038
-44.137604 262.27066 -20.875162 2.3509886e-038
-39.436291 262.35587 -20.881943 2.3509886e-038
-34.906178 263.75769 -20.993521 2.3509886e-038
-30.076855 262.9841 -20.931946 2.3509886e-038
-25.292294 262.38641 -20.884375 2.3509886e-038
-20.72052 264.22815 -21.030964 2.3509886e-038
-15.912472 263.25598 -20.953588 2.3509886e-038
-10.99579 258.90359 -20.607164 2.3509886e-038
-6.3080926 257.51175 -20.49638 2.3509886e-038
-1.703003 261.11105 -20.782864 2.3509886e-038
3.0139699 263.18005 -20.947544 2.3509886e-038
7.7431598 263.13663 -20.944086 2.3509886e-038
12.659714 267.07895 -21.257872 2.3509886e-038
17.876778 273.45044 -21.765005 2.3509886e-038
23.039402 276.42053 -22.001406 2.3509886e-038
27.986101 276.20581 -21.984314 2.3509886e-038
32.83638 275.31857 -21.913696 2.3509886e-038
-67.078949 258.17392 -25.189552 2.3509886e-038
-66.657333 258.20013 -25.192112 2.3509886e-038
-62.170338 258.84109 -25.254648 2.3509886e-038
-58.003857 261.02817 -25.468037 2.3509886e-038
-54.065231 264.71579 -25.827831 2.3509886e-038
-49.910416 267.95444 -26.143822 2.3509886e-038
-45.345261 269.44669 -26.289417 2.3509886e-038
-40.687355 270.67877 -26.409626 2.3509886e-038
-36.069771 272.55002 -26.592203 2.3509886e-038
-31.117889 272.08664 -26.546993 2.3509886e-038
-26.14126 271.19373 -26.459871 2.3509886e-038
-21.424726 273.20816 -26.656418 2.3509886e-038
-16.482145 272.68066 -26.60495 2.3509886e-038
-11.375379 267.84131 -26.132782 2.3509886e-038
-6.5196342 266.14737 -25.967508 2.3509886e-038
-1.7583578 269.59824 -26.304205 2.3509886e-038
3.1077747 271.37109 -26.477177 2.3509886e-038
7.984005 271.32129 -26.472319 2.3509886e-038
12.989244 274.03094 -26.736694 2.3509886e-038
18.102243 276.89926 -27.016548 2.3509886e-038
23.092819 277.0614 -27.03237 2.3509886e-038
28.010876 276.45032 -26.972746 2.3509886e-038
32.901398 275.79257 -26.908573 2.3509886e-038
33.449203 275.96759 -26.92565 2.3509886e-038
-64.700829 261.28619 -30.189638 2.3509886e-038
-62.576756 260.53317 -30.102634 2.3509886e-038
-58.021294 261.10663 -30.168892 2.3509886e-038
-53.955627 264.17914 -30.523895 2.3509886e-038
-50.067577 268.79819 -31.057594 2.3509886e-038
-45.909691 272.8006 -31.520039 2.3509886e-038
-41.342312 275.03595 -31.778316 2.3509886e-038
-36.640003 276.8588 -31.988937 2.3509886e-038
-31.811148 278.14832 -32.137932 2.3509886e-038
-26.915291 279.22366 -32.262177 2.3509886e-038
-22.078365 281.54337 -32.530205 2.3509886e-038
-17.052473 282.11621 -32.596386 2.3509886e-038
-11.87143 279.52118 -32.296555 2.3509886e-038
-6.8288369 278.76981 -32.209736 2.3509886e-038
-1.8342797 281.23889 -32.495022 2.3509886e-038
3.2316282 282.18597 -32.60445 2.3509886e-038
8.2736444 281.16415 -32.486385 2.3509886e-038
13.291623 280.41016 -32.399269 2.3509886e-038
18.265894 279.40253 -32.282845 2.3509886e-038
23.183117 278.14478 -32.13752 2.3509886e-038
28.118753 277.51498 -32.064754 2.3509886e-038
33.061131 277.13153 -32.020447 2.3509886e-038
33.642159 277.3548 -32.046242 2.3509886e-038
-61.8759 263.66238 -35.203331 2.3509886e-038
-58.521381 263.35715 -35.162571 2.3509886e-038
-54.003143 264.41177 -35.303383 2.3509886e-038
-49.840893 267.58121 -35.726555 2.3509886e-038
-45.588276 270.89072 -36.16843 2.3509886e-038
-41.000446 272.76163 -36.418224 2.3509886e-038
-36.343464 274.6181 -36.666096 2.3509886e-038
-31.688808 277.07861 -36.994621 2.3509886e-038
-26.968838 279.77914 -37.355183 2.3509886e-038
-22.15954 282.57852 -37.728947 2.3509886e-038
-17.20879 284.7023 -38.012508 2.3509886e-038
-12.133731 285.69724 -38.145344 2.3509886e-038
-7.022089 286.65878 -38.273731 2.3509886e-038
-1.8752918 287.52704 -38.389656 2.3509886e-038
3.2849381 286.841 -38.298058 2.3509886e-038
8.3812838 284.82208 -38.0285 2.3509886e-038
13.387444 282.43167 -37.709339 2.3509886e-038
18.320204 280.23328 -37.415817 2.3509886e-038
23.249907 278.94611 -37.243958 2.3509886e-038
28.242813 278.73938 -37.216358 2.3509886e-038
33.330441 279.38898 -37.303085 2.3509886e-038
33.372379 279.41061 -37.305977 2.3509886e-038
-59.349304 268.40558 -40.660995 2.3509886e-038
-54.432777 266.51538 -40.374645 2.3509886e-038
-49.770603 267.20383 -40.478943 2.3509886e-038
-45.18528 268.49606 -40.674702 2.3509886e-038
-40.479099 269.29327 -40.795471 2.3509886e-038
-35.850544 270.89352 -41.037895 2.3509886e-038
-31.270309 273.41937 -41.42054 2.3509886e-038
-26.65794 276.55383 -41.895382 2.3509886e-038
-21.934057 279.70316 -42.372475 2.3509886e-038
-17.072161 282.44193 -42.787369 2.3509886e-038
-12.1146 285.2468 -43.212284 2.3509886e-038
-7.0440273 287.55438 -43.561863 2.3509886e-038
-1.8813409 288.4545 -43.698223 2.3509886e-038
3.2917829 287.43869 -43.544338 2.3509886e-038
8.3897085 285.10837 -43.191315 2.3509886e-038
13.387155 282.42557 -42.784897 2.3509886e-038
18.320206 280.23331 -42.452785 2.3509886e-038
23.294947 279.48648 -42.339649 2.3509886e-038
28.444885 280.7337 -42.528591 2.3509886e-038
33.806084 284.41733 -43.086628 2.3509886e-038
-54.861652 269.01697 -45.589001 2.3509886e-038
-49.971573 268.28278 -45.464581 2.3509886e-038
-45.05891 267.74518 -45.373474 2.3509886e-038
-40.182808 267.32214 -45.301788 2.3509886e-038
-35.509464 268.31625 -45.470249 2.3509886e-038
-30.928413 270.4299 -45.828442 2.3509886e-038
-26.352041 273.3804 -46.328449 2.3509886e-038
-21.686735 276.54932 -46.865467 2.3509886e-038
-16.887943 279.39423 -47.347584 2.3509886e-038
-12.012779 282.84933 -47.933102 2.3509886e-038
-7.0108972 286.20193 -48.501251 2.3509886e-038
-1.8778476 287.91888 -48.792217 2.3509886e-038
3.2901502 287.29611 -48.686676 2.3509886e-038
8.3903484 285.13013 -48.319614 2.3509886e-038
13.396993 282.63312 -47.896465 2.3509886e-038
18.349396 280.67978 -47.565441 2.3509886e-038
23.374861 280.44528 -47.525696 2.3509886e-038
28.731192 283.55939 -48.053429 2.3509886e-038
34.894833 292.50232 -49.568943 2.3509886e-038
36.027287 294.79523 -49.957512 2.3509886e-038
-49.605133 271.03012 -50.801723 2.3509886e-038
-45.283669 269.08069 -50.436325 2.3509886e-038
-40.207817 267.48856 -50.137897 2.3509886e-038
-35.431633 267.72815 -50.182804 2.3509886e-038
-30.775463 269.09256 -50.438545 2.3509886e-038
-26.149391 271.27808 -50.848202 2.3509886e-038
-21.493744 274.08829 -51.374947 2.3509886e-038
-16.744717 277.02466 -51.925335 2.3509886e-038
-11.922304 280.71906 -52.617805 2.3509886e-038
-6.9748001 284.72836 -53.369308 2.3509886e-038
-1.8731762 287.20267 -53.833092 2.3509886e-038
3.2880416 287.112 -53.816097 2.3509886e-038
8.3945131 285.27164 -53.471146 2.3509886e-038
13.427717 283.28131 -53.098083 2.3509886e-038
18.43405 281.9747 -52.853168 2.3509886e-038
23.524231 282.23737 -52.902401 2.3509886e-038
29.024786 286.45697 -53.693321 2.3509886e-038
35.632446 298.6853 -55.985394 2.3509886e-038
40.491447 310.17502 -58.139023 2.3509886e-038
-44.303551 271.81177 -55.833847 2.3509886e-038
-40.6861 270.67041 -55.5994 2.3509886e-038
-35.710598 269.83606 -55.428013 2.3509886e-038
-30.850782 269.75113 -55.410564 2.3509886e-038
-26.100601 270.77191 -55.620251 2.3509886e-038
-21.410889 273.03171 -56.084442 2.3509886e-038
-16.683302 276.00864 -56.695942 2.3509886e-038
-11.879228 279.70477 -57.455181 2.3509886e-038
-6.9532933 283.8504 -58.306751 2.3509886e-038
-1.8701209 286.73419 -58.89912 2.3509886e-038
3.2882378 287.12912 -58.980244 2.3509886e-038
8.4039936 285.59381 -58.664871 2.3509886e-038
13.465894 284.0867 -58.355286 2.3509886e-038
18.535906 283.53275 -58.241497 2.3509886e-038
23.695715 284.29477 -58.398029 2.3509886e-038
29.248425 288.66415 -59.295563 2.3509886e-038
35.877979 300.74347 -61.776814 2.3509886e-038
43.54583 317.22336 -65.16201 2.3509886e-038
45.929184 321.47876 -66.036125 2.3509886e-038
-39.439629 277.40033 -61.967869 2.3509886e-038
-36.411942 275.13556 -61.461941 2.3509886e-038
-31.199646 272.80148 -60.940536 2.3509886e-038
-26.314524 272.99118 -60.982914 2.3509886e-038
-21.533257 274.59216 -61.340553 2.3509886e-038
-16.746681 277.05716 -61.891205 2.3509886e-038
-11.896259 280.1058 -62.572235 2.3509886e-038
-6.949626 283.70068 -63.375286 2.3509886e-038
-1.869653 286.66245 -64.036911 2.3509886e-038
3.2941778 287.64783 -64.257027 2.3509886e-038
8.4326191 286.56662 -64.015503 2.3509886e-038
13.520192 285.23224 -63.717419 2.3509886e-038
18.654701 285.34985 -63.743687 2.3509886e-038
23.956154 287.41946 -64.206017 2.3509886e-038
29.622446 292.35553 -65.308678 2.3509886e-038
36.12561 302.81918 -67.646133 2.3509886e-038
43.553108 317.2764 -70.875687 2.3509886e-038
51.050018 328.83289 -73.457268 2.3509886e-038
51.679485 329.63538 -73.636536 2.3509886e-038
-31.189905 278.95618 -67.329453 2.3509886e-038
-26.959616 279.68347 -67.504997 2.3509886e-038
-22.031755 280.94904 -67.810448 2.3509886e-038
-17.027891 281.7095 -67.993996 2.3509886e-038
-12.005512 282.67825 -68.227821 2.3509886e-038
-6.9804034 284.95709 -68.777847 2.3509886e-038
-1.876637 287.73328 -69.447914 2.3509886e-038
3.3147848 289.4472 -69.861588 2.3509886e-038
8.5155077 289.38342 -69.846191 2.3509886e-038
13.679395 288.59088 -69.654907 2.3509886e-038
18.913813 289.31335 -69.829277 2.3509886e-038
24.399343 292.73672 -70.655556 2.3509886e-038
30.190813 297.96497 -71.91745 2.3509886e-038
36.475685 305.75366 -73.797348 2.3509886e-038
43.520374 317.03793 -76.52095 2.3509886e-038
50.86174 327.62012 -79.075081 2.3509886e-038
56.428375 333.41873 -80.474648 2.3509886e-038
-22.388252 294.36841 -76.340439 2.3509886e-038
-17.601137 291.1933 -75.517021 2.3509886e-038
-12.254018 288.52945 -74.826187 2.3509886e-038
-7.0799675 289.02151 -74.953796 2.3509886e-038
-1.9007124 291.42459 -75.577003 2.3509886e-038
3.3646221 293.79901 -76.192772 2.3509886e-038
8.6735954 294.75574 -76.440887 2.3509886e-038
13.97578 294.84369 -76.463692 2.3509886e-038
19.34207 295.86417 -76.728348 2.3509886e-038
24.905508 298.80957 -77.492195 2.3509886e-038
30.673912 302.73285 -78.509644 2.3509886e-038
36.728188 307.87024 -79.841957 2.3509886e-038
43.369793 315.94098 -81.93499 2.3509886e-038
50.438648 324.89484 -84.25705 2.3509886e-038
57.468765 331.76682 -86.039207 2.3509886e-038
59.159534 333.07599 -86.378723 2.3509886e-038
-9.3408289 296.48724 -82.219048 2.3509886e-038
-7.2667727 296.6474 -82.263466 2.3509886e-038
-1.9491097 298.84509 -82.872902 2.3509886e-038
3.4476073 301.04529 -83.483047 2.3509886e-038
8.885807 301.96735 -83.738747 2.3509886e-038
14.346834 302.67169 -83.934059 2.3509886e-038
19.86875 303.92044 -84.280357 2.3509886e-038
25.486307 305.77783 -84.795425 2.3509886e-038
31.170885 307.63766 -85.31118 2.3509886e-038
36.990086 310.06558 -85.984467 2.3509886e-038
43.252216 315.08444 -87.376244 2.3509886e-038
50.006351 322.11023 -89.324577 2.3509886e-038
56.898212 328.47302 -91.08905 2.3509886e-038
60.014236 330.59464 -91.677391 2.3509886e-038
1.190748 312.94778 -92.40873 2.3509886e-038
3.5792232 312.53799 -92.287735 2.3509886e-038
9.1712122 311.66629 -92.030327 2.3509886e-038
14.78475 311.91031 -92.102386 2.3509886e-038
20.438122 312.62979 -92.314842 2.3509886e-038
26.116405 313.33755 -92.523827 2.3509886e-038
31.764235 313.49368 -92.569923 2.3509886e-038
37.43911 313.82947 -92.669083 2.3509886e-038
43.420986 316.3139 -93.402702 2.3509886e-038
49.853008 321.1225 -94.822609 2.3509886e-038
56.558453 326.5116 -96.413925 2.3509886e-038
59.878685 328.58356 -97.025742 2.3509886e-038
14.020033 322.15604 -100.9183 2.3509886e-038
15.244311 321.60556 -100.74586 2.3509886e-038
20.928143 320.12534 -100.28218 2.3509886e-038
26.662811 319.89322 -100.20946 2.3509886e-038
32.331474 319.09198 -99.958466 2.3509886e-038
37.983364 318.39163 -99.739075 2.3509886e-038
43.843502 319.39185 -100.0524 2.3509886e-038
50.007099 322.11502 -100.90546 2.3509886e-038
56.454334 325.91052 -102.09444 2.3509886e-038
58.938328 327.25671 -102.51614 2.3509886e-038
23.586693 325.9657 -107.9707 2.3509886e-038
27.129436 325.49164 -107.81367 2.3509886e-038
32.837116 324.08234 -107.34686 2.3509886e-038
38.522869 322.91397 -106.95985 2.3509886e-038
44.334885 322.9715 -106.9789 2.3509886e-038
50.288311 323.92645 -107.29522 2.3509886e-038
56.455372 325.9165 -107.9544 2.3509886e-038
56.798164 326.04099 -107.99563 2.3509886e-038
33.4795 328.68372 -114.77883 2.3509886e-038
39.034977 327.20667 -114.26305 2.3509886e-038
44.800308 326.362 -113.96808 2.3509886e-038
50.579933 325.8049 -113.77352 2.3509886e-038
51.398495 325.82532 -113.78065 2.3509886e-038
-68.383606 247.64491 -5.299346 2.3509886e-038
-69.21907 250.67046 -15.185716 2.3509886e-038
-64.564087 250.09186 6.8544264 2.3509886e-038
-66.85331 258.95926 -25.918085 2.3509886e-038
-60.574059 252.19511 5.7712545 2.3509886e-038
-62.973232 262.18387 -33.016914 2.3509886e-038
-56.500626 254.26334 5.0706806 2.3509886e-038
-59.587654 268.15555 -40.24585 2.3509886e-038
-51.287811 251.1169 5.844347 2.3509886e-038
-54.943062 269.01385 -45.515194 2.3509886e-038
-46.573978 250.04208 7.0688276 2.3509886e-038
-50.427631 270.7312 -50.00193 2.3509886e-038
-42.665947 253.52591 7.8686876 2.3509886e-038
-45.665604 271.35022 -54.392708 2.3509886e-038
-38.509651 256.19125 8.3403816 2.3509886e-038
-41.414589 275.51678 -59.774338 2.3509886e-038
-33.561844 253.59967 8.7134104 2.3509886e-038
-36.711807 277.4014 -63.794933 2.3509886e-038
-28.989372 253.47546 9.445384 2.3509886e-038
-31.833614 278.34476 -66.810448 2.3509886e-038
-24.94446 258.77792 10.465721 2.3509886e-038
-27.45013 284.77216 -70.941177 2.3509886e-038
-21.331228 272.0159 11.841015 2.3509886e-038
-23.017342 293.51721 -75.777397 2.3509886e-038
-17.21945 284.87866 13.170691 2.3509886e-038
-17.874592 295.71729 -78.773186 2.3509886e-038
-12.126634 285.53012 12.562674 2.3509886e-038
-12.5261 294.93585 -80.508965 2.3509886e-038
-6.8647876 280.23737 11.020619 2.3509886e-038
-7.3125939 298.51791 -83.741539 2.3509886e-038
-1.8231834 279.53757 10.502408 2.3509886e-038
-2.0074055 307.7832 -89.237312 2.3509886e-038
3.2219901 281.34439 10.33905 2.3509886e-038
3.6123664 315.43207 -94.319321 2.3509886e-038
8.2975607 281.9769 9.3673058 2.3509886e-038
9.4004574 319.45676 -98.048584 2.3509886e-038
13.314888 280.90097 7.6384034 2.3509886e-038
15.294501 322.6644 -101.74004 2.3509886e-038
18.107861 276.9852 5.6193504 2.3509886e-038
21.223686 324.64612 -105.96135 2.3509886e-038
22.615776 271.33795 2.7237215 2.3509886e-038
27.322886 327.81259 -111.07484 2.3509886e-038
27.597134 272.36691 -2.8220921 2.3509886e-038
33.303379 328.68408 -114.69877 2.3509886e-038
32.844475 275.31543 -21.97385 2.3509886e-038
33.36005 279.63715 -37.685314 2.3509886e-038
34.205696 286.72574 -44.912731 2.3509886e-038
39.1735 328.3678 -116.44306 2.3509886e-038
43.568089 317.38553 -62.75914 2.3509886e-038
44.940659 327.38443 -116.36621 2.3509886e-038
51.056683 328.87585 -72.808502 2.3509886e-038
50.60186 325.94614 -114.23283 2.3509886e-038
57.802361 333.69266 -82.972458 2.3509886e-038
56.459015 325.93753 -108.54793 2.3509886e-038
