# .PCD v0.7 - Point Cloud Data file format
VERSION 0.7
FIELDS x y z rgb
SIZE 4 4 4 4
TYPE F F F F
COUNT 1 1 1 1
WIDTH 845
HEIGHT 1
VIEWPOINT 0 0 0 1 0 0 0
POINTS 845
DATA ascii
-29.797363 263.61606 68.285629 2.3418052e-038
2.4383879 258.8678 60.959698 9.1476764e-041
46.789089 248.36469 29.243181 3.5733111e-043
-100.5651 263.61343 -45.937141 2.3509528e-038
-68.49559 264.42661 51.060349 2.3418409e-038
-36.053898 265.81567 71.889084 2.3418052e-038
-31.847727 263.3313 71.217194 2.3418052e-038
-27.164625 262.50754 70.994408 2.3418052e-038
-26.13747 262.76535 71.06414 2.3418052e-038
-36.578312 266.91486 67.525909 2.3418052e-038
-31.945971 264.14362 66.824821 2.3418052e-038
-27.253212 263.36359 66.627487 2.3418052e-038
-23.877016 264.52847 66.922188 2.3418052e-038
-0.33695632 257.73795 65.204269 9.1476764e-041
0.33020759 257.74719 65.206619 9.1476764e-041
4.850522 258.811 65.475739 9.1476764e-041
5.5906515 259.14493 65.560219 9.1476764e-041
-35.986572 267.13251 62.916733 2.3418052e-038
-32.040798 264.92767 62.397438 2.3418052e-038
-27.347542 264.27518 62.243752 2.3418052e-038
-22.891193 266.11206 62.676392 2.3418052e-038
-22.483236 266.64526 62.801971 2.3418052e-038
-2.3228004 258.50497 60.884724 9.1476764e-041
0.33112031 258.45963 60.874043 9.1476764e-041
4.8733983 260.03162 61.244286 9.1476764e-041
7.9192238 262.22464 61.760803 9.1476764e-041
-35.303886 267.42972 58.317303 2.3418052e-038
-32.124531 265.62003 57.922672 2.3418052e-038
-27.419315 264.96875 57.780655 2.3418052e-038
-22.91917 266.43729 58.100895 2.3418052e-038
-21.368118 267.79526 58.397022 2.3418052e-038
-2.723387 258.55823 56.382736 9.1476764e-041
0.33158249 258.82037 56.439907 9.1476764e-041
4.8916306 261.00446 56.916172 9.1476764e-041
8.6057854 264.12964 57.597672 9.1476764e-041
-74.050453 267.78088 53.718311 2.3418409e-038
-68.80706 264.00793 52.961437 2.3418409e-038
-63.87891 262.69827 52.698711 2.3418409e-038
-62.86274 262.76541 52.712181 2.3418409e-038
-34.717598 267.51407 53.664791 2.3418052e-038
-32.181808 266.0936 53.379837 2.3418052e-038
-27.458679 265.34915 53.230495 2.3418052e-038
-22.904373 266.26526 53.414272 2.3418052e-038
-20.144958 267.71613 53.705322 2.3418052e-038
-2.7597189 258.23013 51.80238 9.1476764e-041
0.33142087 258.69424 51.895481 9.1476764e-041
4.8962517 261.25101 52.408382 9.1476764e-041
8.7750788 264.81924 53.124191 9.1476764e-041
-74.586876 268.91483 49.250427 2.3418409e-038
-68.947769 264.54782 48.450634 2.3418409e-038
-63.983509 263.12842 48.190678 2.3418409e-038
-59.955463 263.76779 48.307774 2.3418409e-038
-34.341057 268.4639 49.167847 2.3418052e-038
-32.320854 267.24329 48.944298 2.3418052e-038
-27.530344 266.04169 48.724232 2.3418052e-038
-22.926529 266.52283 48.812347 2.3418052e-038
-18.759438 268.65649 49.203117 2.3509886e-038
-2.8598502 258.86627 47.410091 9.1476764e-041
0.33173159 258.9368 47.423 9.1476764e-041
4.8937387 261.11691 47.822281 9.1476764e-041
8.7722979 264.23163 48.392723 9.1476764e-041
-73.910522 270.06119 44.74501 2.3418409e-038
-69.492889 266.6394 44.178074 2.3418409e-038
-64.340927 264.5983 43.83989 2.3418409e-038
-59.667305 264.36069 43.800522 2.3418409e-038
-57.719177 264.88666 43.887665 2.3418409e-038
-34.125221 270.96194 44.894249 2.3418052e-038
-32.617043 269.69232 44.683891 2.3418052e-038
-27.668419 267.37598 44.30011 2.3418052e-038
-22.98608 267.21512 44.273457 2.3418052e-038
-18.464903 269.32294 44.622688 2.3509886e-038
-17.329021 270.20407 44.768681 2.3509886e-038
-3.2205064 260.02081 43.081474 9.1476764e-041
0.33204705 259.18301 42.942661 9.1476764e-041
4.8879251 260.8067 43.211681 9.1476764e-041
8.7561073 263.38531 43.63892 9.1476764e-041
-72.683243 271.27997 40.210274 2.3418409e-038
-70.166351 269.22342 39.905445 2.3418409e-038
-64.6996 266.0733 39.438522 2.3418409e-038
-59.773304 264.83032 39.254276 2.3418409e-038
-55.492493 265.73901 39.388969 2.3418409e-038
-33.727455 273.16776 40.490089 2.3418052e-038
-32.93544 272.32498 40.36517 2.3418052e-038
-27.832596 268.96252 39.866776 2.3418052e-038
-23.055799 268.0256 39.727901 2.3418052e-038
-18.512629 270.01904 40.023376 2.3418052e-038
-16.169111 272.57916 40.402843 2.3509886e-038
-3.8671889 261.28503 38.728783 9.1476764e-041
0.33175954 258.95862 38.383949 9.1476764e-041
4.8793902 260.35132 38.590382 9.1476764e-041
8.8048983 262.97025 38.978569 9.1476764e-041
-70.910988 271.3938 35.488506 2.3418409e-038
-70.67292 271.16711 35.458858 2.3418409e-038
-64.868217 266.76675 34.883453 2.3418409e-038
-59.759445 264.76892 34.622211 2.3418409e-038
-55.197712 265.06299 34.660664 2.3418409e-038
-53.074768 266.43695 34.840332 2.3418409e-038
-33.10569 274.04517 35.835205 2.3418052e-038
-27.982382 270.41 35.359859 2.3418052e-038
-23.122829 268.80484 35.149963 2.3418052e-038
-18.461393 269.27176 35.211018 2.3509886e-038
-15.189856 271.06949 35.446095 2.3509886e-038
-4.7009954 262.17245 34.282688 9.1476764e-041
-4.2310915 261.51376 34.196552 9.1476764e-041
0.33115727 258.48846 33.800957 9.1476764e-041
4.8578153 259.20016 33.894016 9.1476764e-041
8.9971685 261.68454 34.218884 9.1476764e-041
42.743919 247.64095 32.382492 3.5733111e-043
43.522621 247.44899 32.357391 3.5733111e-043
48.117924 248.86995 32.543201 3.5733111e-043
51.425701 251.88684 32.937698 3.5733111e-043
-68.852623 270.43842 30.641611 2.3418409e-038
-65.044296 267.49088 30.307646 2.3418409e-038
-59.825115 265.05988 30.032206 2.3418409e-038
-55.209583 265.12 30.039019 2.3418409e-038
-51.051685 267.58987 30.318861 2.3418409e-038
-50.720276 267.95816 30.36059 2.3418409e-038
-32.387878 274.57144 31.1099 2.3418052e-038
-28.118341 271.72388 30.787258 2.3418052e-038
-23.203056 269.73749 30.562195 2.3418052e-038
-18.474073 269.45673 30.530382 2.3418052e-038
-14.556885 270.78763 30.681179 2.3509886e-038
-5.5464854 264.12137 29.925867 9.1476764e-041
-4.2431417 262.25854 29.714806 9.1476764e-041
0.33147386 258.7356 29.315643 9.1476764e-041
4.8511724 258.84567 29.328115 9.1476764e-041
9.3106918 261.66473 29.647526 9.1476764e-041
40.065304 248.20781 28.122807 3.5733111e-043
43.547562 247.59077 28.052896 3.5733111e-043
48.28648 249.74173 28.296606 3.5733111e-043
51.847569 252.92462 28.657238 3.5733111e-043
-67.101608 270.30902 25.90724 2.3418409e-038
-65.429741 269.07599 25.789063 2.3418409e-038
-60.131462 266.41718 25.534233 2.3418409e-038
-55.424324 266.15118 25.508741 2.3418409e-038
-51.061863 267.64322 25.651741 2.3418409e-038
-48.601551 269.50787 25.830458 2.3418409e-038
-31.615847 275.82156 26.435579 2.3418052e-038
-28.269335 273.18298 26.182692 2.3418052e-038
-23.282421 270.66013 25.940891 2.3418052e-038
-18.533722 270.32669 25.908936 2.3418052e-038
-13.948239 272.79651 26.145649 2.3509886e-038
-6.1898813 267.52158 25.640083 2.3509886e-038
-4.2773581 264.37338 25.338352 9.1476764e-041
0.33335724 260.20572 24.93891 9.1476764e-041
4.8713641 259.92307 24.911819 9.1476764e-041
9.4524946 262.20621 25.13064 9.1476764e-041
37.788979 248.56972 23.823679 3.5733111e-043
39.313354 248.1514 23.783585 3.5733111e-043
43.749268 248.73761 23.839769 3.5733111e-043
48.895405 252.89116 24.237858 3.5733111e-043
51.534672 256.23608 24.558445 3.5733111e-043
-65.596085 271.22034 21.258966 2.3418409e-038
-60.567528 268.34921 21.03392 2.3418409e-038
-55.691013 267.43185 20.962017 2.3418409e-038
-51.139545 268.05042 21.010502 2.3418409e-038
-46.861008 270.36819 21.192175 2.3418409e-038
-46.753323 270.4592 21.199308 2.3418409e-038
-30.779694 277.00775 21.712601 2.3418052e-038
-28.440754 274.83951 21.54265 2.3418052e-038
-23.36414 271.61011 21.28952 2.3418052e-038
-18.583618 271.05447 21.245968 2.3418052e-038
-14.0104 274.17563 21.490612 2.3509886e-038
-13.064434 275.0401 21.558371 2.3509886e-038
-6.6511211 270.61392 21.211433 2.3509886e-038
-4.3129077 266.57065 20.894514 9.1476764e-041
0.33568934 262.02603 20.538294 9.1476764e-041
4.8989434 261.39462 20.488802 9.1476764e-041
9.332799 262.90997 20.607582 9.1476764e-041
35.501991 249.25412 19.537197 3.5733111e-043
39.360977 248.45203 19.474327 3.5733111e-043
43.918892 249.702 19.572302 3.5733111e-043
49.26926 254.82475 19.973839 3.5733111e-043
49.781574 255.57509 20.032652 3.5733111e-043
-64.202499 273.08292 16.636826 2.3418409e-038
-61.105408 270.7323 16.493622 2.3418409e-038
-55.911835 268.49225 16.357153 2.3418409e-038
-51.219837 268.47125 16.355873 2.3418409e-038
-46.863064 270.38004 16.472162 2.3418409e-038
-45.077026 271.60437 16.546751 2.3418409e-038
-29.940075 277.30203 16.893864 2.3418052e-038
-28.548155 275.87738 16.807072 2.3418052e-038
-23.392935 271.94485 16.567493 2.3418052e-038
-18.59598 271.2348 16.524237 2.3509886e-038
-14.081284 275.56277 16.787905 2.3509886e-038
-11.583407 278.41586 16.961721 2.3509886e-038
-7.5998874 275.20758 16.766268 2.3509886e-038
-4.3538628 269.10199 16.394299 9.1476764e-041
0.33778119 263.65884 16.062693 9.1476764e-041
4.9244046 262.75317 16.007515 9.1476764e-041
9.0732107 264.45731 16.111334 9.1476764e-041
33.04641 250.87091 15.283622 3.5733111e-043
35.155029 249.38934 15.193361 3.5733111e-043
39.403107 248.71794 15.152458 3.5733111e-043
43.996136 250.14117 15.239164 3.5733111e-043
47.31028 252.84445 15.403853 3.5733111e-043
-62.532127 274.03064 11.90987 2.3418409e-038
-61.669926 273.23346 11.875224 2.3418409e-038
-56.154041 269.65533 11.719713 2.3418409e-038
-51.347073 269.13815 11.697234 2.3418409e-038
-46.932945 270.78323 11.768733 2.3418409e-038
-43.281357 273.25415 11.876123 2.3418409e-038
-29.356783 277.42752 12.057506 2.3418052e-038
-28.625008 276.62006 12.022411 2.3418052e-038
-23.388403 271.89215 11.816929 2.3509886e-038
-18.571384 270.87604 11.772767 2.3509886e-038
-14.034825 274.65363 11.936947 2.3509886e-038
-9.3091326 276.73087 12.027227 2.3509886e-038
-4.359849 269.47195 11.711741 2.3509886e-038
0.33871588 264.38843 11.490803 9.1476764e-041
4.9402151 263.59677 11.456396 9.1476764e-041
8.9259567 265.86792 11.555104 9.1476764e-041
30.207251 252.77609 10.98611 3.5733111e-043
31.127338 252.03505 10.953902 3.5733111e-043
35.185184 249.60327 10.848213 3.5733111e-043
39.485943 249.2408 10.832459 3.5733111e-043
44.207832 251.34477 10.923902 3.5733111e-043
45.13377 252.20708 10.961379 3.5733111e-043
-60.683491 274.47998 7.1368713 2.3418409e-038
-56.556576 271.58832 7.0616841 2.3418409e-038
-51.582066 270.36987 7.0300026 2.3418409e-038
-47.02037 271.28766 7.0538659 2.3418409e-038
-42.631264 273.51834 7.1118674 2.3418409e-038
-40.823292 275.3862 7.1604347 2.3418409e-038
-29.914658 278.62946 7.2447634 2.3509886e-038
-28.701941 277.36349 7.2118473 2.3509886e-038
-23.417315 272.22827 7.0783234 2.3509886e-038
-18.554775 270.63379 7.0368648 2.3509886e-038
-13.90092 272.03314 7.0732503 2.3509886e-038
-9.1559906 272.17844 7.0770283 2.3509886e-038
-4.3320074 267.75116 6.9619122 2.3509886e-038
0.33856925 264.27399 6.8715014 2.3509886e-038
4.9400949 263.59036 6.8537259 9.1476764e-041
9.1389418 265.85748 6.9126744 9.1476764e-041
26.87616 253.65695 6.5954428 3.5733111e-043
26.89715 253.64244 6.5950651 3.5733111e-043
31.098194 251.79907 6.5471354 3.5733111e-043
35.311775 250.50131 6.5133915 3.5733111e-043
39.72073 250.72282 6.5191512 3.5733111e-043
43.181225 252.72101 6.5711069 3.5733111e-043
-58.750301 275.10922 2.3497167 2.3418409e-038
-57.026985 273.84729 2.3389385 2.3418409e-038
-51.847282 271.76004 2.3211112 2.3418409e-038
-47.075527 271.60587 2.3197944 2.3418409e-038
-42.467022 272.46457 2.3271286 2.3418409e-038
-38.039314 274.84637 2.3474717 2.3509886e-038
-33.495701 276.95749 2.3655028 2.3509886e-038
-28.505302 275.46329 2.3527405 2.3509886e-038
-23.426029 272.32956 2.3259757 2.3509886e-038
-18.571043 270.87106 2.3135185 2.3509886e-038
-13.811648 270.28616 2.3085227 2.3509886e-038
-9.0492134 269.00427 2.2975743 2.3509886e-038
-4.3143458 266.65952 2.2775476 2.3509886e-038
0.33902121 264.62677 2.2601855 2.3509886e-038
4.9472613 263.97275 2.2545998 2.3509886e-038
9.6384621 266.24121 2.2739747 2.3509886e-038
10.156186 266.66006 2.2775521 2.3509886e-038
23.134026 256.85083 2.1937711 3.5733111e-043
26.943079 254.07556 2.1700673 3.5733111e-043
31.239868 252.9462 2.1604216 3.5733111e-043
35.607887 252.60193 2.157481 3.5733111e-043
40.175068 253.59067 2.165926 3.5733111e-043
41.379807 254.43677 2.1731524 3.5733111e-043
-56.738426 275.44 -2.4567595 2.3509886e-038
-52.10006 273.08496 -2.4357538 2.3418409e-038
-47.137627 271.96417 -2.4257569 2.3418409e-038
-42.321907 271.53351 -2.4219158 2.3509886e-038
-37.66436 272.13721 -2.4273002 2.3509886e-038
-32.996765 272.83206 -2.4334981 2.3509886e-038
-28.21245 272.63327 -2.4317253 2.3509886e-038
-23.397257 271.99509 -2.426033 2.3509886e-038
-18.595934 271.23413 -2.4192455 2.3509886e-038
-13.801704 270.09155 -2.4090545 2.3509886e-038
-9.0408316 268.75513 -2.3971345 2.3509886e-038
-4.326273 267.3967 -2.3850179 2.3509886e-038
0.34069887 265.93628 -2.3719919 2.3509886e-038
4.9665256 265.00061 -2.3636463 2.3509886e-038
9.6318665 266.05905 -2.3730867 2.3509886e-038
14.311582 266.69687 -2.3787761 2.3509886e-038
18.613132 261.70419 -2.3342443 3.5733111e-043
22.790478 257.27762 -2.2947617 3.5733111e-043
27.10177 255.57202 -2.2795489 3.5733111e-043
31.513735 255.16367 -2.2759068 3.5733111e-043
36.033489 255.62114 -2.2799869 3.5733111e-043
39.49482 256.99783 -2.2922661 3.5733111e-043
-55.08902 276.89835 -7.3045216 2.3509886e-038
-52.494114 275.15042 -7.2584114 2.3509886e-038
-47.318378 273.00705 -7.2018695 2.3509886e-038
-42.353401 271.7356 -7.1683292 2.3509886e-038
-37.59116 271.60831 -7.1649709 2.3509886e-038
-32.886105 271.91705 -7.1731153 2.3509886e-038
-28.164381 272.16876 -7.1797557 2.3509886e-038
-23.418886 272.24655 -7.1818075 2.3509886e-038
-18.633106 271.77631 -7.1694031 2.3509886e-038
-13.841906 270.8783 -7.1457133 2.3509886e-038
-9.0832796 270.01697 -7.122992 2.3509886e-038
-4.3509936 268.92465 -7.0941768 2.3509886e-038
0.34252444 267.36127 -7.0529346 2.3509886e-038
4.9840112 265.93362 -7.0152745 2.3509886e-038
9.5975437 265.11093 -6.9935718 2.3509886e-038
14.136514 263.43448 -6.949347 3.5733111e-043
18.515263 260.32819 -6.8674035 3.5733111e-043
22.864386 258.11194 -6.8089404 3.5733111e-043
27.294949 257.39371 -6.7899928 3.5733111e-043
31.828732 257.71414 -6.7984462 3.5733111e-043
36.55682 259.33365 -6.8411679 3.5733111e-043
37.678318 260.27539 -6.8660111 3.5733111e-043
-53.795433 278.88861 -12.226529 2.3509886e-038
-53.092236 278.28549 -12.200089 2.3509886e-038
-47.623775 274.76904 -12.045926 2.3509886e-038
-42.50523 272.70972 -11.955646 2.3509886e-038
-37.677795 272.23425 -11.934801 2.3509886e-038
-32.970253 272.61285 -11.951398 2.3509886e-038
-28.253092 273.02603 -11.969512 2.3509886e-038
-23.481964 272.97983 -11.967486 2.3509886e-038
-18.673481 272.3652 -11.940542 2.3509886e-038
-13.88259 271.67447 -11.910259 2.3509886e-038
-9.1177282 271.04102 -11.882488 2.3509886e-038
-4.3663235 269.87213 -11.831245 2.3509886e-038
0.34369224 268.27283 -11.76113 2.3509886e-038
5.0009694 266.83847 -11.698249 2.3509886e-038
9.6077232 265.39212 -11.634841 2.3509886e-038
14.13323 263.37329 -11.546334 3.5733111e-043
18.575108 261.16959 -11.449723 3.5733111e-043
22.999582 259.63815 -11.382586 3.5733111e-043
27.477549 259.11566 -11.359679 3.5733111e-043
32.094131 259.86307 -11.392447 3.5733111e-043
35.928856 261.9194 -11.482596 3.5733111e-043
-52.624027 280.21646 -17.177443 2.3509886e-038
-47.917553 276.46402 -16.947416 2.3509886e-038
-42.64069 273.57883 -16.770552 2.3509886e-038
-37.748314 272.7438 -16.719364 2.3509886e-038
-33.046051 273.23959 -16.749756 2.3509886e-038
-28.319023 273.66318 -16.775723 2.3509886e-038
-23.512711 273.33725 -16.755743 2.3509886e-038
-18.683632 272.51324 -16.705231 2.3509886e-038
-13.888359 271.78735 -16.660732 2.3509886e-038
-9.121727 271.15988 -16.622269 2.3509886e-038
-4.3691664 270.04785 -16.5541 2.3509886e-038
0.34433889 268.77756 -16.476231 2.3509886e-038
5.0181274 267.754 -16.413486 2.3509886e-038
9.6547823 266.69205 -16.348389 2.3509886e-038
14.221966 265.02689 -16.246313 3.5733111e-043
18.701509 262.94681 -16.118803 3.5733111e-043
23.138294 261.20404 -16.011971 3.5733111e-043
27.638451 260.63297 -15.976962 3.5733111e-043
32.365368 262.05923 -16.064394 3.5733111e-043
34.835827 263.87564 -16.175739 3.5733111e-043
-51.421955 280.25653 -22.073299 2.3509886e-038
-48.092365 277.47263 -21.854034 2.3509886e-038
-42.746216 274.25586 -21.600681 2.3509886e-038
-37.816242 273.23459 -21.520243 2.3509886e-038
-33.097019 273.66098 -21.553825 2.3509886e-038
-28.351433 273.97635 -21.578667 2.3509886e-038
-23.534767 273.59366 -21.548525 2.3509886e-038
-18.700605 272.76083 -21.482929 2.3509886e-038
-13.892104 271.86063 -21.412027 2.3509886e-038
-9.120266 271.11646 -21.353418 2.3509886e-038
-4.3718162 270.21164 -21.282152 2.3509886e-038
0.34505528 269.33673 -21.213243 2.3509886e-038
5.0336647 268.58301 -21.153879 2.3509886e-038
9.6967955 267.85254 -21.096348 2.3509886e-038
14.302998 266.53693 -20.992727 2.3509886e-038
18.813637 264.52335 -20.834137 3.5733111e-043
23.267988 262.66812 -20.688017 3.5733111e-043
27.814201 262.29031 -20.658262 3.5733111e-043
32.72113 264.93985 -20.86694 3.5733111e-043
34.430424 266.81598 -21.014708 3.5733111e-043
-50.453915 279.62961 -26.906357 2.3509886e-038
-48.151489 277.81372 -26.731628 2.3509886e-038
-42.846737 274.90079 -26.451342 2.3509886e-038
-37.92234 274.00119 -26.364779 2.3509886e-038
-33.159515 274.17776 -26.381771 2.3509886e-038
-28.38706 274.32062 -26.395519 2.3509886e-038
-23.58469 274.17401 -26.381409 2.3509886e-038
-18.763979 273.68518 -26.334375 2.3509886e-038
-13.938117 272.76108 -26.245457 2.3509886e-038
-9.1403522 271.71356 -26.144661 2.3509886e-038
-4.3824487 270.8688 -26.063379 2.3509886e-038
0.34633729 270.33743 -26.012249 2.3509886e-038
5.0535388 269.64343 -25.945469 2.3509886e-038
9.7356596 268.92609 -25.876448 2.3509886e-038
14.362404 267.64395 -25.753078 2.3509886e-038
18.91074 265.88864 -25.584179 2.3509886e-038
23.41715 264.35199 -25.436321 3.5733111e-043
28.011219 264.14819 -25.416714 3.5733111e-043
32.994919 267.15665 -25.70619 2.3509886e-038
34.039356 268.47507 -25.833048 2.3509886e-038
-50.197166 278.99704 -31.716898 2.3509886e-038
-48.080643 277.40497 -31.535908 2.3509886e-038
-42.844463 274.88623 -31.249573 2.3509886e-038
-37.962708 274.29285 -31.182117 2.3509886e-038
-33.208294 274.58109 -31.214884 2.3509886e-038
-28.453669 274.96429 -31.25845 2.3509886e-038
-23.673342 275.20459 -31.285767 2.3509886e-038
-18.868549 275.21039 -31.286423 2.3509886e-038
-14.032057 274.59943 -31.21697 2.3509886e-038
-9.1912155 273.22556 -31.060785 2.3509886e-038
-4.4011955 272.0275 -30.924587 2.3509886e-038
0.34786597 271.53067 -30.868105 2.3509886e-038
5.0757985 270.83115 -30.788584 2.3509886e-038
9.7768593 270.06415 -30.701389 2.3509886e-038
14.428157 268.86926 -30.565552 2.3509886e-038
19.015869 267.36679 -30.394753 2.3509886e-038
23.574091 266.12369 -30.253431 2.3509886e-038
28.207657 266.00064 -30.239443 2.3509886e-038
33.23531 269.10309 -30.592134 2.3509886e-038
33.755333 269.81799 -30.673409 2.3509886e-038
-51.515022 280.20181 -36.746304 2.3509886e-038
-48.118885 277.62561 -36.408455 2.3509886e-038
-42.860504 274.98914 -36.062698 2.3509886e-038
-37.949192 274.19519 -35.95858 2.3509886e-038
-33.217175 274.65448 -36.01881 2.3509886e-038
-28.512781 275.53555 -36.134357 2.3509886e-038
-23.756174 276.16754 -36.217239 2.3509886e-038
-18.958416 276.52118 -36.263615 2.3509886e-038
-14.118325 276.28766 -36.23299 2.3509886e-038
-9.2488775 274.9397 -36.056217 2.3509886e-038
-4.4253435 273.52002 -35.870037 2.3509886e-038
0.34949377 272.80124 -35.775776 2.3509886e-038
5.0960913 271.91391 -35.659409 2.3509886e-038
9.8207054 271.27527 -35.575657 2.3509886e-038
14.511774 270.42746 -35.464474 2.3509886e-038
19.131578 268.99368 -35.276443 2.3509886e-038
23.707769 267.63275 -35.097969 2.3509886e-038
28.387691 267.69836 -35.106575 2.3509886e-038
33.606777 272.11084 -35.685234 2.3509886e-038
33.93222 272.64719 -35.755569 2.3509886e-038
-100.18369 264.75604 -39.343445 2.3509528e-038
-96.657936 264.53549 -39.310673 2.3509528e-038
-95.200676 264.8006 -39.350067 2.3509528e-038
-54.808571 282.89423 -42.03883 2.3509886e-038
-53.812424 282.06042 -41.914921 2.3509886e-038
-48.220524 278.21201 -41.343037 2.3509886e-038
-42.970573 275.69531 -40.969051 2.3509886e-038
-37.998615 274.55231 -40.799198 2.3509886e-038
-33.224216 274.71274 -40.82304 2.3509886e-038
-28.537724 275.77658 -40.981129 2.3509886e-038
-23.820547 276.91586 -41.150429 2.3509886e-038
-19.028452 277.54269 -41.243572 2.3509886e-038
-14.18122 277.51849 -41.239975 2.3509886e-038
-9.3097 276.74774 -41.125443 2.3509886e-038
-4.4585958 275.57526 -40.951206 2.3509886e-038
0.35170355 274.52612 -40.795303 2.3509886e-038
5.1226835 273.33279 -40.617977 2.3509886e-038
9.8706684 272.6554 -40.517311 2.3509886e-038
14.586146 271.81339 -40.392185 2.3509886e-038
19.212837 270.13617 -40.142944 2.3509886e-038
23.780502 268.4538 -39.892941 2.3509886e-038
28.533817 269.07635 -39.985455 2.3509886e-038
34.067726 275.84311 -40.991013 2.3509886e-038
34.786766 277.21326 -41.194618 2.3509886e-038
-110.00662 268.57614 -44.600578 2.3509528e-038
-106.41674 265.83701 -44.14571 2.3509528e-038
-100.87592 263.48828 -43.755676 2.3509528e-038
-96.34819 263.68777 -43.788799 2.3509528e-038
-92.313797 265.3252 -44.060715 2.3509528e-038
-88.414291 267.54379 -44.429142 2.3509528e-038
-84.293404 269.30267 -44.721226 2.3509886e-038
-79.903442 270.35895 -44.896637 2.3509886e-038
-78.852379 270.59451 -44.935757 2.3509886e-038
-60.165447 283.16043 -47.022488 2.3509886e-038
-58.871487 282.70468 -46.946808 2.3509886e-038
-53.490204 280.37149 -46.559349 2.3509886e-038
-48.211842 278.16196 -46.192425 2.3509886e-038
-43.102951 276.54462 -45.923851 2.3509886e-038
-38.139496 275.57022 -45.762035 2.3509886e-038
-33.303829 275.371 -45.728954 2.3509886e-038
-28.579277 276.17816 -45.862991 2.3509886e-038
-23.877211 277.57458 -46.094891 2.3509886e-038
-19.090778 278.45178 -46.240559 2.3509886e-038
-14.239491 278.65881 -46.274937 2.3509886e-038
-9.3757076 278.70993 -46.283424 2.3509886e-038
-4.4988556 278.06366 -46.176105 2.3509886e-038
0.35451069 276.71729 -45.952522 2.3509886e-038
5.1592445 275.2836 -45.714443 2.3509886e-038
9.9276543 274.22952 -45.539398 2.3509886e-038
14.639369 272.80521 -45.302872 2.3509886e-038
19.254309 270.7193 -44.956474 2.3509886e-038
23.812292 268.81268 -44.639858 2.3509886e-038
28.583927 269.54889 -44.762115 2.3509886e-038
34.149876 276.50824 -45.917809 2.3509886e-038
35.53886 279.04688 -46.339378 2.3509886e-038
-109.68423 267.57712 -49.106686 2.3509528e-038
-106.15298 265.1781 -48.666412 2.3509528e-038
-100.74232 263.13934 -48.292248 2.3509528e-038
-96.185471 263.24243 -48.311169 2.3509528e-038
-92.030777 264.51175 -48.544117 2.3509528e-038
-87.98452 266.24332 -48.8619 2.3509528e-038
-83.80928 267.75598 -49.139515 2.3509528e-038
-79.515381 269.04593 -49.376247 2.3509886e-038
-75.281471 270.7135 -49.682289 2.3509886e-038
-71.053741 272.6283 -50.033699 2.3509886e-038
-66.802284 274.72049 -50.417664 2.3509886e-038
-62.57341 277.23642 -50.879398 2.3509886e-038
-57.957024 278.31335 -51.077042 2.3509886e-038
-53.061497 278.12439 -51.042358 2.3509886e-038
-48.123173 277.65036 -50.955364 2.3509886e-038
-43.209763 277.22995 -50.878204 2.3509886e-038
-38.305069 276.76654 -50.793159 2.3509886e-038
-33.437218 276.47391 -50.739456 2.3509886e-038
-28.643356 276.79739 -50.79882 2.3509886e-038
-23.902382 277.86722 -50.995163 2.3509886e-038
-19.121468 278.89941 -51.184589 2.3509886e-038
-14.284374 279.53714 -51.301632 2.3509886e-038
-9.4248734 280.17148 -51.418049 2.3509886e-038
-4.5302019 280.0011 -51.38678 2.3509886e-038
0.35706824 278.71359 -51.15049 2.3509886e-038
5.1961937 277.25513 -50.882828 2.3509886e-038
9.9851675 275.81821 -50.619118 2.3509886e-038
14.698662 273.91013 -50.268944 2.3509886e-038
19.316818 271.59818 -49.84465 2.3509886e-038
23.887548 269.66223 -49.489353 2.3509886e-038
28.676624 270.42303 -49.628975 2.3509886e-038
34.252293 277.33752 -50.897949 2.3509886e-038
35.972359 280.42191 -51.464008 2.3509886e-038
-105.04589 267.04993 -53.672726 2.3509528e-038
-101.7095 265.66562 -53.394501 2.3509528e-038
-96.773224 264.85101 -53.230774 2.3509528e-038
-92.35331 265.43872 -53.3489 2.3509528e-038
-88.006989 266.31128 -53.524265 2.3509528e-038
-83.565048 266.97571 -53.657803 2.3509528e-038
-79.227287 268.07114 -53.877972 2.3509528e-038
-75.083115 270.00021 -54.265686 2.3509528e-038
-70.85952 271.88306 -54.644108 2.3509886e-038
-66.465561 273.33575 -54.936073 2.3509886e-038
-62.002731 274.70798 -55.211868 2.3509886e-038
-57.391556 275.59796 -55.390739 2.3509886e-038
-52.683777 276.14456 -55.500595 2.3509886e-038
-47.942379 276.60724 -55.59359 2.3509886e-038
-43.157246 276.89297 -55.65102 2.3509886e-038
-38.304546 276.76273 -55.62484 2.3509886e-038
-33.44503 276.53848 -55.579769 2.3509886e-038
-28.619829 276.57001 -55.586105 2.3509886e-038
-23.857935 277.35052 -55.742977 2.3509886e-038
-19.110117 278.73383 -56.020996 2.3509886e-038
-14.31022 280.04291 -56.284103 2.3509886e-038
-9.45858 281.17346 -56.511326 2.3509886e-038
-4.5552998 281.55231 -56.587467 2.3509886e-038
0.35947537 280.5925 -56.394562 2.3509886e-038
5.2290597 279.00876 -56.076252 2.3509886e-038
10.035888 277.21921 -55.716587 2.3509886e-038
14.765839 275.16199 -55.303116 2.3509886e-038
19.414146 272.96664 -54.861889 2.3509886e-038
24.024956 271.21341 -54.509518 2.3509886e-038
28.870146 272.24796 -54.717449 2.3509886e-038
34.575287 279.95276 -56.265984 2.3509886e-038
36.36953 283.39313 -56.957439 2.3509886e-038
-95.352562 269.86163 -58.949734 2.3509528e-038
-93.898331 269.87939 -58.953613 2.3509528e-038
-89.175316 269.84668 -58.946465 2.3509528e-038
-84.383934 269.59189 -58.890808 2.3509528e-038
-79.806969 270.03253 -58.987061 2.3509528e-038
-75.461136 271.35959 -59.276955 2.3509528e-038
-71.00148 272.42776 -59.510292 2.3509528e-038
-66.419632 273.14685 -59.667366 2.3509528e-038
-61.822258 273.90839 -59.833721 2.3509528e-038
-57.126019 274.32285 -59.924255 2.3509886e-038
-52.396523 274.63889 -59.993298 2.3509886e-038
-47.691044 275.15717 -60.10651 2.3509886e-038
-42.964539 275.65662 -60.215611 2.3509886e-038
-38.160419 275.72141 -60.229763 2.3509886e-038
-33.341911 275.68588 -60.222004 2.3509886e-038
-28.543762 275.83496 -60.25457 2.3509886e-038
-23.806753 276.75552 -60.455662 2.3509886e-038
-19.100891 278.59927 -60.858418 2.3509886e-038
-14.334516 280.51837 -61.277637 2.3509886e-038
-9.4890327 282.0787 -61.618484 2.3509886e-038
-4.5769663 282.89148 -61.796028 2.3509886e-038
0.36157 282.22748 -61.650986 2.3509886e-038
5.2567654 280.48706 -61.270794 2.3509886e-038
10.082487 278.50644 -60.838139 2.3509886e-038
14.839706 276.53848 -60.408253 2.3509886e-038
19.534409 274.65756 -59.997372 2.3509886e-038
24.203154 273.22504 -59.684448 2.3509886e-038
29.127974 274.67929 -60.002125 2.3509886e-038
35.009209 283.46619 -61.92157 2.3509886e-038
36.977894 287.61105 -62.826992 2.3509886e-038
-82.691719 277.66061 -65.50145 2.3509528e-038
-82.033745 277.56699 -65.47937 2.3509528e-038
-77.0411 277.04117 -65.355324 2.3509528e-038
-71.933884 276.00534 -65.110962 2.3509528e-038
-66.849266 274.9137 -64.853439 2.3509528e-038
-61.902805 274.26526 -64.70047 2.3509528e-038
-57.023666 273.83133 -64.598106 2.3509528e-038
-52.191624 273.56491 -64.535255 2.3509886e-038
-47.447472 273.75186 -64.579353 2.3509886e-038
-42.752823 274.29825 -64.708252 2.3509886e-038
-38.006401 274.60855 -64.781456 2.3509886e-038
-33.24453 274.88068 -64.84565 2.3509886e-038
-28.491573 275.3306 -64.95179 2.3509886e-038
-23.785301 276.50613 -65.229103 2.3509886e-038
-19.105186 278.6619 -65.737656 2.3509886e-038
-14.357356 280.96536 -66.281059 2.3509886e-038
-9.5148993 282.84766 -66.725098 2.3509886e-038
-4.5935946 283.91922 -66.977882 2.3509886e-038
0.36312014 283.43747 -66.864235 2.3509886e-038
5.2813325 281.79788 -66.477455 2.3509886e-038
10.136394 279.99548 -66.052254 2.3509886e-038
14.928924 278.20108 -65.628944 2.3509886e-038
19.667927 276.53485 -65.235878 2.3509886e-038
24.416693 275.63565 -65.023758 2.3509886e-038
29.470505 277.90939 -65.560143 2.3509886e-038
35.595249 288.21127 -67.99041 2.3509886e-038
38.611423 295.24017 -69.648552 2.3509886e-038
-73.352509 283.71405 -71.883232 2.3509528e-038
-68.192856 280.43912 -71.053474 2.3509528e-038
-62.547855 277.1232 -70.213341 2.3509528e-038
-57.193855 274.64862 -69.586365 2.3509528e-038
-52.148701 273.33994 -69.254791 2.3509886e-038
-47.33284 273.09045 -69.191582 2.3509886e-038
-42.630516 273.51355 -69.298782 2.3509886e-038
-37.89727 273.82004 -69.376434 2.3509886e-038
-33.163391 274.20981 -69.475182 2.3509886e-038
-28.451555 274.94388 -69.661179 2.3509886e-038
-23.772167 276.35345 -70.018311 2.3509886e-038
-19.103588 278.63861 -70.59729 2.3509886e-038
-14.365168 281.11823 -71.22554 2.3509886e-038
-9.5289354 283.26489 -71.769432 2.3509886e-038
-4.6074157 284.7735 -72.151657 2.3509886e-038
0.36478519 284.73715 -72.142441 2.3509886e-038
5.3123856 283.4548 -71.817551 2.3509886e-038
10.206067 281.92004 -71.428696 2.3509886e-038
15.036489 280.20554 -70.994293 2.3509886e-038
19.817245 278.63431 -70.596207 2.3509886e-038
24.673235 278.53171 -70.570198 2.3509886e-038
29.955368 282.48169 -71.570992 2.3509886e-038
36.429153 294.96332 -74.733406 2.3509886e-038
42.440308 309.2916 -78.363686 2.3509886e-038
-65.851585 286.50073 -77.591705 2.3509528e-038
-64.295609 284.86676 -77.149185 2.3509528e-038
-58.058418 278.80029 -75.506226 2.3509528e-038
-52.543533 275.40945 -74.587906 2.3509886e-038
-47.500931 274.06027 -74.222511 2.3509886e-038
-42.692024 273.90817 -74.18132 2.3509886e-038
-37.899464 273.83591 -74.161743 2.3509886e-038
-33.143803 274.04782 -74.219139 2.3509886e-038
-28.455477 274.98181 -74.472084 2.3509886e-038
-23.788115 276.53885 -74.893776 2.3509886e-038
-19.1078 278.70001 -75.479073 2.3509886e-038
-14.366515 281.14459 -76.141129 2.3509886e-038
-9.5378847 283.53094 -76.787415 2.3509886e-038
-4.6219053 285.66907 -77.366463 2.3509886e-038
0.36682877 286.33228 -77.546082 2.3509886e-038
5.3491645 285.41724 -77.298271 2.3509886e-038
10.283835 284.06824 -76.932922 2.3509886e-038
15.161897 282.54254 -76.519722 2.3509886e-038
20.00532 281.27863 -76.177437 2.3509886e-038
24.978561 281.97849 -76.366966 2.3509886e-038
30.505966 287.67389 -77.909424 2.3509886e-038
37.186543 301.09586 -81.544434 2.3509886e-038
44.629227 316.59918 -85.743134 2.3509886e-038
48.111488 322.73856 -87.40583 2.3509886e-038
-57.589588 285.11447 -82.194489 2.3509886e-038
-53.735832 281.65897 -81.198318 2.3509886e-038
-48.168228 277.91028 -80.11763 2.3509886e-038
-43.051006 276.2114 -79.627853 2.3509886e-038
-38.123955 275.45792 -79.410645 2.3509886e-038
-33.296429 275.30981 -79.367943 2.3509886e-038
-28.579988 276.185 -79.620255 2.3509886e-038
-23.889362 277.71585 -80.061577 2.3509886e-038
-19.168922 279.59155 -80.602318 2.3509886e-038
-14.400746 281.81448 -81.243156 2.3509886e-038
-9.5641775 284.31253 -81.963303 2.3509886e-038
-4.6418228 286.90012 -82.709267 2.3509886e-038
0.36914366 288.13919 -83.066475 2.3509886e-038
5.3888755 287.5361 -82.892616 2.3509886e-038
10.372446 286.5159 -82.598503 2.3509886e-038
15.318426 285.45947 -82.293953 2.3509886e-038
20.255781 284.8002 -82.103889 2.3509886e-038
25.347618 286.14471 -82.491493 2.3509886e-038
31.01655 292.48874 -84.320396 2.3509886e-038
37.59285 304.38568 -87.750114 2.3509886e-038
44.679897 316.95868 -91.374725 2.3509886e-038
51.794533 326.93436 -94.25058 2.3509886e-038
53.618313 329.11435 -94.879036 2.3509886e-038
-48.854828 284.37259 -86.945869 2.3509886e-038
-43.795387 280.98727 -85.910812 2.3509886e-038
-38.678341 279.46353 -85.444931 2.3509886e-038
-33.686234 278.53287 -85.160393 2.3509886e-038
-28.856798 278.86002 -85.260414 2.3509886e-038
-24.120922 280.40775 -85.733627 2.3509886e-038
-19.344826 282.15723 -86.268524 2.3509886e-038
-14.515721 284.06448 -86.851654 2.3509886e-038
-9.6378908 286.50378 -87.597466 2.3509886e-038
-4.6807284 289.30475 -88.453857 2.3509886e-038
0.37295124 291.11124 -89.00618 2.3509886e-038
5.4573603 291.19028 -89.030342 2.3509886e-038
10.525373 290.7402 -88.892738 2.3509886e-038
15.561868 289.996 -88.665199 2.3509886e-038
20.60811 289.754 -88.591209 2.3509886e-038
25.831831 291.6109 -89.158951 2.3509886e-038
31.540066 297.42554 -90.93676 2.3509886e-038
37.87022 306.6315 -93.751442 2.3509886e-038
44.597904 316.37701 -96.731094 2.3509886e-038
51.46236 324.83762 -99.317902 2.3509886e-038
57.719707 330.82123 -101.14736 2.3509886e-038
-37.636799 285.86627 -92.393898 2.3509886e-038
-34.345013 283.97995 -91.784233 2.3509886e-038
-29.310791 283.24716 -91.547394 2.3509886e-038
-24.530912 285.17392 -92.170128 2.3509886e-038
-19.690245 287.19537 -92.823479 2.3509886e-038
-14.770561 289.05154 -93.423393 2.3509886e-038
-9.7970057 291.23376 -94.128716 2.3509886e-038
-4.7542248 293.84741 -94.973457 2.3509886e-038
0.37960538 296.30521 -95.76783 2.3509886e-038
5.5810947 297.79242 -96.248512 2.3509886e-038
10.791492 298.09113 -96.345055 2.3509886e-038
15.949707 297.22342 -96.064606 2.3509886e-038
21.117617 296.91776 -95.96582 2.3509886e-038
26.456831 298.66641 -96.530998 2.3509886e-038
32.094261 302.65167 -97.819054 2.3509886e-038
38.111748 308.58713 -99.737434 2.3509886e-038
44.509026 315.74652 -102.0514 2.3509886e-038
51.186195 323.09445 -104.4263 2.3509886e-038
57.913822 329.27051 -106.42245 2.3509886e-038
59.692299 330.58044 -106.84582 2.3509886e-038
-17.177481 297.18185 -101.24009 2.3509886e-038
-15.215617 297.76105 -101.43741 2.3509886e-038
-10.040519 298.47266 -101.67982 2.3509886e-038
-4.8555999 300.11313 -102.23869 2.3509886e-038
0.3892113 303.80319 -103.49577 2.3509886e-038
5.7543359 307.0361 -104.59711 2.3509886e-038
11.135925 307.60532 -104.79103 2.3509886e-038
16.429142 306.15768 -104.29787 2.3509886e-038
21.717897 305.35782 -104.02538 2.3509886e-038
27.098658 305.91187 -104.21413 2.3509886e-038
32.588276 307.31024 -104.69051 2.3509886e-038
38.344891 310.47488 -105.76859 2.3509886e-038
44.465031 315.43439 -107.45814 2.3509886e-038
50.889324 321.22055 -109.42929 2.3509886e-038
57.463326 326.7092 -111.2991 2.3509886e-038
59.147556 327.94568 -111.72032 2.3509886e-038
4.0093336 317.98303 -113.87849 2.3509886e-038
5.9713292 318.61432 -114.10458 2.3509886e-038
11.504432 317.78452 -113.8074 2.3509886e-038
16.899002 314.91357 -112.77924 2.3509886e-038
22.243109 312.74237 -112.00168 2.3509886e-038
27.627443 311.88126 -111.69328 2.3509886e-038
33.068203 311.836 -111.67708 2.3509886e-038
38.711464 313.44296 -112.25258 2.3509886e-038
44.628151 316.59155 -113.38017 2.3509886e-038
50.753075 320.36053 -114.72995 2.3509886e-038
56.299938 323.81754 -115.96799 2.3509886e-038
15.372947 324.73044 -121.96484 2.3509886e-038
17.332836 322.99808 -121.31419 2.3509886e-038
22.721766 319.47241 -119.98998 2.3509886e-038
28.135626 317.61801 -119.2935 2.3509886e-038
33.589447 316.7514 -118.968 2.3509886e-038
39.178852 317.22739 -119.14679 2.3509886e-038
44.949867 318.87381 -119.76516 2.3509886e-038
50.847073 320.95386 -120.54639 2.3509886e-038
51.213058 321.10172 -120.60194 2.3509886e-038
29.613688 322.34058 -126.69544 2.3509886e-038
34.027714 320.88428 -126.12304 2.3509886e-038
39.585186 320.51743 -125.97886 2.3509886e-038
40.332607 320.58389 -126.00498 2.3509886e-038
-107.03397 267.37891 -41.593647 2.3509528e-038
-106.80853 266.81577 -52.260044 2.3509528e-038
-101.46758 265.03369 -39.562618 2.3509528e-038
-102.27106 267.13245 -55.223808 2.3509528e-038
-96.66465 264.55386 -39.219597 2.3509528e-038
-97.945984 268.06064 -57.394382 2.3509528e-038
-92.519012 265.91501 -39.912178 2.3509528e-038
-94.169617 270.65912 -59.623863 2.3509528e-038
-88.659416 268.28555 -41.288776 2.3509528e-038
-90.166809 272.84695 -61.614037 2.3509528e-038
-84.496758 269.95236 -42.927837 2.3509886e-038
-86.121201 275.14215 -63.584679 2.3509528e-038
-79.945267 270.50049 -44.551762 2.3509886e-038
-82.196434 278.11749 -65.824059 2.3509528e-038
-75.464622 271.37213 -46.198154 2.3509886e-038
-78.221138 281.28461 -68.49366 2.3509528e-038
-69.096649 265.11905 56.901028 2.3418409e-038
-70.708267 271.30273 35.013393 2.3418409e-038
-71.249481 273.37936 -47.795807 2.3509886e-038
-73.870903 283.43756 -71.481857 2.3509528e-038
-63.919201 262.86395 53.867695 2.3418409e-038
-65.882607 270.93835 22.174128 2.3418409e-038
-67.121239 276.03214 -48.746979 2.3509886e-038
-69.431717 285.53387 -74.931587 2.3509528e-038
-59.569901 263.92914 47.599796 2.3418409e-038
-61.878792 274.15887 10.214583 2.3418409e-038
-63.273602 280.33868 -48.504757 2.3509886e-038
-64.680275 286.57104 -78.367134 2.3509528e-038
-55.344181 265.76633 39.108974 2.3418409e-038
-57.327347 275.28961 -0.99713147 2.3418409e-038
-59.070545 283.66058 -46.264702 2.3509886e-038
-59.406548 285.27408 -81.143143 2.3509528e-038
-51.068256 267.67673 31.041878 2.3418409e-038
-53.336205 279.5643 -14.182674 2.3509886e-038
-53.841 282.21021 -40.811405 2.3509886e-038
-54.461689 285.46356 -84.218979 2.3509886e-038
-46.866905 270.40222 21.50577 2.3418409e-038
-49.311234 284.50494 -86.754456 2.3509886e-038
-42.680885 273.8367 10.556096 2.3418409e-038
-44.29538 284.19516 -89.151871 2.3509886e-038
-38.261543 276.45203 4.4282489 2.3509886e-038
-39.544189 285.71957 -91.698143 2.3509886e-038
-31.764217 262.64078 74.949661 2.3418052e-038
-33.140537 274.02081 36.079762 2.3418052e-038
-33.582241 277.673 3.0284777 2.3509886e-038
-34.514851 285.38428 -93.164421 2.3509886e-038
-27.144346 262.31158 72.316681 2.3418052e-038
-29.628141 286.31393 -94.764503 2.3509886e-038
-22.874748 265.92087 64.110207 2.3418052e-038
-24.963642 290.20444 -97.221283 2.3509886e-038
-18.435705 268.89709 48.22591 2.3509886e-038
-20.190153 294.48688 -99.714272 2.3509886e-038
-13.94115 272.82043 26.099594 2.3509886e-038
-15.254401 298.52002 -102.07305 2.3509886e-038
-9.3540735 278.0668 14.780969 2.3509886e-038
-10.11292 300.62491 -103.78821 2.3509886e-038
-4.2342057 261.70627 36.71537 9.1476764e-041
-4.9150167 303.78555 -105.96772 2.3509886e-038
0.33018532 257.72983 65.955406 9.1476764e-041
0.39955848 311.87982 -110.30268 2.3509886e-038
4.8488717 258.72293 66.169174 9.1476764e-041
6.0107427 320.71732 -115.78393 2.3509886e-038
9.6323748 266.07309 3.9638305 2.3509886e-038
11.753037 324.6517 -120.09128 2.3509886e-038
14.326536 266.97556 -2.0643554 2.3509886e-038
17.404278 324.32938 -122.82618 2.3509886e-038
18.644375 262.14352 -1.4680158 3.5733111e-043
23.010359 323.53009 -125.05515 2.3509886e-038
22.783091 257.19421 1.8282056 3.5733111e-043
28.576763 322.59796 -126.54661 2.3509886e-038
26.897543 253.64613 6.6234608 3.5733111e-043
34.065083 321.23666 -126.83216 2.3509886e-038
31.165989 252.34801 12.365413 3.5733111e-043
39.595139 320.59799 -126.15884 2.3509886e-038
35.15992 249.42404 18.916813 3.5733111e-043
36.829136 261.26544 -9.0267706 3.5733111e-043
44.395054 314.93799 -81.737259 2.3509886e-038
45.1959 320.61917 -124.33691 2.3509886e-038
39.338951 248.31297 26.785845 3.5733111e-043
40.48814 255.5668 0.049552005 3.5733111e-043
51.913002 327.68213 -92.590843 2.3509886e-038
50.857304 321.01843 -120.87144 2.3509886e-038
43.560478 247.66422 33.387352 3.5733111e-043
44.367092 252.25026 9.3049555 3.5733111e-043
58.20998 330.95435 -102.02624 2.3509886e-038
57.115044 324.72906 -115.03735 2.3509886e-038
48.452415 250.59998 35.73299 3.5733111e-043
49.299019 254.97868 19.105486 3.5733111e-043
