# .PCD v0.7 - Point Cloud Data file format
VERSION 0.7
FIELDS x y z rgb
SIZE 4 4 4 4
TYPE F F F F
COUNT 1 1 1 1
WIDTH 829
HEIGHT 1
VIEWPOINT 0 0 0 1 0 0 0
POINTS 829
DATA ascii
-29.864969 264.21417 67.196182 2.3418052e-038
-2.443294 259.38864 58.639053 9.1476764e-041
43.945164 245.54593 27.754839 3.5733111e-043
-99.586929 267.65814 -46.641975 2.3509528e-038
-67.292801 264.59409 49.846523 2.3418409e-038
-35.843601 267.63788 70.584091 2.3418052e-038
-32.022594 264.44296 69.741486 2.3418052e-038
-27.268084 263.13617 69.396851 2.3418052e-038
-25.21022 263.64716 69.531616 2.3418052e-038
-36.920624 269.55307 66.380806 2.3418052e-038
-32.127251 265.30719 65.335205 2.3418052e-038
-27.365566 264.07687 65.032219 2.3418052e-038
-23.496487 265.1033 65.285004 2.3418052e-038
-4.6430998 259.6033 63.930557 9.1476764e-041
-4.2236037 259.26486 63.847206 9.1476764e-041
0.30287871 257.42587 63.394337 9.1476764e-041
2.1304359 257.54428 63.423492 9.1476764e-041
-36.874878 270.92932 61.98732 2.3418052e-038
-32.256027 266.37064 60.944317 2.3418052e-038
-27.449774 264.88947 60.605438 2.3418052e-038
-22.916637 265.97787 60.854462 2.3418052e-038
-22.34235 266.36441 60.94289 2.3418052e-038
-5.9914827 261.79614 59.897697 9.1476764e-041
-4.2347078 259.9465 59.474506 9.1476764e-041
0.3036274 258.06223 59.043392 9.1476764e-041
3.9375277 259.12991 59.287674 9.1476764e-041
-36.115292 270.53177 57.17091 2.3418052e-038
-32.310207 266.81805 56.386093 2.3418052e-038
-27.493505 265.31149 56.067715 2.3418052e-038
-22.931688 266.15256 56.245461 2.3418052e-038
-21.324518 267.14035 56.454212 2.3418052e-038
-6.2857018 262.13541 55.396526 9.1476764e-041
-4.2370911 260.0928 54.964863 9.1476764e-041
0.30427107 258.60925 54.651352 9.1476764e-041
4.8726368 261.35294 55.231167 9.1476764e-041
4.941124 261.42984 55.247417 9.1476764e-041
-72.842567 266.75845 51.71394 2.3418409e-038
-69.029251 264.64917 51.305042 2.3418409e-038
-64.224953 263.90305 51.160397 2.3418409e-038
-62.021145 264.42047 51.260704 2.3418409e-038
-35.19873 269.26978 52.200787 2.3418052e-038
-32.346851 267.12067 51.784161 2.3418052e-038
-27.552334 265.87918 51.543488 2.3418052e-038
-22.951044 266.3772 51.640034 2.3418052e-038
-20.208143 267.62625 51.882179 2.3418052e-038
-6.3486414 262.40723 50.870411 9.1476764e-041
-4.2446947 260.55954 50.512218 9.1476764e-041
0.30481717 259.07343 50.224121 9.1476764e-041
4.8826833 261.89175 50.770481 9.1476764e-041
5.6856132 262.89166 50.964321 9.1476764e-041
-72.867973 267.53342 47.191093 2.3418409e-038
-69.289787 265.64807 46.858532 2.3418409e-038
-64.429695 264.74435 46.699123 2.3418409e-038
-59.93364 265.31238 46.799316 2.3418409e-038
-59.377277 265.509 46.834003 2.3418409e-038
-34.514149 269.90698 47.609776 2.3418052e-038
-32.515411 268.5126 47.363819 2.3418052e-038
-27.65609 266.88043 47.075912 2.3418052e-038
-23.002352 266.97272 47.092194 2.3418052e-038
-18.904842 268.39642 47.343327 2.3418052e-038
-6.3809805 263.43164 46.467567 9.1476764e-041
-4.2600427 261.50168 46.127132 9.1476764e-041
0.30525494 259.44553 45.764442 9.1476764e-041
4.8803716 261.76776 46.174076 9.1476764e-041
6.061523 263.14197 46.416473 9.1476764e-041
-72.155212 269.01089 42.752823 2.3418409e-038
-69.88736 267.93909 42.582481 2.3418409e-038
-64.81852 266.34204 42.328671 2.3418409e-038
-60.023701 265.71103 42.228386 2.3418409e-038
-57.062977 266.35052 42.330021 2.3418409e-038
-33.984909 272.13931 43.250004 2.3418052e-038
-32.821838 271.04309 43.07579 2.3418052e-038
-27.790522 268.17767 42.620403 2.3418052e-038
-23.062119 267.66641 42.539146 2.3418052e-038
-18.458406 268.71021 42.705032 2.3418052e-038
-17.467508 269.06082 42.760757 2.3418052e-038
-6.4420996 264.33151 42.009144 9.1476764e-041
-4.2693295 262.07172 41.650005 9.1476764e-041
0.30517599 259.37842 41.22197 9.1476764e-041
4.8669944 261.05029 41.487671 9.1476764e-041
6.1634512 262.30499 41.68708 9.1476764e-041
-71.316399 271.46161 38.400589 2.3418409e-038
-70.695976 271.03918 38.340836 2.3418409e-038
-65.185066 267.84821 37.889442 2.3418409e-038
-60.120674 266.14035 37.64785 2.3418409e-038
-55.613281 266.81851 37.74379 2.3418409e-038
-54.875652 267.26981 37.807629 2.3418409e-038
-33.563122 274.71799 38.861233 2.3418052e-038
-33.214638 274.28683 38.800243 2.3418052e-038
-27.968796 269.89804 38.179409 2.3418052e-038
-23.125256 268.39917 37.967384 2.3418052e-038
-18.464964 268.80569 38.024887 2.3418052e-038
-16.089928 269.51505 38.125233 2.3418052e-038
-6.6319718 265.07663 37.497383 9.1476764e-041
-4.2724757 262.26489 37.099632 9.1476764e-041
0.30476502 259.02908 36.641903 9.1476764e-041
4.8421154 259.71585 36.739052 9.1476764e-041
6.1890702 260.56308 36.858902 9.1476764e-041
-70.007553 272.49634 33.787189 2.3509886e-038
-65.391884 268.69803 33.316231 2.3418409e-038
-60.129215 266.17813 33.003788 2.3418409e-038
-55.532692 266.43185 33.035248 2.3418409e-038
-52.691376 268.33722 33.271496 2.3418409e-038
-33.108162 276.27689 34.255943 2.3418052e-038
-28.162346 271.76578 33.696606 2.3418052e-038
-23.214458 269.43448 33.407547 2.3418052e-038
-18.493912 269.22708 33.381832 2.3418052e-038
-15.004828 270.19284 33.501575 2.3418052e-038
-7.2196326 266.12497 32.997196 9.1476764e-041
-4.2711267 262.18207 32.508308 9.1476764e-041
0.30439529 258.71484 32.078403 9.1476764e-041
4.8261375 258.85883 32.096256 9.1476764e-041
6.3075519 259.57159 32.184631 9.1476764e-041
39.655342 246.06201 30.509562 3.5733111e-043
43.148594 245.37207 30.424015 3.5733111e-043
46.986897 246.14722 30.520126 3.5733111e-043
-68.126862 271.38168 28.908678 2.3418409e-038
-65.493431 269.11533 28.667255 2.3418409e-038
-60.190216 266.44818 28.383139 2.3418409e-038
-55.571445 266.6178 28.401211 2.3418409e-038
-51.384998 269.08243 28.663754 2.3418409e-038
-50.509872 269.94382 28.75551 2.3418409e-038
-32.556023 277.09509 29.517292 2.3418052e-038
-28.331743 273.40045 29.123726 2.3418052e-038
-23.318224 270.63882 28.829544 2.3418052e-038
-18.55555 270.12442 28.774748 2.3418052e-038
-13.948996 271.25009 28.894661 2.3418052e-038
-8.5786829 268.49509 28.601187 2.3418052e-038
-4.2754979 262.45038 27.957277 9.1476764e-041
0.30478942 259.04987 27.595043 9.1476764e-041
4.8371506 259.44955 27.637617 9.1476764e-041
6.4936109 260.50494 27.750044 9.1476764e-041
37.022411 247.61583 26.377043 3.5733111e-043
39.041561 246.502 26.258392 3.5733111e-043
43.231728 245.84483 26.188389 3.5733111e-043
47.441444 247.16544 26.329067 3.5733111e-043
-66.205986 270.35571 24.076994 2.3418409e-038
-65.703911 269.98019 24.043552 2.3418409e-038
-60.444332 267.57309 23.829184 2.3418409e-038
-55.786995 267.65195 23.836206 2.3418409e-038
-51.415997 269.24475 23.978058 2.3418409e-038
-48.246212 271.30136 24.161213 2.3418409e-038
-31.956196 278.61929 24.812923 2.3418052e-038
-28.50638 275.08569 24.498232 2.3418052e-038
-23.408674 271.6886 24.1957 2.3418052e-038
-18.614571 270.98361 24.132915 2.3418052e-038
-13.956163 272.44638 24.263184 2.3418052e-038
-9.1457529 270.92087 24.127327 2.3418052e-038
-4.3017316 264.0607 23.516382 9.1476764e-041
0.30645901 260.46887 23.196505 9.1476764e-041
4.8605466 260.70444 23.217484 9.1476764e-041
6.5343184 261.66876 23.303366 9.1476764e-041
34.953606 249.43835 22.214165 3.5733111e-043
35.127491 249.28128 22.200176 3.5733111e-043
39.163803 247.2738 22.021397 3.5733111e-043
43.454422 247.11125 22.00692 3.5733111e-043
46.625389 248.14093 22.098619 3.5733111e-043
-64.557503 271.13321 19.410273 2.3418409e-038
-60.88298 269.51489 19.294418 2.3418409e-038
-56.053127 268.9288 19.25246 2.3418409e-038
-51.468761 269.52106 19.294859 2.3418409e-038
-47.11673 271.57166 19.441662 2.3418409e-038
-46.032261 272.41635 19.502131 2.3418409e-038
-31.213755 280.13638 20.054804 2.3509886e-038
-28.708263 277.03387 19.832697 2.3418052e-038
-23.490118 272.63388 19.517704 2.3418052e-038
-18.66177 271.67068 19.448751 2.3418052e-038
-14.035819 274.00143 19.615606 2.3418052e-038
-9.2409554 273.741 19.596964 2.3418052e-038
-4.3405681 266.44467 19.074625 9.1476764e-041
0.30855939 262.25406 18.77462 9.1476764e-041
4.8761244 261.53998 18.723497 9.1476764e-041
6.4219012 261.85501 18.746052 9.1476764e-041
32.686253 250.26453 17.916296 3.5733111e-043
35.048283 248.71921 17.805666 3.5733111e-043
39.228165 247.68019 17.731285 3.5733111e-043
43.661781 248.29042 17.774971 3.5733111e-043
45.16077 249.04982 17.829334 3.5733111e-043
-63.028397 273.16989 14.784541 2.3418409e-038
-61.501175 272.2515 14.734834 2.3418409e-038
-56.327194 270.24371 14.626168 2.3418409e-038
-51.573742 270.07083 14.616812 2.3418409e-038
-47.223286 272.18582 14.73128 2.3418409e-038
-44.32872 275.53366 14.912471 2.3418409e-038
-30.429506 280.74847 15.19471 2.3509886e-038
-28.879253 278.6839 15.08297 2.3418052e-038
-23.544884 273.2695 14.789931 2.3418052e-038
-18.683884 271.99265 14.720825 2.3418052e-038
-14.094809 275.15298 14.891869 2.3418052e-038
-9.318676 276.0433 14.940054 2.3418052e-038
-4.3738194 268.48581 14.531028 9.1476764e-041
0.31026989 263.70786 14.272433 9.1476764e-041
4.8910003 262.33786 14.198287 9.1476764e-041
6.3008394 262.37982 14.200558 9.1476764e-041
30.252806 251.45924 13.609512 3.5733111e-043
30.96509 250.83563 13.575762 3.5733111e-043
35.018089 248.50496 13.44962 3.5733111e-043
39.25061 247.82193 13.412654 3.5733111e-043
43.339619 248.9826 13.475472 3.5733111e-043
-61.294682 274.75305 10.071021 2.3418409e-038
-56.656963 271.82584 9.963726 2.3418409e-038
-51.755188 271.02097 9.9342232 2.3418409e-038
-47.313179 272.70398 9.9959135 2.3418409e-038
-43.211018 276.94186 10.151252 2.3418409e-038
-42.354805 278.43079 10.205828 2.3418409e-038
-30.250381 281.18332 10.306722 2.3509886e-038
-28.965034 279.51169 10.245448 2.3509886e-038
-23.562082 273.46912 10.023959 2.3418052e-038
-18.677015 271.89264 9.9661732 2.3418052e-038
-14.088175 275.0235 10.080935 2.3418052e-038
-9.3222427 276.14899 10.122189 2.3509886e-038
-4.3849082 269.1665 9.8662472 9.1476764e-041
0.31103185 264.35547 9.6899004 9.1476764e-041
4.898973 262.7655 9.6316195 9.1476764e-041
6.2998047 262.759 9.631381 9.1476764e-041
27.711107 252.98038 9.2729483 3.5733111e-043
30.946329 250.68367 9.1887627 3.5733111e-043
35.061039 248.80972 9.1200733 3.5733111e-043
39.287766 248.05649 9.0924644 3.5733111e-043
41.535839 248.65912 9.1145535 3.5733111e-043
-59.363998 275.24988 5.2813611 2.3418409e-038
-57.046173 273.69318 5.251492 2.3418409e-038
-51.981701 272.20715 5.2229786 2.3418409e-038
-47.345844 272.89224 5.236124 2.3418409e-038
-42.947025 275.24994 5.2813621 2.3418409e-038
-38.906361 280.78696 5.3876042 2.3509886e-038
-38.634102 281.17944 5.3951354 2.3509886e-038
-32.371208 283.22488 5.434382 2.3509886e-038
-29.009188 279.93777 5.3713102 2.3509886e-038
-23.598301 273.8895 5.2552586 2.3509886e-038
-18.666666 271.74197 5.2140536 2.3509886e-038
-14.00129 273.32736 5.244473 2.3509886e-038
-9.2361383 273.59833 5.2496719 2.3509886e-038
-4.3727655 268.42114 5.1503348 2.3509886e-038
0.3111127 264.42419 5.0736437 9.1476764e-041
4.9050894 263.09357 5.0481119 9.1476764e-041
6.6815748 263.2952 5.0519805 9.1476764e-041
25.197556 256.14496 4.9147859 3.5733111e-043
26.919535 254.00484 4.8737221 3.5733111e-043
31.026484 251.33296 4.8224554 3.5733111e-043
35.234867 250.0433 4.7977095 3.5733111e-043
39.525196 249.5556 4.788352 3.5733111e-043
40.029793 249.74873 4.792058 3.5733111e-043
-57.383579 275.34027 0.47364643 2.3418409e-038
-52.167309 273.17908 0.46992871 2.3418409e-038
-47.362324 272.98721 0.46959865 2.3418409e-038
-42.724533 273.82397 0.47103807 2.3418409e-038
-38.311829 276.49622 0.4756349 2.3509886e-038
-33.755608 278.75418 0.4795191 2.3509886e-038
-28.736574 277.30707 0.47702977 2.3509886e-038
-23.604153 273.9574 0.47126758 2.3509886e-038
-18.682199 271.96811 0.46784556 2.3509886e-038
-13.898885 271.32825 0.46674484 2.3509886e-038
-9.1241083 270.27969 0.46494114 2.3509886e-038
-4.3589745 267.57455 0.46028766 2.3509886e-038
0.31199351 265.17282 0.45615616 2.3509886e-038
4.9282823 264.33755 0.45471936 2.3509886e-038
7.892426 265.29044 0.45635852 2.3509886e-038
22.286963 259.27216 0.44600573 3.5733111e-043
22.881382 258.5083 0.44469172 3.5733111e-043
27.001631 254.77946 0.43827727 3.5733111e-043
31.236322 253.03278 0.43527257 3.5733111e-043
35.565563 252.39006 0.434167 3.5733111e-043
38.54092 252.31012 0.43402946 3.5733111e-043
-55.429653 275.8313 -4.3435454 2.3418409e-038
-52.433235 274.57162 -4.323709 2.3418409e-038
-47.443874 273.45724 -4.3061609 2.3418409e-038
-42.596413 273.00284 -4.299005 2.3509886e-038
-37.917171 273.64795 -4.309164 2.3509886e-038
-33.240528 274.50064 -4.3225913 2.3509886e-038
-28.441755 274.46207 -4.3219838 2.3509886e-038
-23.57972 273.67383 -4.3095713 2.3509886e-038
-18.717505 272.48206 -4.2908044 2.3509886e-038
-13.882579 271.00992 -4.2676225 2.3509886e-038
-9.1014423 269.60828 -4.2455506 2.3509886e-038
-4.3694801 268.21945 -4.2236805 2.3509886e-038
0.31369379 266.61795 -4.1984615 2.3509886e-038
4.9475451 265.37076 -4.178822 2.3509886e-038
9.5895844 265.55688 -4.1817527 3.5733111e-043
11.467977 265.80234 -4.1856179 3.5733111e-043
17.292282 263.17029 -4.1441712 3.5733111e-043
18.591665 261.68558 -4.120791 3.5733111e-043
22.829021 257.91675 -4.0614429 3.5733111e-043
27.141512 256.09933 -4.0328236 3.5733111e-043
31.530876 255.41884 -4.0221081 3.5733111e-043
36.007107 255.52347 -4.0237556 3.5733111e-043
36.953247 255.81384 -4.0283284 3.5733111e-043
-54.07267 278.30255 -9.2436523 2.3509886e-038
-53.013432 277.60989 -9.2206459 2.3509886e-038
-47.711369 274.99905 -9.1339293 2.3509886e-038
-42.678272 273.52747 -9.0850515 2.3509886e-038
-37.865955 273.27835 -9.0767765 2.3509886e-038
-33.125687 273.55231 -9.0858755 2.3509886e-038
-28.386002 273.92404 -9.0982237 2.3509886e-038
-23.600836 273.91888 -9.098052 2.3509886e-038
-18.758625 273.08069 -9.0702114 2.3509886e-038
-13.923244 271.80377 -9.0277996 2.3509886e-038
-9.1369705 270.66071 -8.9898329 2.3509886e-038
-4.3904557 269.50705 -8.9515152 2.3509886e-038
0.31523153 267.9249 -8.8989649 2.3509886e-038
4.9618893 266.14014 -8.8396854 2.3509886e-038
9.557744 264.67511 -8.7910261 3.5733111e-043
14.089311 262.96582 -8.734252 3.5733111e-043
18.500128 260.39713 -8.6489344 3.5733111e-043
22.873266 258.4166 -8.5831528 3.5733111e-043
27.308971 257.67944 -8.5586681 3.5733111e-043
31.818108 257.74557 -8.5608644 3.5733111e-043
35.328445 258.49103 -8.5856256 3.5733111e-043
-53.167324 280.77313 -14.230059 2.3509886e-038
-48.056343 276.9874 -14.038191 2.3509886e-038
-42.839539 274.56104 -13.915219 2.3509886e-038
-37.929974 273.74039 -13.873627 2.3509886e-038
-33.171902 273.93396 -13.883437 2.3509886e-038
-28.436497 274.41132 -13.907631 2.3509886e-038
-23.628736 274.24274 -13.899086 2.3509886e-038
-18.773596 273.29865 -13.851239 2.3509886e-038
-13.950673 272.33923 -13.802614 2.3509886e-038
-9.1639395 271.45959 -13.758034 2.3509886e-038
-4.4031219 270.28455 -13.698479 2.3509886e-038
0.31624427 268.78568 -13.622514 2.3509886e-038
4.981163 267.17392 -13.540827 2.3509886e-038
9.585289 265.43793 -13.452845 3.5733111e-043
14.121284 263.56259 -13.357799 3.5733111e-043
18.580122 261.5231 -13.254434 3.5733111e-043
23.015545 260.02405 -13.178459 3.5733111e-043
27.495626 259.44067 -13.148892 3.5733111e-043
32.055412 259.66788 -13.160408 3.5733111e-043
33.878124 260.18115 -13.186422 3.5733111e-043
-52.357674 281.75253 -19.20116 2.3509886e-038
-48.295712 278.36707 -18.970448 2.3509886e-038
-42.941238 275.21286 -18.755489 2.3509886e-038
-37.974693 274.06311 -18.677135 2.3509886e-038
-33.221668 274.34491 -18.696341 2.3509886e-038
-28.485083 274.88016 -18.732819 2.3509886e-038
-23.65723 274.57346 -18.711914 2.3509886e-038
-18.786102 273.48068 -18.637444 2.3509886e-038
-13.957463 272.47177 -18.568687 2.3509886e-038
-9.1689758 271.6088 -18.509876 2.3509886e-038
-4.406671 270.50241 -18.434479 2.3509886e-038
0.31691033 269.35178 -18.356062 2.3509886e-038
5.0020928 268.29654 -18.284149 2.3509886e-038
9.6425648 267.02402 -18.197426 2.3509886e-038
14.223191 265.4646 -18.091156 3.5733111e-043
18.725338 263.56705 -17.96184 3.5733111e-043
23.176525 261.84274 -17.84433 3.5733111e-043
27.663036 261.02029 -17.78828 3.5733111e-043
32.270195 261.40778 -17.814684 3.5733111e-043
32.79966 261.63376 -17.830088 3.5733111e-043
-51.695473 282.50784 -24.187292 2.3509886e-038
-48.50626 279.58066 -23.936678 2.3509886e-038
-43.062183 275.98798 -23.629086 2.3509886e-038
-38.076504 274.79788 -23.527193 2.3509886e-038
-33.308018 275.05798 -23.549461 2.3509886e-038
-28.541574 275.42532 -23.580912 2.3509886e-038
-23.703424 275.10959 -23.553883 2.3509886e-038
-18.829573 274.11349 -23.468601 2.3509886e-038
-13.981319 272.93747 -23.367914 2.3509886e-038
-9.1752501 271.79468 -23.270071 2.3509886e-038
-4.4100814 270.71176 -23.177353 2.3509886e-038
0.3176434 269.97482 -23.114262 2.3509886e-038
5.0217052 269.34848 -23.060635 2.3509886e-038
9.6932344 268.42715 -22.981756 2.3509886e-038
14.307103 267.03073 -22.8622 2.3509886e-038
18.836094 265.12601 -22.699123 2.3509886e-038
23.307571 263.32327 -22.544781 3.5733111e-043
27.825857 262.55661 -22.479141 3.5733111e-043
32.118187 263.13821 -22.528934 2.3509886e-038
-51.073009 282.99396 -29.172043 2.3509886e-038
-48.686752 280.621 -28.927427 2.3509886e-038
-43.20792 276.92203 -28.546124 2.3509886e-038
-38.227528 275.88782 -28.439514 2.3509886e-038
-33.426788 276.03879 -28.455078 2.3509886e-038
-28.619431 276.17664 -28.469286 2.3509886e-038
-23.775459 275.94568 -28.445477 2.3509886e-038
-18.913467 275.33481 -28.382507 2.3509886e-038
-14.048033 274.23984 -28.269636 2.3509886e-038
-9.2050896 272.67859 -28.108696 2.3509886e-038
-4.4216409 271.42133 -27.979092 2.3509886e-038
0.3188239 270.97818 -27.933411 2.3509886e-038
5.0436254 270.5242 -27.886614 2.3509886e-038
9.7360125 269.61179 -27.792559 2.3509886e-038
14.3685 268.17667 -27.644621 2.3509886e-038
18.91959 266.30127 -27.4513 2.3509886e-038
23.434626 264.7587 -27.292286 2.3509886e-038
28.013168 264.32404 -27.247478 2.3509886e-038
31.812273 264.883 -27.305096 2.3509886e-038
-50.989914 283.14575 -34.133492 2.3509886e-038
-48.744759 280.95532 -33.869431 2.3509886e-038
-43.275303 277.35388 -33.435272 2.3509886e-038
-38.293591 276.36456 -33.31601 2.3509886e-038
-33.48941 276.55594 -33.339081 2.3509886e-038
-28.694033 276.89655 -33.380138 2.3509886e-038
-23.865725 276.99329 -33.3918 2.3509886e-038
-19.014744 276.80914 -33.369606 2.3509886e-038
-14.138324 276.00247 -33.272358 2.3509886e-038
-9.2577782 274.23935 -33.059814 2.3509886e-038
-4.4440637 272.79773 -32.886024 2.3509886e-038
0.32051483 272.41537 -32.839931 2.3509886e-038
5.0674691 271.8031 -32.766121 2.3509886e-038
9.7779551 270.77325 -32.641972 2.3509886e-038
14.43674 269.45032 -32.482491 2.3509886e-038
19.023321 267.76132 -32.278881 2.3509886e-038
23.579021 266.39005 -32.113575 2.3509886e-038
28.197174 266.06027 -32.073814 2.3509886e-038
31.8533 266.6568 -32.145729 2.3509886e-038
-52.277515 284.15817 -39.219021 2.3509886e-038
-48.759899 281.04257 -38.789013 2.3509886e-038
-43.317112 277.62183 -38.316887 2.3509886e-038
-38.286449 276.31308 -38.136253 2.3509886e-038
-33.476303 276.44769 -38.154835 2.3509886e-038
-28.730762 277.25098 -38.265701 2.3509886e-038
-23.941477 277.8725 -38.351482 2.3509886e-038
-19.09758 278.01505 -38.371159 2.3509886e-038
-14.21921 277.58148 -38.311317 2.3509886e-038
-9.3220024 276.14185 -38.112621 2.3509886e-038
-4.4748211 274.68576 -37.911655 2.3509886e-038
0.3224262 274.03989 -37.822514 2.3509886e-038
5.0905247 273.03976 -37.684479 2.3509886e-038
9.8208303 271.96057 -37.53553 2.3509886e-038
14.510217 270.82172 -37.378349 2.3509886e-038
19.131203 269.27979 -37.165531 2.3509886e-038
23.705204 267.81564 -36.963455 2.3509886e-038
28.335276 267.36334 -36.901028 2.3509886e-038
32.213253 268.21078 -37.017994 2.3509886e-038
-107.43401 271.24152 -42.174133 2.3509528e-038
-103.2802 269.5878 -41.917004 2.3509528e-038
-98.503128 269.40152 -41.888039 2.3509528e-038
-94.090889 270.24445 -42.019104 2.3509528e-038
-89.854362 271.70773 -42.246624 2.3509528e-038
-85.989922 273.25562 -42.487297 2.3509528e-038
-55.605095 286.20789 -44.50119 2.3509886e-038
-54.468109 285.22745 -44.348743 2.3509886e-038
-48.781082 281.16467 -43.717041 2.3509886e-038
-43.433586 278.36832 -43.282249 2.3509886e-038
-38.35854 276.83331 -43.043579 2.3509886e-038
-33.494377 276.59692 -43.006821 2.3509886e-038
-28.753647 277.4718 -43.142857 2.3509886e-038
-23.997108 278.51816 -43.30555 2.3509886e-038
-19.162197 278.95572 -43.373581 2.3509886e-038
-14.285488 278.87537 -43.361088 2.3509886e-038
-9.3911524 278.19025 -43.254562 2.3509886e-038
-4.5121937 276.97989 -43.066368 2.3509886e-038
0.32459441 275.88272 -42.895775 2.3509886e-038
5.1192212 274.57892 -42.693054 2.3509886e-038
9.8726206 273.39478 -42.508934 2.3509886e-038
14.576517 272.05914 -42.301262 2.3509886e-038
19.202663 270.28564 -42.025505 2.3509886e-038
23.773415 268.58627 -41.761284 2.3509886e-038
28.431139 268.26791 -41.711781 2.3509886e-038
32.958473 270.58475 -42.072018 2.3509886e-038
-109.742 270.8432 -46.843109 2.3509528e-038
-107.99708 269.60751 -46.629391 2.3509528e-038
-102.36597 267.20142 -46.213249 2.3509528e-038
-97.780426 267.42496 -46.251915 2.3509528e-038
-93.569305 268.7464 -46.480457 2.3509528e-038
-89.393845 270.31519 -46.751785 2.3509528e-038
-85.141502 271.81354 -47.010929 2.3509528e-038
-80.815491 273.23984 -47.257614 2.3509528e-038
-76.553139 275.07382 -47.574806 2.3509528e-038
-75.521881 275.64053 -47.672821 2.3509528e-038
-61.270935 284.39557 -49.187027 2.3509528e-038
-59.228565 284.16376 -49.146931 2.3509528e-038
-53.980438 282.67371 -48.889229 2.3509528e-038
-48.727814 280.85767 -48.575134 2.3509886e-038
-43.572666 279.2597 -48.298763 2.3509886e-038
-38.533333 278.09479 -48.09729 2.3509886e-038
-33.618916 277.6254 -48.016106 2.3509886e-038
-28.826038 278.17038 -48.110363 2.3509886e-038
-24.059223 279.23907 -48.2952 2.3509886e-038
-19.225355 279.87515 -48.405209 2.3509886e-038
-14.346846 280.07315 -48.439449 2.3509886e-038
-9.4552507 280.08899 -48.442192 2.3509886e-038
-4.5511913 279.37375 -48.318485 2.3509886e-038
0.32710314 278.01495 -48.083481 2.3509886e-038
5.1565351 276.58032 -47.835361 2.3509886e-038
9.9351902 275.12744 -47.58408 2.3509886e-038
14.645344 273.34375 -47.275581 2.3509886e-038
19.268974 271.21899 -46.9081 2.3509886e-038
23.838108 269.31714 -46.57917 2.3509886e-038
28.549812 269.38766 -46.591366 2.3509886e-038
33.920712 274.77795 -47.523632 2.3509886e-038
34.04369 274.98761 -47.559895 2.3509886e-038
-106.20486 268.30551 -51.09079 2.3509528e-038
-102.27414 266.96173 -50.834904 2.3509528e-038
-97.681122 267.15338 -50.871399 2.3509528e-038
-93.365295 268.16043 -51.06316 2.3509528e-038
-89.061584 269.31052 -51.282162 2.3509528e-038
-84.737846 270.52487 -51.513397 2.3509528e-038
-80.431587 271.94183 -51.783218 2.3509528e-038
-76.208008 273.83371 -52.143471 2.3509528e-038
-71.910881 275.69699 -52.498272 2.3509528e-038
-67.487846 277.31042 -52.805504 2.3509528e-038
-63.036137 279.04642 -53.136074 2.3509528e-038
-58.381557 280.10001 -53.3367 2.3509528e-038
-53.533501 280.33328 -53.381119 2.3509528e-038
-48.588264 280.05331 -53.327805 2.3509528e-038
-43.634865 279.65836 -53.252598 2.3509886e-038
-38.672352 279.09808 -53.145916 2.3509886e-038
-33.74649 278.67889 -53.06609 2.3509886e-038
-28.904654 278.92902 -53.113716 2.3509886e-038
-24.101265 279.72705 -53.265678 2.3509886e-038
-19.269979 280.52475 -53.41758 2.3509886e-038
-14.40332 281.1756 -53.541515 2.3509886e-038
-9.5076742 281.64191 -53.630306 2.3509886e-038
-4.5824151 281.29041 -53.563374 2.3509886e-038
0.32934296 279.91864 -53.302162 2.3509886e-038
5.190681 278.4118 -53.015232 2.3509886e-038
9.9937077 276.74796 -52.698395 2.3509886e-038
14.72443 274.81982 -52.331242 2.3509886e-038
19.374014 272.69748 -51.927109 2.3509886e-038
23.969563 270.80228 -51.566223 2.3509886e-038
28.71084 270.90707 -51.586178 2.3509886e-038
34.203011 277.0647 -52.758717 2.3509886e-038
34.641819 277.89163 -52.91618 2.3509886e-038
-99.056686 269.05099 -55.932323 2.3509528e-038
-98.349342 268.98093 -55.917759 2.3509528e-038
-93.701202 269.12521 -55.947758 2.3509528e-038
-89.17923 269.66626 -56.060234 2.3509528e-038
-84.676163 270.32794 -56.197792 2.3509528e-038
-80.317375 271.55569 -56.453022 2.3509528e-038
-76.090279 273.41068 -56.83865 2.3509528e-038
-71.746925 275.06839 -57.18327 2.3509528e-038
-67.231049 276.25525 -57.430004 2.3509528e-038
-62.649033 277.33279 -57.654007 2.3509528e-038
-57.960354 278.07919 -57.809174 2.3509528e-038
-53.197075 278.57153 -57.91153 2.3509528e-038
-48.36953 278.79257 -57.957478 2.3509528e-038
-43.528313 278.97543 -57.995491 2.3509528e-038
-38.619122 278.71393 -57.941132 2.3509886e-038
-33.712646 278.39941 -57.875744 2.3509886e-038
-28.871084 278.60507 -57.918499 2.3509886e-038
-24.073614 279.40613 -58.08503 2.3509886e-038
-19.277821 280.63895 -58.341312 2.3509886e-038
-14.44539 281.99689 -58.623611 2.3509886e-038
-9.5553417 283.05396 -58.843369 2.3509886e-038
-4.611639 283.08429 -58.849674 2.3509886e-038
0.33157521 281.81592 -58.585995 2.3509886e-038
5.2219563 280.08932 -58.227055 2.3509886e-038
10.04512 278.17166 -57.828396 2.3509886e-038
14.797853 276.19019 -57.416477 2.3509886e-038
19.48185 274.21527 -57.005917 2.3509886e-038
24.120365 272.50604 -56.650585 2.3509886e-038
28.849197 272.21255 -56.589577 2.3509886e-038
34.101101 276.2392 -57.426662 2.3509886e-038
34.118118 276.26575 -57.432182 2.3509886e-038
-87.558502 272.42596 -61.39249 2.3509528e-038
-85.437492 272.75848 -61.467426 2.3509528e-038
-81.095749 274.18738 -61.789436 2.3509528e-038
-76.676407 275.51678 -62.089024 2.3509528e-038
-72.070526 276.30905 -62.267563 2.3509528e-038
-67.28978 276.49655 -62.309822 2.3509528e-038
-62.510662 276.72025 -62.360229 2.3509528e-038
-57.717525 276.91415 -62.403923 2.3509528e-038
-52.916935 277.10458 -62.446838 2.3509528e-038
-48.12904 277.40643 -62.514862 2.3509528e-038
-43.352509 277.84869 -62.614529 2.3509528e-038
-38.495407 277.82111 -62.608311 2.3509886e-038
-33.635212 277.75995 -62.594524 2.3509886e-038
-28.815157 278.06537 -62.663361 2.3509886e-038
-24.038719 279.00113 -62.874237 2.3509886e-038
-19.280451 280.67722 -63.251957 2.3509886e-038
-14.477689 282.62741 -63.691437 2.3509886e-038
-9.5958185 284.25299 -64.057777 2.3509886e-038
-4.6371546 284.6506 -64.147369 2.3509886e-038
0.33363405 283.5658 -63.902908 2.3509886e-038
5.251102 281.65259 -63.471756 2.3509886e-038
10.094929 279.55096 -62.998146 2.3509886e-038
14.865636 277.45532 -62.525883 2.3509886e-038
19.580256 275.6004 -62.107868 2.3509886e-038
24.280554 274.3158 -61.818375 2.3509886e-038
29.097538 274.55585 -61.872467 2.3509886e-038
34.22332 278.33069 -62.723152 2.3509886e-038
-79.147247 281.58234 -68.37442 2.3509528e-038
-78.297867 281.34308 -68.316315 2.3509528e-038
-73.126312 280.35681 -68.076836 2.3509528e-038
-67.812737 278.64542 -67.66127 2.3509528e-038
-62.652023 277.34601 -67.345749 2.3509528e-038
-57.654549 276.612 -67.167511 2.3509528e-038
-52.748726 276.22372 -67.073227 2.3509528e-038
-47.939873 276.3161 -67.095657 2.3509528e-038
-43.184246 276.77029 -67.20594 2.3509528e-038
-38.383808 277.01569 -67.265533 2.3509886e-038
-33.572956 277.24585 -67.321419 2.3509886e-038
-28.771507 277.64417 -67.418144 2.3509886e-038
-24.013201 278.70496 -67.675728 2.3509886e-038
-19.274887 280.59622 -68.134972 2.3509886e-038
-14.482832 282.72781 -68.652565 2.3509886e-038
-9.6102791 284.68134 -69.126923 2.3509886e-038
-4.6528177 285.61206 -69.352921 2.3509886e-038
0.33533642 285.0127 -69.207382 2.3509886e-038
5.2807183 283.24112 -68.777214 2.3509886e-038
10.156269 281.2496 -68.293625 2.3509886e-038
14.953318 279.09183 -67.769669 2.3509886e-038
19.697929 277.25668 -67.324059 2.3509886e-038
24.486713 276.64496 -67.175507 2.3509886e-038
29.56365 278.95395 -67.736183 2.3509886e-038
35.550705 287.98184 -69.928352 2.3509886e-038
36.629833 290.31427 -70.49472 2.3509886e-038
-70.202187 284.42822 -74.033638 2.3509886e-038
-69.019112 283.60248 -73.81871 2.3509886e-038
-63.394859 280.63437 -73.04615 2.3509528e-038
-57.956779 278.06204 -72.376595 2.3509528e-038
-52.795013 276.46609 -71.961189 2.3509528e-038
-47.896763 276.06763 -71.857468 2.3509528e-038
-43.092838 276.18448 -71.887878 2.3509886e-038
-38.280464 276.26987 -71.910103 2.3509886e-038
-33.487324 276.5387 -71.98008 2.3509886e-038
-28.726128 277.20624 -72.153839 2.3509886e-038
-24.00466 278.6058 -72.518135 2.3509886e-038
-19.277555 280.6351 -73.046333 2.3509886e-038
-14.483192 282.73483 -73.592873 2.3509886e-038
-9.6149817 284.82065 -74.135788 2.3509886e-038
-4.6657667 286.40692 -74.548683 2.3509886e-038
0.3371481 286.55249 -74.586571 2.3509886e-038
5.3150682 285.08353 -74.204216 2.3509886e-038
10.227187 283.2135 -73.717461 2.3509886e-038
15.06333 281.14511 -73.179085 2.3509886e-038
19.850424 279.40311 -72.725662 2.3509886e-038
24.739384 279.49957 -72.750763 2.3509886e-038
30.118435 284.18872 -73.971298 2.3509886e-038
36.648365 296.87354 -77.273026 2.3509886e-038
41.507542 307.5976 -80.064384 2.3509886e-038
-61.780071 285.32083 -79.249771 2.3509886e-038
-58.916069 282.66449 -78.511955 2.3509886e-038
-53.287212 279.04355 -77.506218 2.3509528e-038
-48.136425 277.44897 -77.063316 2.3509886e-038
-43.190559 276.81073 -76.886032 2.3509886e-038
-38.295219 276.37634 -76.765373 2.3509886e-038
-33.46431 276.34866 -76.757683 2.3509886e-038
-28.732225 277.26511 -77.012238 2.3509886e-038
-24.041018 279.0278 -77.501831 2.3509886e-038
-19.307041 281.06433 -78.067497 2.3509886e-038
-14.500225 283.06735 -78.623848 2.3509886e-038
-9.6280832 285.20877 -79.218643 2.3509886e-038
-4.6798458 287.27118 -79.791496 2.3509886e-038
0.33891922 288.0578 -80.009979 2.3509886e-038
5.3509221 287.00665 -79.718018 2.3509886e-038
10.309559 285.49457 -79.298027 2.3509886e-038
15.208468 283.85403 -78.842354 2.3509886e-038
20.065166 282.42572 -78.445633 2.3509886e-038
25.05522 283.06778 -78.62397 2.3509886e-038
30.645334 289.1604 -80.316238 2.3509886e-038
37.2808 301.99661 -83.881577 2.3509886e-038
44.320656 314.52032 -87.36013 2.3509886e-038
47.276245 318.4368 -88.447952 2.3509886e-038
-53.717709 284.51785 -83.996513 2.3509886e-038
-48.89843 281.84103 -83.206253 2.3509886e-038
-43.678864 279.94034 -82.645119 2.3509886e-038
-38.605362 278.61465 -82.253738 2.3509886e-038
-33.650078 277.88272 -82.037659 2.3509886e-038
-28.857912 278.47797 -82.213387 2.3509886e-038
-24.144857 280.233 -82.731514 2.3509886e-038
-19.387142 282.23041 -83.321198 2.3509886e-038
-14.558158 284.19827 -83.902168 2.3509886e-038
-9.6675854 286.37891 -84.545937 2.3509886e-038
-4.7015543 288.60376 -85.202766 2.3509886e-038
0.34097493 289.80499 -85.557404 2.3509886e-038
5.3935666 289.29395 -85.406525 2.3509886e-038
10.411914 288.32898 -85.121643 2.3509886e-038
15.38955 287.23376 -84.798317 2.3509886e-038
20.345814 286.37598 -84.545067 2.3509886e-038
25.458723 287.62646 -84.914253 2.3509886e-038
31.158167 293.99933 -86.795662 2.3509886e-038
37.671528 305.16177 -90.091095 2.3509886e-038
44.513458 315.88855 -93.257896 2.3509886e-038
51.285732 323.80969 -95.596405 2.3509886e-038
53.270325 325.85175 -96.199265 2.3509886e-038
-45.450901 287.40952 -89.870453 2.3509886e-038
-44.787903 287.04822 -89.757477 2.3509886e-038
-39.398365 284.33774 -88.909935 2.3509886e-038
-34.212002 282.5231 -88.342514 2.3509886e-038
-29.228218 282.05142 -88.195023 2.3509886e-038
-24.378359 282.94308 -88.473846 2.3509886e-038
-19.549704 284.59689 -88.990974 2.3509886e-038
-14.677557 286.52914 -89.595177 2.3509886e-038
-9.7534513 288.92249 -90.343552 2.3509886e-038
-4.7472982 291.41171 -91.121902 2.3509886e-038
0.3448427 293.09235 -91.647423 2.3509886e-038
5.4700494 293.39627 -91.742455 2.3509886e-038
10.578572 292.94409 -91.601074 2.3509886e-038
15.649375 292.08319 -91.331879 2.3509886e-038
20.721317 291.66135 -91.199966 2.3509886e-038
25.97127 293.41708 -91.748978 2.3509886e-038
31.707462 299.18228 -93.551704 2.3509886e-038
38.00959 307.90027 -96.277733 2.3509886e-038
44.645191 316.82339 -99.067917 2.3509886e-038
51.420513 324.66068 -101.51857 2.3509886e-038
58.13018 330.94601 -103.48395 2.3509886e-038
-32.6647 290.53265 -95.92186 2.3509886e-038
-29.967087 289.18146 -95.475754 2.3509886e-038
-24.827381 288.1546 -95.136726 2.3509886e-038
-19.905176 289.77173 -95.670631 2.3509886e-038
-14.963004 292.10153 -96.439835 2.3509886e-038
-9.941803 294.50195 -97.232361 2.3509886e-038
-4.8355613 296.82974 -98.000893 2.3509886e-038
0.35160244 298.83765 -98.663826 2.3509886e-038
5.6003327 300.38422 -99.174438 2.3509886e-038
10.850479 300.47385 -99.204025 2.3509886e-038
16.051062 299.58035 -98.909042 2.3509886e-038
21.260569 299.25153 -98.800476 2.3509886e-038
26.619371 300.7392 -99.291641 2.3509886e-038
32.272247 304.51141 -100.53708 2.3509886e-038
38.284592 310.12793 -102.39141 2.3509886e-038
44.638805 316.77811 -104.58702 2.3509886e-038
51.290806 323.84174 -106.91914 2.3509886e-038
58.058487 330.15982 -109.00511 2.3509886e-038
60.410095 331.9491 -109.59585 2.3509886e-038
-12.911788 302.9657 -105.31874 2.3509886e-038
-10.2438 303.44791 -105.48637 2.3509886e-038
-4.9553466 304.18274 -105.74181 2.3509886e-038
0.36083302 306.68301 -106.61097 2.3509886e-038
5.7845826 310.26682 -107.8568 2.3509886e-038
11.212925 310.51074 -107.94159 2.3509886e-038
16.554073 308.96866 -107.40552 2.3509886e-038
21.878782 307.95316 -107.05251 2.3509886e-038
27.274975 308.14606 -107.11956 2.3509886e-038
32.793808 309.43277 -107.56686 2.3509886e-038
38.555172 312.31982 -108.57047 2.3509886e-038
44.638405 316.77527 -110.1193 2.3509886e-038
51.043434 322.27988 -112.03284 2.3509886e-038
57.646278 327.8157 -113.95724 2.3509886e-038
59.723034 329.36316 -114.49518 2.3509886e-038
8.9533796 321.8483 -117.50465 2.3509886e-038
11.57872 320.64044 -117.06368 2.3509886e-038
17.026108 317.77884 -116.01891 2.3509886e-038
22.422634 315.60809 -115.22639 2.3509886e-038
27.832897 314.44931 -114.80334 2.3509886e-038
33.310093 314.30426 -114.75038 2.3509886e-038
38.966351 315.6506 -115.24192 2.3509886e-038
44.86129 318.35696 -116.22999 2.3509886e-038
50.98745 321.92639 -117.53316 2.3509886e-038
56.366234 325.28262 -118.75851 2.3509886e-038
21.279135 322.32553 -123.30903 2.3509886e-038
22.848108 321.59683 -123.03026 2.3509886e-038
28.316713 319.91534 -122.38699 2.3509886e-038
33.834942 319.25656 -122.13497 2.3509886e-038
39.463577 319.67844 -122.29636 2.3509886e-038
45.234142 321.0029 -122.80305 2.3509886e-038
50.139164 322.5639 -123.40022 2.3509886e-038
-108.72851 271.43347 -43.376141 2.3509528e-038
-107.79385 269.10016 -49.870113 2.3509528e-038
-103.85626 271.09146 -40.34296 2.3509528e-038
-102.69932 268.07153 -53.578693 2.3509528e-038
-99.248611 271.4404 -39.545029 2.3509528e-038
-98.426735 269.1926 -56.259937 2.3509528e-038
-94.514473 271.46106 -39.737 2.3509528e-038
-94.199699 270.55698 -58.433125 2.3509528e-038
-90.010063 272.17856 -40.81723 2.3509528e-038
-89.857445 271.71707 -60.329056 2.3509528e-038
-85.616417 273.32971 -42.655151 2.3509528e-038
-85.708122 273.62247 -62.513454 2.3509528e-038
-81.048965 274.02924 -44.856422 2.3509528e-038
-82.292015 278.23199 -65.624329 2.3509528e-038
-76.595154 275.22482 -47.132477 2.3509528e-038
-78.499886 282.06897 -68.881462 2.3509528e-038
-69.201447 265.30936 55.920734 2.3418409e-038
-70.971252 272.09457 36.94511 2.3418409e-038
-72.235947 276.94327 -49.032211 2.3509528e-038
-74.192871 284.44586 -71.955215 2.3509886e-038
-64.251442 264.01193 53.883667 2.3418409e-038
-65.802773 270.38638 22.957712 2.3418409e-038
-67.858215 278.83228 -50.049038 2.3509528e-038
-69.206612 284.37292 -74.545876 2.3509886e-038
-59.936859 265.32663 47.865067 2.3418409e-038
-61.981384 274.37726 11.817394 2.3418409e-038
-63.732334 282.1283 -49.958664 2.3509528e-038
-64.471298 285.39954 -77.654617 2.3509886e-038
-55.64703 266.98044 39.400936 2.3418409e-038
-57.389503 275.34039 0.48767582 2.3418409e-038
-59.552986 285.72021 -48.187592 2.3509886e-038
-59.315491 284.58081 -80.485718 2.3509886e-038
-51.409809 269.21237 30.619822 2.3418409e-038
-53.472691 280.01483 -12.426324 2.3509886e-038
-54.563446 285.72668 -43.211411 2.3509886e-038
-54.308392 284.39108 -83.573647 2.3509886e-038
-47.136288 271.68442 21.917793 2.3418409e-038
-49.554989 285.62531 -86.937981 2.3509886e-038
-43.280571 277.38763 12.186462 2.3418409e-038
-44.87542 287.60913 -90.223373 2.3509886e-038
-38.937862 281.01428 5.6514921 2.3509886e-038
-40.02615 288.86847 -92.861206 2.3509886e-038
-31.930826 263.68515 73.73658 2.3418052e-038
-33.379814 275.65088 36.820614 2.3418052e-038
-34.269779 283.00024 4.3174272 2.3509886e-038
-35.123058 290.0466 -95.024696 2.3509886e-038
-27.206224 262.53925 72.117134 2.3418052e-038
-30.093071 290.39719 -96.544662 2.3509886e-038
-22.892834 265.7016 63.190102 2.3418052e-038
-25.053297 290.77664 -97.836037 2.3509886e-038
-18.45274 268.62775 45.883453 2.3418052e-038
-20.254353 294.85492 -100.42574 2.3509886e-038
-13.89675 271.28659 28.754335 2.3418052e-038
-15.393759 300.51056 -103.77666 2.3509886e-038
-9.0936003 269.37598 27.728468 2.3418052e-038
-10.287238 304.73462 -106.5871 2.3509886e-038
-4.2221446 259.17526 64.490112 9.1476764e-041
-4.9984841 306.83072 -108.43985 2.3509886e-038
0.3027972 257.35663 65.334663 9.1476764e-041
0.36684451 311.79236 -111.27771 2.3509886e-038
4.8707943 261.25406 55.557064 9.1476764e-041
5.9580107 319.56897 -115.586 2.3509886e-038
9.6084013 266.07794 -2.5167532 2.3509886e-038
11.64584 322.49911 -118.86784 2.3509886e-038
14.184072 264.73447 -5.0902796 3.5733111e-043
17.277811 322.47665 -121.47157 2.3509886e-038
18.627281 262.18689 -3.3278084 3.5733111e-043
22.899836 322.32489 -124.06059 2.3509886e-038
22.903448 258.7576 1.3137909 3.5733111e-043
28.537001 322.40411 -126.3328 2.3509886e-038
26.901428 253.83398 7.8734689 3.5733111e-043
34.158882 322.3132 -127.46358 2.3509886e-038
30.99333 251.06439 14.896756 3.5733111e-043
32.392262 262.39655 -20.283962 3.5733111e-043
33.837608 274.10474 -46.540901 2.3509886e-038
34.099625 276.2272 -57.575058 2.3509886e-038
34.725838 281.29993 -65.11129 2.3509886e-038
39.760864 322.08664 -127.12915 2.3509886e-038
35.134125 249.32837 22.575449 3.5733111e-043
36.240273 257.17813 -6.0162964 3.5733111e-043
44.212467 313.75259 -84.269478 2.3509886e-038
45.389488 322.10529 -125.59232 2.3509886e-038
39.003998 246.26485 29.735773 3.5733111e-043
39.642334 250.2952 3.6444902 3.5733111e-043
51.2216 323.40475 -93.528954 2.3509886e-038
51.118019 322.75076 -122.74733 2.3509886e-038
43.219662 245.77621 32.995197 3.5733111e-043
43.806107 249.11115 14.555902 3.5733111e-043
58.208401 331.01233 -103.62067 2.3509886e-038
57.357979 326.17627 -117.83805 2.3509886e-038
