# .PCD v0.7 - Point Cloud Data file format
VERSION 0.7
FIELDS x y z rgb
SIZE 4 4 4 4
TYPE F F F F
COUNT 1 1 1 1
WIDTH 571
HEIGHT 1
VIEWPOINT 0 0 0 1 0 0 0
POINTS 571
DATA ascii
0 0 0 3.5733111e-043
0 0 0 3.5733111e-043
0 0 0 3.5733111e-043
-62.635838 255.7554 -22.886171 2.3509528e-038
-26.981333 236.51578 6.5309224 2.3418409e-038
-33.02113 243.3405 20.197651 2.3418409e-038
-32.363144 242.35844 20.116138 2.3418409e-038
-27.677345 238.73199 19.815138 2.3418409e-038
-23.741491 241.43404 20.039412 2.3418409e-038
-19.943487 247.02155 20.503181 2.3418409e-038
-15.749773 249.45657 20.705294 2.3509886e-038
-11.185841 245.64337 20.388794 2.3509886e-038
-6.7735305 242.45366 20.124043 2.3509886e-038
-2.5397379 245.67171 20.391144 2.3509886e-038
1.8392252 253.28505 21.023066 2.3509886e-038
1.9408724 253.48553 21.039703 2.3509886e-038
-50.55312 246.25082 16.105333 2.3418409e-038
-50.237057 246.34207 16.111301 2.3418409e-038
-46.518288 249.65186 16.327768 2.3418409e-038
-42.883949 254.15242 16.622114 2.3418409e-038
-38.287956 253.3383 16.568869 2.3418409e-038
-32.519394 243.52856 15.927291 2.3418409e-038
-27.557966 237.70229 15.54624 2.3418409e-038
-23.549156 239.47812 15.662385 2.3418409e-038
-19.868366 246.09111 16.094887 2.3418409e-038
-15.721962 249.0161 16.286186 2.3509886e-038
-11.122787 244.25868 15.975043 2.3509886e-038
-6.7281446 240.82912 15.750742 2.3509886e-038
-2.539191 245.6188 16.063997 2.3509886e-038
1.852182 255.06938 16.682085 2.3509886e-038
4.4450054 260.32864 17.026054 2.3509886e-038
-52.726372 244.79869 11.702028 2.3418409e-038
-49.773102 244.06703 11.667052 2.3418409e-038
-46.140717 247.62552 11.837157 2.3418409e-038
-42.816624 253.75342 12.130088 2.3418409e-038
-38.372589 253.8983 12.137012 2.3418409e-038
-32.552536 243.77675 11.653176 2.3418409e-038
-27.551414 237.64578 11.3601 2.3418409e-038
-23.510349 239.0835 11.428826 2.3418409e-038
-19.889717 246.35556 11.77645 2.3418409e-038
-15.731221 249.16275 11.910642 2.3509886e-038
-11.096033 243.67117 11.648129 2.3509886e-038
-6.7091246 240.14828 11.479726 2.3509886e-038
-2.542799 245.96782 11.757915 2.3509886e-038
1.865123 256.85153 12.278185 2.3509886e-038
6.4088788 264.24002 12.631375 2.3509886e-038
-53.466957 244.15048 7.3741269 2.3418409e-038
-49.466141 242.56183 7.3261447 2.3418409e-038
-45.785091 245.71696 7.4214396 2.3418409e-038
-42.532726 252.07091 7.6133494 2.3418409e-038
-38.257015 253.13356 7.6454449 2.3418409e-038
-32.546135 243.72884 7.3613915 2.3418409e-038
-27.588448 237.96521 7.1873121 2.3418409e-038
-23.53688 239.3533 7.2292371 2.3418409e-038
-19.907316 246.57353 7.4473114 2.3418409e-038
-15.674966 248.27171 7.4986014 2.3509886e-038
-11.035871 242.34999 7.3197465 2.3509886e-038
-6.689117 239.43213 7.2316175 2.3509886e-038
-2.5479634 246.46736 7.4441042 2.3509886e-038
1.8758694 258.33142 7.8024368 2.3509886e-038
6.545352 263.2782 7.9518447 2.3509886e-038
10.930684 257.43207 7.7752738 2.3509886e-038
14.973993 249.31746 7.5301857 2.3509886e-038
19.080175 245.69057 7.4206424 2.3509886e-038
23.401917 245.66658 7.4199176 2.3509886e-038
24.736816 246.20401 7.4361496 2.3509886e-038
-53.433495 243.25476 3.0659225 2.3418409e-038
-49.418583 242.32863 3.0542498 2.3418409e-038
-45.632042 244.89558 3.0866029 2.3418409e-038
-42.250507 250.39832 3.1559579 2.3418409e-038
-38.113556 252.18436 3.1784689 2.3509886e-038
-32.593243 244.08159 3.0763435 2.3418409e-038
-27.675501 238.71608 3.0087183 2.3418409e-038
-23.601171 240.00708 3.0249898 2.3418409e-038
-19.894049 246.40921 3.1056805 2.3418409e-038
-15.535208 246.05812 3.1012552 2.3418409e-038
-10.926338 239.94464 3.0242026 2.3509886e-038
-6.6654363 238.58449 3.0070596 2.3509886e-038
-2.5584283 247.47966 3.1191721 2.3509886e-038
1.888339 260.04865 3.2775886 2.3509886e-038
6.5308423 262.69458 3.3109369 2.3509886e-038
10.789443 254.10565 3.2026844 2.3509886e-038
14.770675 245.93217 3.099668 2.3509886e-038
18.965511 244.21407 3.0780134 2.3509886e-038
23.556295 247.28722 3.1167467 2.3509886e-038
27.413738 251.04735 3.1641383 2.3509886e-038
-53.196762 243.40279 -1.2159764 2.3418409e-038
-49.539127 242.91972 -1.2135631 2.3418409e-038
-45.624256 244.85379 -1.2232252 2.3418409e-038
-42.070698 249.33267 -1.2456005 2.3509886e-038
-38.03299 251.65129 -1.2571837 2.3509886e-038
-32.714752 244.99155 -1.2239134 2.3418409e-038
-27.831499 240.06166 -1.1992849 2.3418409e-038
-23.718927 241.20457 -1.2049947 2.3418409e-038
-19.922607 246.76291 -1.2327627 2.3418409e-038
-15.453395 244.76231 -1.2227682 2.3509886e-038
-10.866145 238.62279 -1.1920967 2.3509886e-038
-6.6754341 238.94237 -1.1936933 2.3509886e-038
-2.5805731 249.62173 -1.2470446 2.3509886e-038
1.903592 262.14917 -1.3096285 2.3509886e-038
6.5227361 262.3685 -1.310724 2.3509886e-038
10.711834 252.27785 -1.2603139 2.3509886e-038
14.738401 245.39484 -1.2259282 2.3509886e-038
19.126902 246.29225 -1.2304113 2.3509886e-038
24.03701 252.33362 -1.2605923 2.3509886e-038
29.10952 257.92972 -1.2885491 2.3509886e-038
29.449436 258.24295 -1.290114 2.3509886e-038
-52.839233 245.23383 -5.5411139 2.3509886e-038
-49.818325 244.2888 -5.5197606 2.3509886e-038
-45.680355 245.15488 -5.5393295 2.3509886e-038
-42.057259 249.25302 -5.6319284 2.3509886e-038
-38.204967 252.7892 -5.7118292 2.3509886e-038
-33.078938 247.71883 -5.5972633 2.3509886e-038
-28.152222 242.82805 -5.4867554 2.3418409e-038
-23.952557 243.58041 -5.5037546 2.3418409e-038
-20.093035 248.87386 -5.6233611 2.3509886e-038
-15.539536 246.12668 -5.5612879 2.3509886e-038
-10.911896 239.62749 -5.4144368 2.3509886e-038
-6.7306805 240.91988 -5.4436393 2.3509886e-038
-2.6159694 253.04568 -5.7176247 2.3509886e-038
1.9237634 264.92706 -5.9860868 2.3509886e-038
6.5264573 262.51816 -5.9316578 2.3509886e-038
10.690935 251.78566 -5.6891541 2.3509886e-038
14.868337 247.55827 -5.5936351 2.3509886e-038
19.557779 251.84056 -5.6903944 2.3509886e-038
24.685862 259.14505 -5.8554411 2.3509886e-038
29.708906 263.24066 -5.9479823 2.3509886e-038
30.966988 264.05142 -5.9663014 2.3509886e-038
-68.659821 247.59579 -9.9520245 2.3509886e-038
-68.102737 248.25117 -9.9783678 2.3509528e-038
-64.707436 252.0442 -10.130827 2.3509528e-038
-63.515781 252.90192 -10.165303 2.3509528e-038
-52.15131 248.31311 -9.9808578 2.3509886e-038
-50.444389 247.35876 -9.9424982 2.3509886e-038
-46.003166 246.88733 -9.9235487 2.3509886e-038
-42.293644 250.65398 -10.074948 2.3509886e-038
-38.587597 255.32094 -10.262535 2.3509886e-038
-33.672512 252.16394 -10.13564 2.3509886e-038
-28.648388 247.10776 -9.9324093 2.3509886e-038
-24.336075 247.48053 -9.9473925 2.3509886e-038
-20.426758 253.00739 -10.169542 2.3509886e-038
-15.775923 249.87076 -10.043467 2.3509886e-038
-11.043034 242.50729 -9.7474947 2.3509886e-038
-6.8165956 243.99513 -9.8072977 2.3509886e-038
-2.6573458 257.04803 -10.331955 2.3509886e-038
1.9456111 267.93576 -10.769583 2.3509886e-038
6.5521455 263.55145 -10.593356 2.3509886e-038
10.779318 253.86717 -10.204101 2.3509886e-038
15.211364 253.26967 -10.180085 2.3509886e-038
20.18277 259.8884 -10.446123 2.3509886e-038
25.26667 265.24222 -10.661317 2.3509886e-038
30.113359 266.8244 -10.724913 2.3509886e-038
32.134056 267.55106 -10.754121 2.3509886e-038
-69.827179 247.51776 -14.305074 2.3509528e-038
-68.216133 248.66451 -14.371348 2.3509528e-038
-64.602371 251.63495 -14.543024 2.3509528e-038
-60.901676 254.67908 -14.718956 2.3509528e-038
-60.604015 254.88397 -14.730798 2.3509528e-038
-50.9734 252.30377 -14.581677 2.3509528e-038
-46.733143 250.80493 -14.495053 2.3509886e-038
-42.791981 253.60736 -14.657017 2.3509886e-038
-39.140224 258.97748 -14.967379 2.3509886e-038
-34.462605 258.08072 -14.915551 2.3509886e-038
-29.336418 253.0424 -14.624366 2.3509886e-038
-24.921953 253.43851 -14.647259 2.3509886e-038
-20.941582 259.38403 -14.990875 2.3509886e-038
-16.137009 255.5899 -14.771597 2.3509886e-038
-11.246234 246.96962 -14.273395 2.3509886e-038
-6.9429669 248.51851 -14.362911 2.3509886e-038
-2.705565 261.71234 -15.125438 2.3509886e-038
1.9675254 270.95361 -15.65953 2.3509886e-038
6.6148844 266.07504 -15.377577 2.3509886e-038
11.027654 259.71582 -15.010051 2.3509886e-038
15.766562 262.51376 -15.171754 2.3509886e-038
20.825283 268.1619 -15.498183 2.3509886e-038
25.700485 269.7963 -15.592642 2.3509886e-038
30.367451 269.07581 -15.551003 2.3509886e-038
33.132164 269.5018 -15.575624 2.3509886e-038
-70.407349 249.07993 -18.779039 2.3509528e-038
-68.464142 249.56857 -18.815878 2.3509528e-038
-64.59507 251.60655 -18.96953 2.3509528e-038
-61.178249 255.83565 -19.288378 2.3509528e-038
-58.786381 259.12061 -19.536043 2.3509528e-038
-48.964367 256.94162 -19.371759 2.3509528e-038
-47.787918 256.46564 -19.335875 2.3509528e-038
-43.580261 258.27911 -19.472599 2.3509886e-038
-39.984409 264.56314 -19.946375 2.3509886e-038
-35.602734 266.6188 -20.101358 2.3509886e-038
-30.489992 262.99258 -19.827963 2.3509886e-038
-25.930044 263.69006 -19.880548 2.3509886e-038
-21.709734 268.89844 -20.273228 2.3509886e-038
-16.687452 264.30826 -19.927156 2.3509886e-038
-11.604352 254.83397 -19.212856 2.3509886e-038
-7.1633067 256.40543 -19.331335 2.3509886e-038
-2.7745495 268.38528 -20.234541 2.3509886e-038
1.9998516 275.40536 -20.763809 2.3509886e-038
6.7606602 271.93869 -20.502443 2.3509886e-038
11.424271 269.05667 -20.285158 2.3509886e-038
16.328852 271.87585 -20.497705 2.3509886e-038
21.256479 273.71426 -20.636311 2.3509886e-038
25.968748 272.61243 -20.553238 2.3509886e-038
30.56024 270.78406 -20.415392 2.3509886e-038
33.901974 271.23495 -20.449387 2.3509886e-038
-70.915535 251.11884 -23.352322 2.3509528e-038
-68.916443 251.2173 -23.361479 2.3509528e-038
-64.90506 252.814 -23.50996 2.3509528e-038
-61.568947 257.46948 -23.942888 2.3509528e-038
-58.343857 263.36588 -24.491211 2.3509528e-038
-56.621468 264.99347 -24.642567 2.3509528e-038
-46.898716 264.32782 -24.580667 2.3509528e-038
-44.935989 266.31387 -24.765356 2.3509528e-038
-41.167252 272.38962 -25.330357 2.3509528e-038
-36.810291 275.6619 -25.634655 2.3509886e-038
-31.911158 275.25092 -25.596437 2.3509886e-038
-27.191914 276.52237 -25.714676 2.3509886e-038
-22.538048 279.15796 -25.959768 2.3509886e-038
-17.419325 275.90018 -25.656816 2.3509886e-038
-12.262151 269.27936 -25.041126 2.3509886e-038
-7.5375795 269.80225 -25.08975 2.3509886e-038
-2.860867 276.73489 -25.734438 2.3509886e-038
2.0366621 280.47467 -26.082212 2.3509886e-038
6.9386315 279.09735 -25.95413 2.3509886e-038
11.793487 277.75223 -25.829042 2.3509886e-038
16.690063 277.89008 -25.841864 2.3509886e-038
21.499229 276.84012 -25.744225 2.3509886e-038
26.152269 274.539 -25.530235 2.3509886e-038
30.773638 272.6749 -25.356888 2.3509886e-038
34.435108 273.68613 -25.450926 2.3509886e-038
-70.881195 253.23724 -28.006147 2.3509528e-038
-69.482468 253.28061 -28.010944 2.3509528e-038
-65.397102 254.73055 -28.171295 2.3509528e-038
-61.903351 258.86789 -28.628855 2.3509528e-038
-58.500874 264.07465 -29.204683 2.3509528e-038
-54.609337 267.78198 -29.614685 2.3509528e-038
-52.709053 269.17987 -29.769285 2.3509528e-038
-46.906708 274.99567 -30.412466 2.3509528e-038
-46.465649 275.37943 -30.454906 2.3509528e-038
-41.992352 277.84903 -30.728025 2.3509528e-038
-37.305531 279.37057 -30.896299 2.3509528e-038
-32.498352 280.3158 -31.000832 2.3509528e-038
-27.717428 281.86649 -31.172327 2.3509528e-038
-22.883678 283.439 -31.346235 2.3509886e-038
-17.880747 283.20853 -31.320747 2.3509886e-038
-12.81856 281.49823 -31.131601 2.3509886e-038
-7.8566365 281.22266 -31.101122 2.3509886e-038
-2.9230604 282.75095 -31.270144 2.3509886e-038
2.0584619 283.47681 -31.350414 2.3509886e-038
7.0289664 282.73093 -31.267929 2.3509886e-038
11.958725 281.64377 -31.147697 2.3509886e-038
16.830486 280.22815 -30.991138 2.3509886e-038
21.598679 278.1207 -30.758072 2.3509886e-038
26.2486 275.55023 -30.473799 2.3509886e-038
30.956444 274.29468 -30.334942 2.3509886e-038
34.844292 276.48065 -30.576693 2.3509886e-038
-69.918442 255.46796 -32.748951 2.3509528e-038
-65.928688 256.80115 -32.919861 2.3509528e-038
-62.151222 259.90445 -33.317677 2.3509528e-038
-58.4431 263.81384 -33.818829 2.3509528e-038
-54.619827 267.8334 -34.334106 2.3509528e-038
-50.880062 273.06039 -35.004162 2.3509528e-038
-46.861168 277.72345 -35.601933 2.3509528e-038
-42.117332 278.67596 -35.724037 2.3509528e-038
-37.290226 279.25598 -35.798389 2.3509528e-038
-32.512943 280.44165 -35.950382 2.3509528e-038
-27.725651 281.95007 -36.143749 2.3509528e-038
-22.888859 283.50317 -36.342846 2.3509528e-038
-17.984522 284.8522 -36.515781 2.3509886e-038
-12.992138 285.31003 -36.574467 2.3509886e-038
-7.9659977 285.13718 -36.552311 2.3509886e-038
-2.9472382 285.08966 -36.546223 2.3509886e-038
2.0670173 284.65497 -36.490498 2.3509886e-038
7.0514054 283.63354 -36.359554 2.3509886e-038
11.996428 282.53174 -36.218315 2.3509886e-038
16.861757 280.74878 -35.989754 2.3509886e-038
21.607309 278.23187 -35.667107 2.3509886e-038
26.265167 275.72415 -35.345634 2.3509886e-038
31.053469 275.15439 -35.272598 2.3509886e-038
35.07341 278.23279 -35.667221 2.3509886e-038
-68.093567 258.92798 -37.7495 2.3509886e-038
-66.535217 259.16367 -37.783859 2.3509528e-038
-62.392635 260.914 -38.039043 2.3509528e-038
-58.447147 263.83212 -38.464481 2.3509528e-038
-54.55315 267.50644 -39.000168 2.3509528e-038
-50.693642 272.05991 -39.664024 2.3509528e-038
-46.502235 275.59625 -40.179592 2.3509528e-038
-41.798729 276.5679 -40.321251 2.3509528e-038
-37.058426 277.52008 -40.460068 2.3509528e-038
-32.361259 279.13327 -40.695259 2.3509528e-038
-27.612415 280.79858 -40.938046 2.3509528e-038
-22.804911 282.46338 -41.180759 2.3509528e-038
-17.941923 284.17749 -41.430664 2.3509886e-038
-12.989374 285.24933 -41.586929 2.3509886e-038
-7.9835968 285.76712 -41.662418 2.3509886e-038
-2.9571958 286.05289 -41.704079 2.3509886e-038
2.0726132 285.4256 -41.612629 2.3509886e-038
7.0612574 284.02982 -41.40913 2.3509886e-038
11.996742 282.53915 -41.191811 2.3509886e-038
16.836044 280.32065 -40.868366 2.3509886e-038
21.563324 277.66544 -40.481262 2.3509886e-038
26.260633 275.67654 -40.191296 2.3509886e-038
31.126934 275.80533 -40.210072 2.3509886e-038
35.217537 279.42377 -40.73761 2.3509886e-038
-65.476624 262.09488 -42.823925 2.3509886e-038
-62.752449 262.41867 -42.876823 2.3509886e-038
-58.526051 264.18829 -43.165966 2.3509528e-038
-54.43454 266.92484 -43.613094 2.3509528e-038
-50.346436 270.19653 -44.147659 2.3509528e-038
-45.984043 272.52518 -44.528141 2.3509528e-038
-41.358124 273.65256 -44.712341 2.3509528e-038
-36.740738 275.14102 -44.955544 2.3509528e-038
-32.135864 277.18912 -45.290184 2.3509528e-038
-27.460468 279.25339 -45.627468 2.3509528e-038
-22.699947 281.16327 -45.939526 2.3509528e-038
-17.864193 282.94635 -46.230865 2.3509528e-038
-12.959908 284.60226 -46.501423 2.3509886e-038
-7.9889092 285.95728 -46.72282 2.3509886e-038
-2.9630013 286.61444 -46.8302 2.3509886e-038
2.0770535 286.03708 -46.735863 2.3509886e-038
7.0724888 284.4816 -46.481705 2.3509886e-038
11.994793 282.49323 -46.156826 2.3509886e-038
16.808743 279.86606 -45.727573 2.3509886e-038
21.536779 277.32364 -45.312164 2.3509886e-038
26.280165 275.88159 -45.076546 2.3509886e-038
31.173031 276.21378 -45.130821 2.3509886e-038
35.194969 279.53403 -45.673317 2.3509886e-038
-62.379017 264.51367 -47.874439 2.3509886e-038
-58.657658 264.78238 -47.923069 2.3509886e-038
-54.267082 266.1037 -48.162216 2.3509528e-038
-49.916138 267.88724 -48.485023 2.3509528e-038
-45.455223 269.39111 -48.75721 2.3509528e-038
-40.910835 270.69299 -48.99284 2.3509528e-038
-36.371124 272.37308 -49.296917 2.3509528e-038
-31.826511 274.52078 -49.685631 2.3509528e-038
-27.22366 276.84521 -50.106331 2.3509528e-038
-22.534241 279.11081 -50.51638 2.3509528e-038
-17.752968 281.18463 -50.891724 2.3509528e-038
-12.911823 283.5463 -51.319164 2.3509886e-038
-7.9819884 285.70956 -51.71069 2.3509886e-038
-2.9645691 286.76611 -51.901917 2.3509886e-038
2.0799987 286.44269 -51.843384 2.3509886e-038
7.0829601 284.90277 -51.564671 2.3509886e-038
12.002229 282.66837 -51.160259 2.3509886e-038
16.82725 280.17422 -50.708851 2.3509886e-038
21.582087 277.90704 -50.298512 2.3509886e-038
26.352077 276.63651 -50.068558 2.3509886e-038
31.230251 276.72079 -50.083809 2.3509886e-038
35.123943 279.18552 -50.5299 2.3509886e-038
-59.073654 266.61313 -52.946674 2.3509886e-038
-59.06242 266.6095 -52.945953 2.3509886e-038
-54.247467 266.00751 -52.826408 2.3509886e-038
-49.607269 266.22961 -52.870514 2.3509886e-038
-45.016979 266.79385 -52.982567 2.3509528e-038
-40.485767 267.88046 -53.198357 2.3509528e-038
-35.97319 269.3931 -53.498749 2.3509528e-038
-31.456907 271.33273 -53.883945 2.3509528e-038
-26.901669 273.57077 -54.328392 2.3509528e-038
-22.295324 276.15161 -54.840919 2.3509528e-038
-17.606316 278.86188 -55.379154 2.3509886e-038
-12.84023 281.97412 -55.997211 2.3509886e-038
-7.9615388 284.97757 -56.593666 2.3509886e-038
-2.963007 286.61502 -56.91885 2.3509886e-038
2.0801809 286.46777 -56.889606 2.3509886e-038
7.0838094 284.93692 -56.585598 2.3509886e-038
12.010509 282.86337 -56.173813 2.3509886e-038
16.872152 280.92184 -55.788242 2.3509886e-038
21.668266 279.01675 -55.409912 2.3509886e-038
26.490715 278.09189 -55.226242 2.3509886e-038
31.483736 278.96686 -55.399998 2.3509886e-038
35.708832 282.44205 -56.090134 2.3509886e-038
-55.284885 268.14932 -57.971035 2.3509886e-038
-54.64259 267.94501 -57.926872 2.3509886e-038
-49.737782 266.93005 -57.707439 2.3509886e-038
-44.900021 266.10068 -57.528141 2.3509886e-038
-40.232063 266.20178 -57.550003 2.3509886e-038
-35.673313 267.14737 -57.754425 2.3509886e-038
-31.152514 268.70718 -58.09164 2.3509528e-038
-26.620987 270.71646 -58.526024 2.3509528e-038
-22.080559 273.49152 -59.125961 2.3509886e-038
-17.478672 276.84018 -59.849907 2.3509886e-038
-12.770809 280.44958 -60.630226 2.3509886e-038
-7.9326062 283.94193 -61.385231 2.3509886e-038
-2.9577408 286.10559 -61.852997 2.3509886e-038
2.0782666 286.20413 -61.874294 2.3509886e-038
7.0812864 284.83545 -61.5784 2.3509886e-038
12.020926 283.1087 -61.205097 2.3509886e-038
16.915596 281.64517 -60.888695 2.3509886e-038
21.756559 280.15369 -60.566254 2.3509886e-038
26.678688 280.06519 -60.547115 2.3509886e-038
32.054363 284.02298 -61.402752 2.3509886e-038
38.310368 294.9061 -63.755573 2.3509886e-038
-51.185749 272.14896 -63.625381 2.3509886e-038
-50.642498 271.78543 -63.54039 2.3509886e-038
-45.26289 268.25125 -62.714138 2.3509886e-038
-40.329411 266.84592 -62.385586 2.3509886e-038
-35.638 266.88293 -62.394238 2.3509886e-038
-31.050518 267.82742 -62.615051 2.3509886e-038
-26.499714 269.48322 -63.002155 2.3509886e-038
-21.974701 272.18033 -63.632713 2.3509886e-038
-17.409319 275.7417 -64.465324 2.3509886e-038
-12.726082 279.46738 -65.336349 2.3509886e-038
-7.9058995 282.98599 -66.158958 2.3509886e-038
-2.9505665 285.41162 -66.726044 2.3509886e-038
2.0765655 285.96988 -66.856552 2.3509886e-038
7.0871253 285.07034 -66.646248 2.3509886e-038
12.046456 283.70996 -66.328209 2.3509886e-038
16.971054 282.56857 -66.061371 2.3509886e-038
21.873814 281.66354 -65.849777 2.3509886e-038
26.94116 282.82053 -66.120277 2.3509886e-038
32.768646 290.35202 -67.88105 2.3509886e-038
39.97295 306.4053 -71.634132 2.3509886e-038
43.424568 314.28271 -73.475777 2.3509886e-038
-45.578243 272.41656 -68.482338 2.3509886e-038
-40.886059 270.52905 -68.007843 2.3509886e-038
-35.977562 269.42581 -67.730499 2.3509886e-038
-31.197336 269.09381 -67.647041 2.3509886e-038
-26.559996 270.09622 -67.899033 2.3509886e-038
-21.993698 272.41565 -68.482109 2.3509886e-038
-17.400574 275.60318 -69.283417 2.3509886e-038
-12.707657 279.06277 -70.153114 2.3509886e-038
-7.8920779 282.49127 -71.014999 2.3509886e-038
-2.9481304 285.17596 -71.689911 2.3509886e-038
2.0790558 286.31281 -71.975693 2.3509886e-038
7.1091032 285.95435 -71.88559 2.3509886e-038
12.096292 284.88367 -71.616425 2.3509886e-038
17.054058 283.95059 -71.381859 2.3509886e-038
22.035961 283.7515 -71.33181 2.3509886e-038
27.275448 286.3298 -71.979973 2.3509886e-038
33.349281 295.49683 -74.284447 2.3509886e-038
40.605801 311.25632 -78.246201 2.3509886e-038
48.044621 324.50031 -81.575577 2.3509886e-038
48.531395 325.23474 -81.760216 2.3509886e-038
-40.003986 277.68628 -74.694206 2.3509886e-038
-36.748024 275.19559 -74.024254 2.3509886e-038
-31.583439 272.42416 -73.27877 2.3509886e-038
-26.79508 272.48688 -73.295639 2.3509886e-038
-22.150833 274.36191 -73.799995 2.3509886e-038
-17.487206 276.97531 -74.502968 2.3509886e-038
-12.743209 279.84348 -75.274475 2.3509886e-038
-7.906343 283.00186 -76.124039 2.3509886e-038
-2.9570241 286.03629 -76.940262 2.3509886e-038
2.0899351 287.81104 -77.417648 2.3509886e-038
7.157342 287.89468 -77.440147 2.3509886e-038
12.188251 287.04941 -77.212784 2.3509886e-038
17.190861 286.22836 -76.991928 2.3509886e-038
22.254007 286.5592 -77.080917 2.3509886e-038
27.645115 290.21045 -78.063065 2.3509886e-038
33.779301 299.30707 -80.509949 2.3509886e-038
40.704929 312.01617 -83.928535 2.3509886e-038
47.782406 322.72925 -86.810226 2.3509886e-038
52.488159 328.23944 -88.292397 2.3509886e-038
-30.921488 277.03732 -79.39537 2.3509886e-038
-27.228449 276.89392 -79.354271 2.3509886e-038
-22.525351 279.0007 -79.958054 2.3509886e-038
-17.760712 281.30731 -80.619095 2.3509886e-038
-12.892633 283.12491 -81.139992 2.3509886e-038
-7.9769177 285.52805 -81.828697 2.3509886e-038
-2.9829028 288.53955 -82.691765 2.3509886e-038
2.1106641 290.66568 -83.301079 2.3509886e-038
7.2425423 291.32175 -83.489105 2.3509886e-038
12.364122 291.19144 -83.451752 2.3509886e-038
17.471766 290.90546 -83.369797 2.3509886e-038
22.651562 291.67844 -83.591324 2.3509886e-038
28.139021 295.39536 -84.656548 2.3509886e-038
34.170918 302.77704 -86.772049 2.3509886e-038
40.705597 312.02124 -89.421318 2.3509886e-038
47.45792 320.53763 -91.862 2.3509886e-038
54.176819 327.04263 -93.726257 2.3509886e-038
54.911465 327.60153 -93.886429 2.3509886e-038
-18.450623 290.26746 -88.295502 2.3509886e-038
-18.325081 290.24622 -88.28904 2.3509886e-038
-13.185284 289.55154 -88.077728 2.3509886e-038
-8.1274214 290.91519 -88.492538 2.3509886e-038
-3.0345242 293.53293 -89.288818 2.3509886e-038
2.1465371 295.60587 -89.919373 2.3509886e-038
7.3850751 297.05493 -90.360168 2.3509886e-038
12.654333 298.02631 -90.655632 2.3509886e-038
17.932024 298.56876 -90.820648 2.3509886e-038
23.263338 299.55609 -91.120979 2.3509886e-038
28.749249 301.80133 -91.803947 2.3509886e-038
34.493511 305.63544 -92.97023 2.3509886e-038
40.672386 311.76672 -94.835289 2.3509886e-038
47.262516 319.21783 -97.101822 2.3509886e-038
53.901867 325.38287 -98.977142 2.3509886e-038
55.944679 326.81296 -99.412148 2.3509886e-038
-7.5180483 300.522 -96.703827 2.3509886e-038
-3.1251364 302.29797 -97.275314 2.3509886e-038
2.2053514 303.70535 -97.728195 2.3509886e-038
7.5887794 305.24872 -98.224815 2.3509886e-038
13.015301 306.52756 -98.636337 2.3509886e-038
18.434374 306.93289 -98.766769 2.3509886e-038
23.846594 307.06656 -98.809776 2.3509886e-038
29.272646 307.29581 -98.883545 2.3509886e-038
34.814365 308.47842 -99.264091 2.3509886e-038
40.754314 312.39471 -100.52431 2.3509886e-038
47.132607 318.34042 -102.43755 2.3509886e-038
53.62413 323.7063 -104.16422 2.3509886e-038
55.361923 324.90359 -104.5495 2.3509886e-038
4.7521071 314.84912 -106.85525 2.3509886e-038
7.8281026 314.87515 -106.8641 2.3509886e-038
13.386701 315.27451 -106.99963 2.3509886e-038
18.894907 314.60077 -106.77097 2.3509886e-038
24.342319 313.44986 -106.38036 2.3509886e-038
29.76133 312.42584 -106.03284 2.3509886e-038
35.267246 312.49124 -106.05503 2.3509886e-038
41.069172 314.8082 -106.84136 2.3509886e-038
47.114269 318.21655 -107.99812 2.3509886e-038
53.13435 321.6402 -109.16005 2.3509886e-038
17.453571 321.9458 -114.92985 2.3509886e-038
19.296869 321.29349 -114.69698 2.3509886e-038
24.81531 319.54044 -114.07117 2.3509886e-038
30.276836 317.83749 -113.46325 2.3509886e-038
35.774536 316.98618 -113.15934 2.3509886e-038
41.458179 317.79007 -113.44632 2.3509886e-038
47.225632 318.96872 -113.86707 2.3509886e-038
48.594406 319.27145 -113.97514 2.3509886e-038
-68.089638 248.20338 -9.1153107 2.3509886e-038
-70.01825 255.23364 -32.322781 2.3509528e-038
-64.70472 252.03362 -9.0748177 2.3509528e-038
-66.903351 260.59763 -40.231258 2.3509886e-038
-60.867104 254.53452 -14.143641 2.3509528e-038
-63.133896 264.01379 -46.698719 2.3509886e-038
-57.97435 261.69788 -21.734499 2.3509528e-038
-59.064358 266.61823 -52.960239 2.3509886e-038
-50.279198 246.54871 16.499918 2.3418409e-038
-51.259159 251.35406 -13.597588 2.3509528e-038
-54.490696 267.2002 -27.639378 2.3509528e-038
-54.759407 268.51785 -58.672863 2.3509886e-038
-46.715759 250.71162 18.891382 2.3418409e-038
-48.178085 258.55954 -20.923012 2.3509528e-038
-50.778847 272.51718 -31.826727 2.3509528e-038
-50.771019 272.47519 -64.125565 2.3509886e-038
-42.827755 253.81938 19.237406 2.3418409e-038
-45.962051 272.39484 -68.166595 2.3509886e-038
-38.081249 251.9706 19.106329 2.3418409e-038
-41.6931 275.86899 -72.788475 2.3509886e-038
-32.349976 242.25983 20.533077 2.3418409e-038
-37.171124 278.36404 -76.817947 2.3509886e-038
-28.013151 241.62849 23.394428 2.3418409e-038
-32.11721 277.02823 -78.926453 2.3509886e-038
-24.184055 245.9346 24.21517 2.3418409e-038
-27.404015 278.67929 -81.149559 2.3509886e-038
-20.11731 249.17451 23.426489 2.3418409e-038
-22.957115 284.34857 -84.528633 2.3509886e-038
-15.797215 250.20799 22.509655 2.3509886e-038
-18.332947 290.37079 -88.382912 2.3509886e-038
-11.235806 246.74063 22.48007 2.3509886e-038
-13.369103 293.58829 -91.764084 2.3509886e-038
-6.8196945 244.10605 23.301752 2.3509886e-038
-8.3614473 299.29199 -95.936256 2.3509886e-038
-2.5445938 246.14143 23.530783 2.3509886e-038
-3.1699979 306.63745 -100.58913 2.3509886e-038
1.8389928 253.25304 21.143375 2.3509886e-038
2.2708676 312.72778 -105.02774 2.3509886e-038
6.5708055 264.302 12.343447 2.3509886e-038
7.8880377 317.28595 -109.07838 2.3509886e-038
10.979414 258.57974 8.938921 2.3509886e-038
13.62895 320.9798 -112.87712 2.3509886e-038
15.144679 252.15936 10.036965 2.3509886e-038
19.349844 322.17548 -115.86018 2.3509886e-038
19.29229 248.42192 11.001399 2.3509886e-038
25.047977 322.53644 -118.30415 2.3509886e-038
23.415148 245.80547 8.9219828 2.3509886e-038
30.621384 321.45447 -119.3796 2.3509886e-038
28.913738 256.19495 0.02555494 2.3509886e-038
36.126389 320.10382 -119.12212 2.3509886e-038
38.673496 296.44458 -64.497612 2.3509886e-038
41.684464 319.52463 -117.76888 2.3509886e-038
48.058121 324.59149 -81.015778 2.3509886e-038
47.253696 319.15829 -114.94242 2.3509886e-038
54.319775 327.90561 -92.124115 2.3509886e-038
53.311836 321.82111 -108.92898 2.3509886e-038
