# .PCD v0.7 - Point Cloud Data file format
VERSION 0.7
FIELDS x y z rgb
SIZE 4 4 4 4
TYPE F F F F
COUNT 1 1 1 1
WIDTH 670
HEIGHT 1
VIEWPOINT 0 0 0 1 0 0 0
POINTS 670
DATA ascii
28.019918 258.66891 37.765976 2.3418052e-038
-90.259148 258.97916 53.667606 9.1476764e-041
-15.787834 257.86026 70.438026 3.5733111e-043
0 0 0 2.3509528e-038
-55.197456 249.35979 57.54628 2.3418409e-038
-17.156639 256.56134 75.424522 3.5733111e-043
-14.370432 254.75677 74.894012 3.5733111e-043
-13.936331 254.55209 74.833839 3.5733111e-043
-20.770248 263.49219 72.679131 3.5733111e-043
-19.519402 261.7923 72.210251 3.5733111e-043
-14.485965 256.8049 70.834579 3.5733111e-043
-11.202508 255.60722 70.504219 3.5733111e-043
-21.638567 267.7981 69.00573 3.5733111e-043
-19.738131 264.72586 68.214081 3.5733111e-043
-14.609913 259.00226 66.739235 3.5733111e-043
-10.197965 257.7023 66.404259 3.5733111e-043
-59.943848 246.54163 59.053131 2.3418409e-038
-58.658257 246.53589 59.051754 2.3418409e-038
-54.108501 246.19646 58.970455 2.3418409e-038
-50.245689 245.08142 58.703373 2.3418409e-038
-21.792669 268.83279 64.392448 3.5733111e-043
-19.829029 265.94498 63.700745 3.5733111e-043
-14.705846 260.70294 62.445133 3.5733111e-043
-9.933177 259.64804 62.192463 3.5733111e-043
-9.4230528 259.76398 62.22023 3.5733111e-043
-93.410286 257.87042 57.085777 9.1476764e-041
-88.690292 255.7075 56.606964 9.1476764e-041
-85.312202 255.81557 56.630886 9.1476764e-041
-61.952019 255.02643 56.456192 2.3418409e-038
-60.564369 254.54712 56.350086 2.3418409e-038
-55.653175 253.22482 56.057365 2.3418409e-038
-50.943256 252.66263 55.932911 2.3418409e-038
-48.011116 253.48163 56.114212 2.3418409e-038
-21.80048 268.67456 59.477531 3.5733111e-043
-19.846077 266.17365 58.923893 3.5733111e-043
-14.756052 261.59299 57.909855 3.5733111e-043
-9.9950886 261.26639 57.837555 3.5733111e-043
-8.8319712 262.05539 58.012222 3.5733111e-043
-95.085487 261.34738 53.111465 9.1476764e-041
-89.922287 259.25952 52.687168 9.1476764e-041
-85.300072 259.51477 52.73904 9.1476764e-041
-82.74929 260.93411 53.027481 9.1476764e-041
-62.776573 263.79364 53.608601 2.3509886e-038
-62.761478 263.7814 53.606113 2.3509886e-038
-57.204529 260.28357 52.895275 2.3418409e-038
-52.316536 259.47369 52.730686 2.3418409e-038
-47.801098 260.53409 52.946182 2.3418409e-038
-46.17075 261.21173 53.083897 2.3418409e-038
-21.96979 269.56479 54.781418 3.5733111e-043
-19.877661 266.59723 54.178349 3.5733111e-043
-14.765029 261.75214 53.193718 3.5733111e-043
-10.033357 262.26669 53.29829 3.5733111e-043
-8.4778929 264.15463 53.681961 3.5733111e-043
-95.540916 266.17093 49.260143 9.1476764e-041
-91.641205 264.21542 48.898239 9.1476764e-041
-86.432655 262.96051 48.665997 9.1476764e-041
-81.897224 263.7265 48.807755 9.1476764e-041
-80.542351 264.2807 48.910324 9.1476764e-041
-61.854679 267.71051 49.545074 2.3509886e-038
-58.327888 265.3949 49.116528 2.3418409e-038
-53.299034 264.34656 48.922512 2.3418409e-038
-48.528866 264.5007 48.951038 2.3418409e-038
-43.962666 264.37256 48.927322 2.3418409e-038
-22.364429 270.18558 50.003136 2.3509886e-038
-19.871506 266.51465 49.323761 3.5733111e-043
-14.758115 261.62955 48.419674 3.5733111e-043
-10.03171 262.22363 48.529621 3.5733111e-043
-8.3378887 264.38275 48.929207 3.5733111e-043
-94.944611 270.60406 45.168537 9.1476764e-041
-93.472305 269.49475 44.983368 9.1476764e-041
-87.470856 266.11911 44.419918 9.1476764e-041
-82.375587 265.26694 44.277672 9.1476764e-041
-77.826195 265.99738 44.399601 2.3509886e-038
-60.874416 272.67981 45.515011 2.3509886e-038
-59.785656 272.02783 45.406185 2.3509886e-038
-54.469444 270.15143 45.092979 2.3418409e-038
-49.318745 268.80585 44.868385 2.3418409e-038
-44.17017 267.1777 44.596615 2.3418409e-038
-42.12838 267.19083 44.598804 2.3418409e-038
-23.058371 270.95453 45.227032 2.3509886e-038
-19.867973 266.46732 44.478035 3.5733111e-043
-14.767238 261.79129 43.697529 3.5733111e-043
-10.011121 261.68546 43.679863 3.5733111e-043
-8.2864666 263.24228 43.939724 3.5733111e-043
-92.741333 271.53418 40.394863 9.1476764e-041
-88.208672 268.3638 39.923222 9.1476764e-041
-82.734741 266.42349 39.634571 9.1476764e-041
-78.176025 267.37238 39.77573 9.1476764e-041
-75.270576 269.25302 40.055508 9.1476764e-041
-60.312111 280.04486 41.660957 2.3509886e-038
-55.910824 277.3002 41.252647 2.3418409e-038
-50.149746 273.33514 40.662781 2.3418409e-038
-44.658295 270.13028 40.186008 2.3418409e-038
-40.532913 269.52191 40.095509 2.3418409e-038
-23.874502 271.60538 40.405453 2.3509886e-038
-19.873259 266.53818 39.65163 3.5733111e-043
-14.805482 262.46927 39.046318 3.5733111e-043
-10.023698 262.01422 38.978622 3.5733111e-043
-8.342205 262.9086 39.111679 3.5733111e-043
24.024021 262.78635 39.093491 2.3418052e-038
27.760382 259.53793 38.610237 2.3418052e-038
32.02824 257.8299 38.35614 2.3418052e-038
-90.209167 271.43567 35.453068 9.1476764e-041
-88.903358 270.47733 35.327888 9.1476764e-041
-83.140648 267.73059 34.969131 9.1476764e-041
-78.522415 268.55707 35.07708 9.1476764e-041
-74.350334 271.11987 35.411816 9.1476764e-041
-72.716461 272.35162 35.572701 2.3509886e-038
-59.420036 285.82187 37.332088 2.3509886e-038
-57.212135 283.75433 37.062042 2.3509886e-038
-50.847443 277.13782 36.197838 2.3418409e-038
-45.0252 272.34964 35.572441 2.3418409e-038
-39.82798 270.62723 35.347469 2.3418409e-038
-39.200981 270.56671 35.339565 2.3418409e-038
-24.628807 273.5795 35.733078 2.3509886e-038
-19.967119 267.79703 34.97781 3.5733111e-043
-14.907191 264.27237 34.517441 3.5733111e-043
-10.105506 264.15262 34.501801 3.5733111e-043
-8.6468506 264.76224 34.581425 3.5733111e-043
20.768616 264.5578 34.554722 2.3418052e-038
23.270418 262.02872 34.224392 2.3418052e-038
27.70372 259.00821 33.829872 2.3418052e-038
31.773251 258.42883 33.7542 2.3418052e-038
-88.188339 272.41483 30.636045 9.1476764e-041
-83.930054 270.27264 30.395134 9.1476764e-041
-79.114464 270.58197 30.42992 9.1476764e-041
-74.687546 272.34955 30.628704 9.1476764e-041
-70.180557 273.88123 30.800959 2.3509886e-038
-57.955711 288.77109 32.475487 2.3509886e-038
-51.462177 280.48837 31.544004 2.3418409e-038
-45.33321 274.21271 30.838238 2.3418409e-038
-40.028679 271.99097 30.588377 2.3418409e-038
-38.335472 272.24228 30.616642 2.3418409e-038
-25.357841 277.57837 31.21674 2.3509886e-038
-20.150764 270.26007 30.393719 3.5733111e-043
-15.049386 266.79315 30.003826 3.5733111e-043
-10.21158 266.92535 30.018694 3.5733111e-043
-9.2720919 267.30673 30.061586 3.5733111e-043
17.802254 266.78357 30.002748 2.3418052e-038
18.771143 265.66754 29.877237 2.3418052e-038
23.241413 261.70212 29.431284 2.3418052e-038
27.775681 259.681 29.203985 2.3418052e-038
30.707138 259.5784 29.19245 2.3418052e-038
-86.92981 275.7753 26.008062 9.1476764e-041
-85.342827 274.82205 25.918161 9.1476764e-041
-79.969841 273.50745 25.794182 9.1476764e-041
-75.127228 273.95285 25.836187 9.1476764e-041
-70.450142 275.1077 25.945099 2.3509886e-038
-68.49485 276.7045 26.095692 2.3509886e-038
-56.369534 290.7959 27.424635 2.3509886e-038
-52.186058 284.43378 26.824633 2.3418409e-038
-45.752289 276.74765 26.099762 2.3418409e-038
-40.356846 274.22079 25.861458 2.3418409e-038
-37.577686 275.88208 26.018129 2.3418409e-038
-26.411535 282.47467 26.63987 2.3509886e-038
-26.140707 281.9537 26.590738 2.3509886e-038
-20.31374 272.44589 25.694067 3.5733111e-043
-15.156422 268.69067 25.339918 3.5733111e-043
-10.287377 268.90665 25.360287 3.5733111e-043
-10.104367 268.98065 25.367266 3.5733111e-043
14.584358 268.37256 25.309917 2.3418052e-038
18.679977 264.37723 24.933123 2.3418052e-038
23.240797 261.69519 24.68018 2.3418052e-038
27.982428 261.61389 24.672516 2.3418052e-038
29.205975 262.15216 24.723278 2.3418052e-038
-85.41362 279.0899 21.25457 9.1476764e-041
-80.785782 276.29807 21.041954 9.1476764e-041
-75.414017 274.9986 20.942989 9.1476764e-041
-70.721306 276.1666 21.03194 9.1476764e-041
-66.679123 279.37192 21.276047 2.3509886e-038
-54.459522 289.27502 22.030235 2.3509886e-038
-52.612915 286.76031 21.838724 2.3509886e-038
-46.180576 279.33829 21.273487 2.3418409e-038
-40.695839 276.52423 21.059177 2.3418409e-038
-36.195324 280.54688 21.365526 2.3418409e-038
-35.874363 281.31534 21.424051 2.3418409e-038
-28.350359 284.50754 21.66716 2.3509886e-038
-26.064812 281.13507 21.410324 2.3509886e-038
-20.399218 273.59232 20.835892 3.5733111e-043
-15.263527 270.58942 20.607199 3.5733111e-043
-10.778571 271.11285 20.647064 3.5733111e-043
11.007499 269.72919 20.541689 2.3418052e-038
13.991325 266.4791 20.294172 2.3418052e-038
18.554697 262.60416 19.999067 2.3418052e-038
23.223858 261.50446 19.915318 2.3418052e-038
27.030989 263.7854 20.089029 2.3418052e-038
-83.070061 280.63013 16.277836 9.1476764e-041
-81.671326 279.32675 16.202234 9.1476764e-041
-75.580505 275.60571 15.986396 9.1476764e-041
-70.738319 276.23303 16.022783 9.1476764e-041
-66.330986 278.78375 16.170736 2.3509886e-038
-63.436687 281.03152 16.301117 2.3509886e-038
-53.56163 287.59198 16.681654 2.3509886e-038
-52.652489 286.97601 16.645926 2.3509886e-038
-46.490437 281.21259 16.311621 2.3418409e-038
-40.93285 278.1347 16.133089 2.3418409e-038
-36.126717 280.01511 16.242161 2.3418409e-038
-31.369381 282.95145 16.412481 2.3418409e-038
-25.896847 279.32343 16.20204 2.3509886e-038
-20.480913 274.68802 15.933166 2.3509886e-038
-15.397396 272.96262 15.833085 2.3509886e-038
-10.900878 273.92087 15.888667 3.5733111e-043
7.1006308 274.76868 15.937844 2.3418052e-038
9.3184729 271.26224 15.734454 2.3418052e-038
13.943836 265.57465 15.404548 2.3418052e-038
18.533785 262.30817 15.215077 2.3418052e-038
23.264126 261.95786 15.194757 2.3509886e-038
24.172396 262.61331 15.232779 2.3509886e-038
-80.224037 280.6394 11.184161 9.1476764e-041
-76.106216 277.52271 11.059953 9.1476764e-041
-70.973541 277.15155 11.045161 2.3509886e-038
-66.325981 278.76273 11.109371 2.3509886e-038
-61.522552 279.93076 11.15592 2.3509886e-038
-57.103214 283.21408 11.286768 2.3509886e-038
-52.437653 285.80508 11.390026 2.3509886e-038
-46.677837 282.34616 11.252179 2.3509886e-038
-41.164253 279.70706 11.147005 2.3418409e-038
-36.094841 279.76804 11.149435 2.3509886e-038
-31.046473 280.03882 11.160226 2.3509886e-038
-25.792015 278.19269 11.086654 2.3509886e-038
-20.568663 275.8649 10.993885 2.3509886e-038
-15.49538 274.69968 10.947449 2.3418052e-038
-10.519894 274.9845 10.9588 2.3418052e-038
-9.8296299 275.19672 10.967256 2.3418052e-038
1.95837 276.26843 11.009967 2.3418052e-038
4.4505696 274.72409 10.948421 2.3418052e-038
9.287652 270.36499 10.774701 2.3418052e-038
14.007963 266.79599 10.632467 2.3418052e-038
18.709068 264.78897 10.552484 2.3418052e-038
21.42141 264.16281 10.527529 2.3509886e-038
-78.029617 281.87375 6.116744 2.3509886e-038
-77.104309 281.16229 6.101305 2.3509886e-038
-71.558586 279.43616 6.063848 2.3509886e-038
-66.674149 280.22601 6.0809879 2.3509886e-038
-61.704021 280.75647 6.0924988 2.3509886e-038
-56.855724 281.98663 6.1191936 2.3509886e-038
-52.002716 283.43451 6.1506133 2.3509886e-038
-46.727402 282.64594 6.1335011 2.3509886e-038
-41.436611 281.55771 6.1098857 2.3509886e-038
-36.250084 280.97131 6.0971608 2.3509886e-038
-31.052172 280.09021 6.0780406 2.3509886e-038
-25.832687 278.63138 6.0463839 2.3509886e-038
-20.667513 277.19064 6.0151196 2.3509886e-038
-15.561756 275.87637 5.9865994 2.3418052e-038
-10.511591 274.76749 5.9625363 2.3418052e-038
-5.5243888 274.78802 5.9629812 2.3418052e-038
-0.53455168 273.84015 5.9424129 2.3418052e-038
4.4069104 272.02914 5.9031129 2.3418052e-038
9.2834759 270.24344 5.8643627 2.3418052e-038
14.128694 269.09543 5.8394504 2.3418052e-038
18.817072 269.3461 5.8448901 2.3418052e-038
-76.557953 284.17691 1.0083078 2.3509886e-038
-72.29158 282.29849 1.0016429 2.3509886e-038
-67.010719 281.64059 0.99930853 2.3509886e-038
-61.884445 281.57742 0.99908435 2.3509886e-038
-56.855537 281.98569 1.000533 2.3509886e-038
-51.887016 282.80389 1.0034361 2.3509886e-038
-46.780918 282.96967 1.0040241 2.3509886e-038
-41.610035 282.73611 1.0031956 2.3509886e-038
-36.458977 282.59042 1.0026786 2.3509886e-038
-31.247232 281.84964 1.0000502 2.3509886e-038
-25.983541 280.25851 0.99440467 2.3509886e-038
-20.792318 278.86453 0.9894585 2.3509886e-038
-15.636872 277.20804 0.98358107 2.3509886e-038
-10.528704 275.21481 0.9765088 2.3418052e-038
-5.5119991 274.17175 0.97280777 2.3418052e-038
-0.53334957 273.22437 0.96944624 2.3418052e-038
4.4094529 272.18607 0.96576226 2.3418052e-038
9.3226366 271.38342 0.96291435 2.3418052e-038
14.238309 271.18317 0.9622038 2.3509886e-038
16.068743 271.57809 0.96360505 2.3509886e-038
-75.564896 286.74866 -4.1876755 2.3509886e-038
-72.997726 285.056 -4.1629562 2.3509886e-038
-67.214935 282.4989 -4.1256123 2.3509886e-038
-61.968506 281.9599 -4.1177402 2.3509886e-038
-56.982037 282.6131 -4.1272798 2.3509886e-038
-52.04768 283.67957 -4.1428547 2.3509886e-038
-46.969769 284.11197 -4.1491694 2.3509886e-038
-41.786034 283.93201 -4.1465411 2.3509886e-038
-36.620705 283.84399 -4.1452556 2.3509886e-038
-31.416849 283.37958 -4.138474 2.3509886e-038
-26.154566 282.10318 -4.119833 2.3509886e-038
-20.934647 280.77344 -4.1004133 2.3509886e-038
-15.751557 279.24115 -4.0780363 2.3509886e-038
-10.61599 277.4964 -4.0525556 2.3509886e-038
-5.5534945 276.23575 -4.0341454 2.3418052e-038
-0.53701091 275.09998 -4.0175581 2.3418052e-038
4.4402537 274.08734 -4.0027699 2.3418052e-038
9.3765488 272.95282 -3.9862013 2.3509886e-038
13.850391 272.80032 -3.9839745 2.3509886e-038
-74.524719 288.18344 -9.4397821 2.3509886e-038
-73.586998 287.35712 -9.412715 2.3509886e-038
-67.347733 283.05707 -9.271862 2.3509886e-038
-62.018402 282.18692 -9.2433586 2.3509886e-038
-57.1217 283.30579 -9.2800093 2.3509886e-038
-52.193878 284.47644 -9.3183546 2.3509886e-038
-47.128559 285.07248 -9.3378792 2.3509886e-038
-41.961624 285.12512 -9.3396034 2.3509886e-038
-36.757191 284.90186 -9.3322897 2.3509886e-038
-31.534851 284.44397 -9.3172922 2.3509886e-038
-26.308681 283.76547 -9.2950659 2.3509886e-038
-21.067375 282.55356 -9.2553682 2.3509886e-038
-15.871111 281.3606 -9.2162914 2.3509886e-038
-10.726698 280.39026 -9.1845074 2.3509886e-038
-5.609025 278.99786 -9.1388979 2.3509886e-038
-0.5411427 277.21661 -9.0805502 2.3509886e-038
4.4687576 275.8468 -9.0356817 2.3509886e-038
9.4373026 274.72134 -8.9988155 2.3509886e-038
12.352332 274.52338 -8.9923315 2.3509886e-038
-73.270454 287.99734 -14.661451 2.3509886e-038
-67.386635 283.22052 -14.418271 2.3509886e-038
-62.02792 282.23022 -14.367857 2.3509886e-038
-57.230576 283.84579 -14.450102 2.3509886e-038
-52.26786 284.87967 -14.502735 2.3509886e-038
-47.137806 285.12842 -14.515399 2.3509886e-038
-42.003227 285.40781 -14.529622 2.3509886e-038
-36.847553 285.60226 -14.539522 2.3509886e-038
-31.628441 285.28815 -14.523531 2.3509886e-038
-26.388132 284.62244 -14.48964 2.3509886e-038
-21.131691 283.41614 -14.428231 2.3509886e-038
-15.938517 282.55554 -14.384418 2.3509886e-038
-10.786954 281.96533 -14.354372 2.3509886e-038
-5.6370745 280.3931 -14.274332 2.3509886e-038
-0.54306257 278.20013 -14.162691 2.3509886e-038
4.4816027 276.63971 -14.083253 2.3509886e-038
9.481679 276.01315 -14.051357 2.3509886e-038
11.36865 276.0824 -14.054881 2.3509886e-038
-72.144127 287.23001 -19.836226 2.3509886e-038
-67.264183 282.7059 -19.523787 2.3509886e-038
-61.856915 281.45215 -19.437201 2.3509886e-038
-57.172993 283.56018 -19.582785 2.3509886e-038
-52.253021 284.79877 -19.668322 2.3509886e-038
-47.120419 285.02325 -19.683823 2.3509886e-038
-42.009869 285.45294 -19.713499 2.3509886e-038
-36.922844 286.18579 -19.764111 2.3509886e-038
-31.723679 286.14722 -19.761444 2.3509886e-038
-26.438747 285.16833 -19.693844 2.3509886e-038
-21.16901 283.91669 -19.607405 2.3509886e-038
-15.976401 283.22714 -19.559784 2.3509886e-038
-10.813853 282.66846 -19.5212 2.3509886e-038
-5.652648 281.16772 -19.417561 2.3509886e-038
-0.54455489 278.9646 -19.265411 2.3509886e-038
4.4948964 277.46033 -19.161526 2.3509886e-038
9.5198832 277.12534 -19.13839 2.3509886e-038
10.889357 277.26135 -19.147783 2.3509886e-038
-71.395683 286.29242 -24.96829 2.3509886e-038
-67.03775 281.75421 -24.5725 2.3509886e-038
-61.489101 279.77856 -24.4002 2.3509886e-038
-56.840473 281.91098 -24.586172 2.3509886e-038
-52.068207 283.79144 -24.750174 2.3509886e-038
-47.083672 284.80096 -24.838217 2.3509886e-038
-42.021351 285.53094 -24.90188 2.3509886e-038
-36.976967 286.60532 -24.995579 2.3509886e-038
-31.806074 286.89041 -25.020443 2.3509886e-038
-26.507141 285.90604 -24.934591 2.3509886e-038
-21.218176 284.57608 -24.818604 2.3509886e-038
-16.006523 283.76114 -24.74753 2.3509886e-038
-10.834256 283.20178 -24.698748 2.3509886e-038
-5.6695943 282.01065 -24.594864 2.3509886e-038
-0.5469265 280.17957 -24.435171 2.3509886e-038
4.515697 278.74429 -24.309996 2.3509886e-038
9.5572243 278.21231 -24.263601 2.3509886e-038
10.956038 278.2403 -24.266045 2.3509886e-038
-71.142601 284.16428 -29.940895 2.3509886e-038
-66.733269 280.47452 -29.552124 2.3509886e-038
-61.157013 278.26755 -29.31959 2.3509886e-038
-56.427441 279.86249 -29.48764 2.3509886e-038
-51.743465 282.02148 -29.71512 2.3509886e-038
-46.924126 283.83588 -29.906296 2.3509886e-038
-41.960735 285.11908 -30.041498 2.3509886e-038
-36.960716 286.47937 -30.184826 2.3509886e-038
-31.847179 287.26117 -30.267199 2.3509886e-038
-26.590063 286.80045 -30.218653 2.3509886e-038
-21.289623 285.53433 -30.085249 2.3509886e-038
-16.04343 284.41544 -29.967356 2.3509886e-038
-10.848359 283.57043 -29.878326 2.3509886e-038
-5.6765442 282.35635 -29.750402 2.3509886e-038
-0.54818344 280.82343 -29.58889 2.3509886e-038
4.5250211 279.31985 -29.430464 2.3509886e-038
9.5659189 278.46542 -29.340437 2.3509886e-038
11.499386 278.36389 -29.329737 2.3509886e-038
-85.697273 227.00478 -28.038919 2.3509886e-038
-82.942642 227.2433 -28.06838 2.3509886e-038
-79.565887 229.40045 -28.334824 2.3509886e-038
-76.285469 232.08897 -28.666903 2.3509886e-038
-73.405739 236.3821 -29.197176 2.3509886e-038
-71.618835 244.94591 -30.254951 2.3509886e-038
-71.392174 252.66212 -31.208033 2.3509886e-038
-71.403267 272.68295 -33.680946 2.3509886e-038
-70.562294 275.54565 -34.034534 2.3509886e-038
-66.044228 277.57849 -34.285625 2.3509886e-038
-60.89975 277.09698 -34.226151 2.3509886e-038
-56.128048 278.37759 -34.384331 2.3509886e-038
-51.440876 280.37225 -34.630703 2.3509886e-038
-46.702965 282.49814 -34.893284 2.3509886e-038
-41.834602 284.26202 -35.111156 2.3509886e-038
-36.884789 285.89084 -35.31234 2.3509886e-038
-31.836763 287.16724 -35.469994 2.3509886e-038
-26.645334 287.39661 -35.498329 2.3509886e-038
-21.354265 286.40131 -35.375389 2.3509886e-038
-16.083464 285.12512 -35.217762 2.3509886e-038
-10.861692 283.91895 -35.068775 2.3509886e-038
-5.6774969 282.40375 -34.881626 2.3509886e-038
-0.54817647 280.81985 -34.685989 2.3509886e-038
4.5233822 279.21869 -34.488216 2.3509886e-038
9.5515785 278.04794 -34.343613 2.3509886e-038
12.245259 277.86102 -34.320522 2.3509886e-038
-82.774193 223.80733 -31.706556 2.3509886e-038
-81.688622 223.80757 -31.706594 2.3509886e-038
-78.097862 225.16791 -31.899311 2.3509886e-038
-75.005943 228.19617 -32.328323 2.3509886e-038
-72.343773 232.96236 -33.003544 2.3509886e-038
-70.230698 240.1983 -34.028648 2.3509886e-038
-69.249329 252.51898 -35.774109 2.3509886e-038
-68.178307 266.23615 -37.717407 2.3509886e-038
-65.059189 273.43848 -38.737755 2.3509886e-038
-60.57542 275.62131 -39.046993 2.3509886e-038
-55.911572 277.30392 -39.28537 2.3509886e-038
-51.237114 279.26169 -39.562721 2.3509886e-038
-46.489784 281.20865 -39.838547 2.3509886e-038
-41.652996 283.02805 -40.096298 2.3509886e-038
-36.773876 285.03116 -40.380081 2.3509886e-038
-31.785887 286.70831 -40.61768 2.3509886e-038
-26.655582 287.50714 -40.73085 2.3509886e-038
-21.393257 286.92426 -40.648266 2.3509886e-038
-16.110498 285.6044 -40.461288 2.3509886e-038
-10.872618 284.2045 -40.262966 2.3509886e-038
-5.6806207 282.55911 -40.029865 2.3509886e-038
-0.54833841 280.90283 -39.795219 2.3509886e-038
4.5253839 279.34222 -39.574131 2.3509886e-038
9.55229 278.06866 -39.393707 2.3509886e-038
12.8898 277.95709 -39.377899 2.3509886e-038
-78.790665 225.97693 -36.115883 2.3509886e-038
-78.45929 226.20996 -36.15313 2.3509886e-038
-75.423141 229.46545 -36.673428 2.3509886e-038
-72.611565 233.82471 -37.370125 2.3509886e-038
-70.179741 240.024 -38.360905 2.3509886e-038
-68.518982 249.85574 -39.932224 2.3509886e-038
-66.888931 261.20114 -41.745461 2.3509886e-038
-64.043205 269.16837 -43.018791 2.3509886e-038
-60.030151 273.14029 -43.653584 2.3509886e-038
-55.553566 275.52835 -44.035248 2.3509886e-038
-50.943096 277.65918 -44.375805 2.3509886e-038
-46.200218 279.45712 -44.663151 2.3509886e-038
-41.410049 281.37723 -44.970024 2.3509886e-038
-36.630657 283.92108 -45.376587 2.3509886e-038
-31.721365 286.12634 -45.729034 2.3509886e-038
-26.647881 287.42407 -45.936436 2.3509886e-038
-21.420469 287.28925 -45.914886 2.3509886e-038
-16.127827 285.91159 -45.694714 2.3509886e-038
-10.884651 284.51907 -45.47216 2.3509886e-038
-5.6885324 282.95264 -45.221809 2.3509886e-038
-0.54923421 281.36172 -44.967548 2.3509886e-038
4.5385246 280.15335 -44.774426 2.3509886e-038
9.5923748 279.23553 -44.627739 2.3509886e-038
13.292462 279.41287 -44.656078 2.3509886e-038
-76.097466 235.52815 -41.917713 2.3509886e-038
-73.910652 238.00804 -42.359066 2.3509886e-038
-71.155739 243.36208 -43.311939 2.3509886e-038
-68.706909 250.541 -44.5896 2.3509886e-038
-66.148338 258.30914 -45.972118 2.3509886e-038
-62.968052 264.6496 -47.100552 2.3509886e-038
-59.109303 268.95038 -47.865971 2.3509886e-038
-54.821857 271.89929 -48.3908 2.3509886e-038
-50.361149 274.48734 -48.85141 2.3509886e-038
-45.759045 276.78854 -49.260956 2.3509886e-038
-41.117527 279.38956 -49.723869 2.3509886e-038
-36.462597 282.6185 -50.298534 2.3509886e-038
-31.663559 285.60492 -50.830036 2.3509886e-038
-26.644531 287.38794 -51.147369 2.3509886e-038
-21.442253 287.58139 -51.181797 2.3509886e-038
-16.142429 286.17047 -50.930695 2.3509886e-038
-10.896922 284.83984 -50.693874 2.3509886e-038
-5.7007055 283.55817 -50.465771 2.3509886e-038
-0.55107474 282.30463 -50.242668 2.3509886e-038
4.5638447 281.71634 -50.137974 2.3509886e-038
9.6700306 281.49609 -50.098782 2.3509886e-038
13.443822 282.11465 -50.208862 2.3509886e-038
-74.735374 249.16447 -48.867493 2.3509886e-038
-73.137428 250.13968 -49.058758 2.3509886e-038
-69.492867 253.40703 -49.699566 2.3509886e-038
-65.904465 257.35681 -50.474224 2.3509886e-038
-62.108681 261.03775 -51.196144 2.3509886e-038
-58.113373 264.41885 -51.859264 2.3509886e-038
-53.916107 267.40707 -52.445332 2.3509886e-038
-49.589024 270.27896 -53.008583 2.3509886e-038
-45.157593 273.15045 -53.571754 2.3509886e-038
-40.708736 276.61188 -54.250626 2.3509886e-038
-36.214748 280.69745 -55.05191 2.3509886e-038
-31.562109 284.68985 -55.834923 2.3509886e-038
-26.623087 287.15665 -56.318726 2.3509886e-038
-21.462711 287.85577 -56.455845 2.3509886e-038
-16.17149 286.68561 -56.226341 2.3509886e-038
-10.91477 285.30637 -55.955837 2.3509886e-038
-5.7147489 284.25668 -55.749973 2.3509886e-038
-0.5530898 283.33688 -55.569569 2.3509886e-038
4.5908966 283.38617 -55.579243 2.3509886e-038
9.7713585 284.4458 -55.787056 2.3509886e-038
13.386538 286.06873 -56.105362 2.3509886e-038
-72.667686 260.49982 -55.819271 2.3509886e-038
-71.341339 260.14752 -55.743778 2.3509886e-038
-66.458023 259.51846 -55.60899 2.3509886e-038
-61.894928 260.13934 -55.742027 2.3509886e-038
-57.605087 262.10611 -56.163464 2.3509886e-038
-53.29129 264.30817 -56.635311 2.3509886e-038
-48.920242 266.63388 -57.133659 2.3509886e-038
-44.55677 269.51617 -57.75127 2.3509886e-038
-40.236553 273.40344 -58.584229 2.3509886e-038
-35.873512 278.05258 -59.580429 2.3509886e-038
-31.36377 282.90085 -60.619305 2.3509886e-038
-26.551361 286.383 -61.365456 2.3509886e-038
-21.479191 288.07678 -61.728397 2.3509886e-038
-16.22139 287.57028 -61.619862 2.3509886e-038
-10.95189 286.27667 -61.34267 2.3509886e-038
-5.7343917 285.23373 -61.119194 2.3509886e-038
-0.55524457 284.44073 -60.949268 2.3509886e-038
4.6220503 285.30923 -61.135372 2.3509886e-038
9.9239073 288.88651 -61.901905 2.3509886e-038
13.063638 292.42596 -62.660328 2.3509886e-038
-68.707603 265.34323 -61.673649 2.3509886e-038
-67.761101 264.60699 -61.502525 2.3509886e-038
-62.456757 262.50067 -61.012959 2.3509886e-038
-57.784939 262.92444 -61.11145 2.3509886e-038
-53.145332 263.58426 -61.264812 2.3509886e-038
-48.603088 264.90524 -61.57185 2.3509886e-038
-44.247231 267.64383 -62.208382 2.3509886e-038
-39.975391 271.62885 -63.134617 2.3509886e-038
-35.627796 276.14801 -64.185005 2.3509886e-038
-31.16815 281.13632 -65.344437 2.3509886e-038
-26.464399 285.44504 -66.345909 2.3509886e-038
-21.48258 288.12222 -66.968163 2.3509886e-038
-16.261072 288.27374 -67.003387 2.3509886e-038
-10.991 287.29901 -66.776825 2.3509886e-038
-5.7598834 286.50171 -66.591507 2.3509886e-038
-0.55864656 286.1835 -66.517548 2.3509886e-038
4.6699448 288.26569 -67.001503 2.3509886e-038
10.129914 294.88342 -68.539673 2.3509886e-038
12.278924 298.99152 -69.494514 2.3509886e-038
-64.34346 269.77475 -67.600647 2.3509886e-038
-64.182663 269.75449 -67.595581 2.3509886e-038
-58.973896 268.33426 -67.239693 2.3509886e-038
-53.582596 265.75293 -66.592857 2.3509886e-038
-48.727226 265.58185 -66.549988 2.3509886e-038
-44.310055 268.02383 -67.161911 2.3509886e-038
-40.015728 271.90295 -68.133934 2.3509886e-038
-35.603832 275.96228 -69.151131 2.3509886e-038
-31.100159 280.52307 -70.293983 2.3509886e-038
-26.432173 285.09744 -71.440239 2.3509886e-038
-21.502579 288.39047 -72.265411 2.3509886e-038
-16.30426 289.03937 -72.428017 2.3509886e-038
-11.035831 288.47086 -72.285553 2.3509886e-038
-5.7937541 288.18646 -72.214287 2.3509886e-038
-0.56344795 288.64316 -72.328728 2.3509886e-038
4.7319012 292.09009 -73.192467 2.3509886e-038
10.331693 300.75723 -75.364296 2.3509886e-038
11.024735 302.2319 -75.733826 2.3509886e-038
-59.926865 277.47498 -74.566948 2.3509886e-038
-54.627407 270.93488 -72.809395 2.3509886e-038
-49.32159 268.82135 -72.241425 2.3509886e-038
-44.709576 270.44046 -72.676529 2.3509886e-038
-40.277264 273.68005 -73.547127 2.3509886e-038
-35.755089 277.13464 -74.475487 2.3509886e-038
-31.185829 281.29581 -75.593735 2.3509886e-038
-26.524445 286.09271 -76.88282 2.3509886e-038
-21.615919 289.91058 -77.908813 2.3509886e-038
-16.425293 291.18503 -78.251305 2.3509886e-038
-11.132429 290.99588 -78.20047 2.3509886e-038
-5.8525081 291.10895 -78.23085 2.3509886e-038
-0.57074237 292.37991 -78.572411 2.3509886e-038
4.8194194 297.4924 -79.946312 2.3509886e-038
9.2827663 305.52887 -82.10598 2.3509886e-038
-51.933472 275.2337 -78.960739 2.3509886e-038
-50.434837 274.88898 -78.861847 2.3509886e-038
-45.573906 275.66864 -79.085518 2.3509886e-038
-40.977402 278.43744 -79.879845 2.3509886e-038
-36.25935 281.04315 -80.627388 2.3509886e-038
-31.555544 284.63062 -81.656586 2.3509886e-038
-26.855074 289.65884 -83.099113 2.3509886e-038
-21.913383 293.90015 -84.31588 2.3509886e-038
-16.703896 296.12408 -84.953896 2.3509886e-038
-11.347579 296.61978 -85.096107 2.3509886e-038
-5.9794617 297.42371 -85.326744 2.3509886e-038
-0.58565104 300.01736 -86.070831 2.3509886e-038
4.9737372 307.0181 -88.079247 2.3509886e-038
6.4122033 309.77237 -88.869408 2.3509886e-038
-43.932991 288.15402 -87.898018 2.3509886e-038
-42.505322 288.81949 -88.101006 2.3509886e-038
-37.402016 289.89984 -88.430565 2.3509886e-038
-32.488792 293.04852 -89.391022 2.3509886e-038
-27.614902 297.85437 -90.856995 2.3509886e-038
-22.47307 301.40662 -91.940567 2.3509886e-038
-17.177 304.5112 -92.887573 2.3509886e-038
-11.72491 306.483 -93.489052 2.3509886e-038
-6.2117085 308.97589 -94.249489 2.3509886e-038
-0.6124258 313.73352 -95.700745 2.3509886e-038
-0.53282946 313.82184 -95.727684 2.3509886e-038
-85.278694 233.64354 -25.45323 2.3509886e-038
-81.623154 223.6282 -32.821049 2.3509886e-038
-88.34375 254.70834 58.239426 9.1476764e-041
-94.119667 271.36121 43.150272 9.1476764e-041
-83.490334 240.71524 -25.493834 2.3509886e-038
-78.565163 226.51521 -36.492779 2.3509886e-038
-84.519577 257.14023 55.789593 9.1476764e-041
-89.278961 271.62003 33.429638 9.1476764e-041
-79.162659 240.84247 -26.093946 2.3509886e-038
-76.599716 233.04504 -40.519691 2.3509886e-038
-81.668518 262.99002 50.953968 9.1476764e-041
-86.239372 277.70917 23.563589 9.1476764e-041
-74.528275 239.99692 -27.342398 2.3509886e-038
-75.214142 242.20555 -45.423019 2.3509886e-038
-77.785599 266.03705 44.329517 2.3509886e-038
-82.070915 280.69342 14.486166 9.1476764e-041
-71.965027 246.12993 -29.646221 2.3509886e-038
-74.198555 253.76889 -51.384148 2.3509886e-038
-74.203644 270.58493 38.231602 9.1476764e-041
-77.476997 282.5213 4.4921799 2.3509886e-038
-71.37674 260.27661 -32.580162 2.3509886e-038
-71.973541 262.45285 -57.353054 2.3509886e-038
-70.144218 273.91306 30.719608 2.3509886e-038
-73.809647 288.22653 -12.467652 2.3509886e-038
-71.299011 278.42252 -33.088207 2.3509886e-038
-67.987686 265.49182 -62.391994 2.3509886e-038
-58.058834 244.01656 60.863171 2.3418409e-038
-62.774555 263.83636 53.582996 2.3509886e-038
-66.510567 279.53848 20.955769 2.3509886e-038
-64.256248 270.06378 -67.805321 2.3509886e-038
-53.536091 243.59196 60.967445 2.3418409e-038
-60.637505 275.90375 43.866203 2.3509886e-038
-61.796021 281.17508 14.666039 2.3509886e-038
-61.017891 277.63452 -73.830917 2.3509886e-038
-49.658188 246.28909 58.126873 2.3418409e-038
-58.154129 288.4263 33.118279 2.3509886e-038
-57.1591 283.49127 11.956025 2.3509886e-038
-55.391483 274.72446 -76.595596 2.3509886e-038
-47.238853 257.46967 54.913551 2.3418409e-038
-50.689056 276.27457 -80.087929 2.3509886e-038
-43.753559 264.65771 48.463425 2.3418409e-038
-46.610062 281.93616 -84.391739 2.3509886e-038
-39.759979 270.16513 37.556416 2.3418409e-038
-42.741905 290.42706 -89.192612 2.3509886e-038
-36.200123 280.58408 21.923721 2.3418409e-038
-38.108994 295.37958 -92.492638 2.3509886e-038
-31.592186 284.96112 18.975662 2.3418409e-038
-33.522644 302.37384 -95.938751 2.3509886e-038
-26.083542 281.3371 27.881504 2.3509886e-038
-28.610216 308.58981 -98.552719 2.3509886e-038
-19.358452 259.63367 74.504204 3.5733111e-043
-23.109844 309.94696 -99.046921 2.3509886e-038
-14.367018 254.69624 75.065048 3.5733111e-043
-17.565329 311.39542 -99.073219 2.3509886e-038
-9.8885317 258.48102 64.841797 3.5733111e-043
-10.30759 269.435 24.158304 3.5733111e-043
-10.51594 274.88116 13.09025 2.3418052e-038
-11.969888 312.8866 -98.711281 2.3509886e-038
-5.5379906 275.46457 7.8276124 2.3418052e-038
-6.3088636 313.80847 -97.759003 2.3509886e-038
-0.53810817 275.66211 9.2343416 2.3418052e-038
-0.61265296 313.84988 -95.778214 2.3509886e-038
4.4818859 276.6572 13.258907 2.3418052e-038
5.0385613 311.01956 -90.892799 2.3509886e-038
9.327342 271.52042 18.471031 2.3418052e-038
10.416535 303.22702 -78.104294 2.3509886e-038
14.097946 268.5098 24.641756 2.3418052e-038
14.308185 272.51401 -2.8044434 2.3509886e-038
18.798679 266.05722 31.527151 2.3418052e-038
19.009605 269.04245 6.1817422 2.3418052e-038
23.360067 263.03818 38.276634 2.3418052e-038
23.315943 262.54132 13.807631 2.3509886e-038
27.975731 261.5513 42.628666 2.3418052e-038
28.187899 263.53491 22.347809 2.3418052e-038
