# .PCD v0.7 - Point Cloud Data file format
VERSION 0.7
FIELDS x y z rgb
SIZE 4 4 4 4
TYPE F F F F
COUNT 1 1 1 1
WIDTH 744
HEIGHT 1
VIEWPOINT 0 0 0 1 0 0 0
POINTS 744
DATA ascii
37.27697 263.83023 39.7621 2.3418052e-038
-76.910759 276.78357 67.785744 9.1476764e-041
-8.823638 267.64236 74.370667 3.5733111e-043
-40.444626 277.01572 83.498589 2.3509528e-038
-108.61359 271.31293 -14.055875 2.3418409e-038
-44.060112 276.81671 84.403442 2.3509528e-038
-40.55917 276.69485 84.366287 2.3509528e-038
-35.683075 277.017 84.464508 2.3509528e-038
-35.619068 277.02658 84.467422 2.3509528e-038
-44.779171 278.20465 79.882202 2.3509528e-038
-40.685005 277.55331 79.695183 2.3509528e-038
-35.765545 277.65723 79.725021 2.3509528e-038
-34.372776 277.87183 79.786636 2.3509528e-038
-12.684495 267.67963 76.860107 3.5733111e-043
-10.667347 267.02551 76.672279 3.5733111e-043
-5.9518943 268.3913 77.064445 3.5733111e-043
-5.2460375 268.78165 77.176529 3.5733111e-043
-44.957817 278.78702 75.09465 2.3509528e-038
-40.661953 277.39606 74.719971 2.3509528e-038
-35.715527 277.26895 74.685738 2.3509528e-038
-33.424381 277.48636 74.744301 2.3509528e-038
-14.265532 270.64478 72.901436 3.5733111e-043
-10.717742 268.28702 72.266342 3.5733111e-043
-5.9701715 269.21545 72.516434 3.5733111e-043
-4.3580151 269.98459 72.72361 3.5733111e-043
-80.784164 277.90717 69.918503 9.1476764e-041
-80.148674 277.55646 69.830276 9.1476764e-041
-74.696609 275.64066 69.348282 9.1476764e-041
-71.453682 275.83667 69.397598 9.1476764e-041
-44.921638 278.49985 70.067619 2.3509528e-038
-40.52282 276.4469 69.551125 2.3509528e-038
-35.573158 276.1637 69.479874 2.3509528e-038
-32.399651 276.50168 69.564911 2.3509528e-038
-14.790565 272.82767 68.640556 3.5733111e-043
-10.769057 269.5715 67.821342 3.5733111e-043
-5.9865103 269.95224 67.91713 3.5733111e-043
-4.2215014 270.63397 68.088654 3.5733111e-043
-81.545319 278.87607 65.205917 9.1476764e-041
-80.31321 278.12625 65.030594 9.1476764e-041
-74.794891 276.00333 64.534225 9.1476764e-041
-69.986351 276.38547 64.623573 9.1476764e-041
-69.436287 276.62766 64.680206 9.1476764e-041
-44.953732 278.69308 65.163132 2.3509528e-038
-40.485203 276.19028 64.577934 2.3509528e-038
-35.533527 275.85605 64.499786 2.3509528e-038
-31.483616 276.58444 64.670097 2.3509528e-038
-15.008483 273.43619 63.933983 3.5733111e-043
-10.787011 270.02094 63.135437 3.5733111e-043
-5.9927831 270.23508 63.185513 3.5733111e-043
-4.1841569 270.9411 63.35059 3.5733111e-043
-80.719086 278.15347 60.093456 9.1476764e-041
-80.236374 277.86017 60.030083 9.1476764e-041
-74.692085 275.62396 59.54697 9.1476764e-041
-69.730904 275.37665 59.493538 9.1476764e-041
-67.491951 275.88431 59.60321 9.1476764e-041
-45.119179 279.74283 60.436825 2.3509528e-038
-40.590569 276.90909 59.824612 2.3509528e-038
-35.605637 276.41583 59.718048 2.3509528e-038
-30.788151 277.27274 59.903175 2.3509528e-038
-30.610165 277.32553 59.914585 2.3509528e-038
-15.322631 272.548 58.882423 2.3509528e-038
-10.764567 269.45914 58.215088 3.5733111e-043
-5.9846907 269.87015 58.303894 3.5733111e-043
-4.0892816 270.72757 58.489132 3.5733111e-043
-79.213188 276.69189 54.860149 9.1476764e-041
-74.418587 274.61475 54.448311 9.1476764e-041
-69.394989 274.05011 54.336361 9.1476764e-041
-65.537453 275.13589 54.551643 9.1476764e-041
-45.32608 281.18744 55.751488 2.3509886e-038
-40.727253 277.84155 55.088093 2.3509528e-038
-35.671257 276.92526 54.906422 2.3509528e-038
-30.810371 277.47281 55.014988 2.3509528e-038
-29.714314 277.7124 55.062489 2.3509528e-038
-16.000628 271.57837 53.846283 2.3509528e-038
-15.658363 271.27481 53.786095 2.3509528e-038
-10.722231 268.39935 53.215973 2.3509528e-038
-5.9641266 268.94287 53.323734 3.5733111e-043
-3.7648988 270.01755 53.536812 3.5733111e-043
-77.752693 275.53452 49.733707 9.1476764e-041
-74.21933 273.87943 49.434963 9.1476764e-041
-69.272125 273.56488 49.378185 9.1476764e-041
-64.798721 275.21518 49.676064 9.1476764e-041
-63.794701 276.02063 49.821449 9.1476764e-041
-45.362408 282.47012 50.985577 2.3509886e-038
-40.846306 278.65372 50.296715 2.3509528e-038
-35.721966 277.31894 50.05579 2.3509528e-038
-30.864283 277.95837 50.171207 2.3509528e-038
-29.129522 278.5256 50.27359 2.3509528e-038
-17.104595 272.34903 49.15873 2.3509528e-038
-15.635822 270.88428 48.894341 2.3509528e-038
-10.696301 267.75027 48.328655 2.3509528e-038
-5.9491472 268.2674 48.421997 2.3509528e-038
-3.1265461 269.77844 48.694736 3.5733111e-043
-76.449982 274.58963 44.68298 9.1476764e-041
-74.165321 273.68015 44.534981 9.1476764e-041
-69.359299 273.90918 44.572254 9.1476764e-041
-64.878159 275.55258 44.839672 9.1476764e-041
-61.994518 277.18082 45.104633 9.1476764e-041
-45.006443 283.21973 46.087322 2.3509886e-038
-40.958485 279.41898 45.468842 2.3509528e-038
-35.755039 277.57571 45.168892 2.3509528e-038
-30.902205 278.29987 45.286736 2.3509528e-038
-28.878191 279.19955 45.433132 2.3509528e-038
-18.361822 274.3826 44.649288 2.3509528e-038
-15.661349 271.32654 44.151989 2.3509528e-038
-10.69814 267.79633 43.57753 2.3509528e-038
-5.9449787 268.07944 43.623596 2.3509528e-038
-2.5598722 269.93622 43.925743 3.5733111e-043
35.135578 263.20981 42.831184 2.3418052e-038
36.229683 262.95825 42.790249 2.3418052e-038
41.101013 264.2305 42.997276 2.3418052e-038
41.591167 264.61755 43.060261 2.3418052e-038
-75.527191 274.67056 39.814541 9.1476764e-041
-74.330093 274.28818 39.759109 9.1476764e-041
-69.500542 274.46695 39.785023 9.1476764e-041
-64.895538 275.6264 39.953091 9.1476764e-041
-60.407307 277.51163 40.226364 9.1476764e-041
-60.1525 277.76062 40.262455 9.1476764e-041
-44.288578 283.20493 41.051628 2.3509886e-038
-41.059223 280.10623 40.602455 2.3509886e-038
-35.744736 277.4957 40.224049 2.3509886e-038
-30.861189 277.93051 40.287079 2.3509528e-038
-28.72747 278.86923 40.423153 2.3509528e-038
-19.404741 275.74094 39.969688 2.3509528e-038
-15.691263 271.84482 39.404934 2.3509528e-038
-10.719722 268.33658 38.8964 2.3509528e-038
-5.9488792 268.25531 38.884624 2.3509528e-038
-2.4325249 270.12 39.154919 2.3509886e-038
30.628733 264.41055 38.327309 2.3418052e-038
31.692709 264.09573 38.281677 2.3418052e-038
36.327827 263.67059 38.220051 2.3418052e-038
41.340588 265.77063 38.52446 2.3418052e-038
42.161835 266.59024 38.643265 2.3418052e-038
-74.998283 276.0636 35.110088 9.1476764e-041
-74.78476 275.96597 35.097675 9.1476764e-041
-69.641312 275.02286 34.97773 9.1476764e-041
-64.828926 275.34348 35.018509 9.1476764e-041
-60.176929 276.45328 35.159657 9.1476764e-041
-58.483715 277.62082 35.30814 9.1476764e-041
-43.54948 283.16919 36.01379 2.3509886e-038
-41.166374 280.83722 35.717205 2.3509886e-038
-35.739178 277.45255 35.286743 3.5733111e-043
-30.82402 277.59576 35.304951 2.3509528e-038
-28.613253 278.53073 35.423862 2.3509528e-038
-20.16176 276.65683 35.185543 2.3509528e-038
-15.728919 272.49716 34.656506 2.3509528e-038
-10.748959 269.06839 34.220436 2.3509528e-038
-5.963788 268.92761 34.202526 2.3509886e-038
-2.8986104 270.90759 34.454342 2.3509886e-038
26.838133 264.13419 33.592899 2.3418052e-038
26.996998 264.07559 33.585442 2.3418052e-038
31.659599 263.81982 33.552914 2.3418052e-038
36.509506 264.98926 33.701645 2.3418052e-038
40.797478 267.67923 34.043758 2.3418052e-038
-74.626656 277.90268 30.404943 9.1476764e-041
-69.838211 275.80045 30.174938 9.1476764e-041
-64.781776 275.14322 30.103031 9.1476764e-041
-60.135822 276.26443 30.225704 9.1476764e-041
-57.277641 278.65115 30.486832 9.1476764e-041
-43.311428 284.22079 31.096195 2.3509886e-038
-41.330975 281.96014 30.848862 2.3509886e-038
-35.759007 277.60648 30.372536 2.3509886e-038
-30.792889 277.31537 30.340687 3.5733111e-043
-28.232597 278.40634 30.460049 3.5733111e-043
-20.899303 277.96481 30.411739 2.3509528e-038
-15.767703 273.16907 29.887045 2.3509528e-038
-10.771075 269.62204 29.498966 3.5733111e-043
-5.97715 269.53015 29.488914 2.3509886e-038
-3.5788543 271.24765 29.676825 2.3509886e-038
23.218281 265.07489 29.001471 2.3418052e-038
26.965328 263.76578 28.858244 2.3418052e-038
31.706057 264.20694 28.906511 2.3418052e-038
36.711456 266.45499 29.152466 2.3418052e-038
38.539261 267.97705 29.318995 2.3418052e-038
-74.430756 280.42303 25.696842 9.1476764e-041
-70.256218 277.4512 25.424517 9.1476764e-041
-64.841225 275.39572 25.23616 9.1476764e-041
-60.103001 276.11362 25.301945 9.1476764e-041
-55.833374 279.30331 25.594234 9.1476764e-041
-55.775509 279.371 25.600437 9.1476764e-041
-43.800362 286.03854 26.211424 2.3509886e-038
-41.511211 283.18973 25.950369 2.3509886e-038
-35.804401 277.95889 25.471037 2.3509886e-038
-30.737762 276.81894 25.366577 3.5733111e-043
-26.546951 278.38171 25.509783 3.5733111e-043
-22.734865 279.06949 25.572809 3.5733111e-043
-21.023836 278.48349 25.519108 3.5733111e-043
-15.79304 273.60803 25.072342 3.5733111e-043
-10.791476 270.13269 24.753876 3.5733111e-043
-5.9835911 269.82059 24.725277 2.3509886e-038
-3.9525809 270.7966 24.814714 2.3509886e-038
19.564001 266.30685 24.403292 2.3418052e-038
22.395323 265.16077 24.298269 2.3418052e-038
27.028578 264.38449 24.227133 2.3418052e-038
31.853476 265.43536 24.323431 2.3418052e-038
35.915768 268.07733 24.565533 2.3418052e-038
-73.904984 282.82104 20.890118 9.1476764e-041
-70.832909 279.72864 20.661703 9.1476764e-041
-64.947815 275.84842 20.375095 9.1476764e-041
-60.00692 275.67227 20.362083 9.1476764e-041
-55.575531 278.01346 20.535013 9.1476764e-041
-52.965054 280.93506 20.750809 9.1476764e-041
-45.319653 286.05896 21.12928 2.3509886e-038
-41.438282 282.69217 20.880596 2.3509886e-038
-35.815769 278.04715 20.537498 2.3509886e-038
-30.682608 276.3222 20.410091 2.3509886e-038
-25.85569 277.22339 20.476654 3.5733111e-043
-20.938511 277.35327 20.486246 3.5733111e-043
-15.808463 273.87524 20.229349 3.5733111e-043
-10.829125 271.07516 20.022524 2.3509886e-038
-5.9997549 270.54947 19.983696 2.3509886e-038
-3.8686006 271.20944 20.032446 2.3509886e-038
15.757151 267.76791 19.77824 2.3418052e-038
17.762606 266.35837 19.674128 2.3418052e-038
22.384127 265.0282 19.575876 2.3418052e-038
27.112415 265.20456 19.588903 2.3418052e-038
32.093834 267.43829 19.753893 2.3418052e-038
33.254215 268.6167 19.840935 2.3418052e-038
-72.797676 284.3284 15.948196 2.3509886e-038
-71.614212 282.81412 15.86326 2.3509886e-038
-65.161827 276.75735 15.523532 9.1476764e-041
-59.910667 275.23004 15.437863 9.1476764e-041
-55.236469 276.31732 15.498851 9.1476764e-041
-50.697231 278.35785 15.613305 9.1476764e-041
-46.064209 280.2691 15.720509 2.3509886e-038
-41.044868 280.0083 15.70588 2.3509886e-038
-35.822887 278.10242 15.598978 2.3509886e-038
-30.73638 276.80649 15.526286 2.3509886e-038
-25.794561 276.56796 15.512909 2.3509886e-038
-20.861565 276.33401 15.499786 2.3509886e-038
-15.849139 274.57996 15.401399 2.3509886e-038
-10.881889 272.39594 15.278896 2.3509886e-038
-6.0260968 271.7373 15.241954 2.3509886e-038
-2.8759744 272.83078 15.303288 2.3509886e-038
11.480285 270.40793 15.167387 2.3509886e-038
13.16252 269.09372 15.093673 2.3418052e-038
17.789049 266.75488 14.962486 2.3418052e-038
22.452009 265.83194 14.910718 2.3418052e-038
27.252844 266.57816 14.952573 2.3418052e-038
30.484955 268.62573 15.067423 2.3418052e-038
-71.247078 284.48398 10.900901 2.3509886e-038
-65.50383 278.20993 10.660491 9.1476764e-041
-60.007401 275.67447 10.563336 9.1476764e-041
-55.184971 276.05972 10.578098 9.1476764e-041
-50.449646 276.9985 10.614071 2.3509886e-038
-45.663883 277.8334 10.646063 2.3509886e-038
-40.804363 278.36758 10.666532 2.3509886e-038
-35.852531 278.33255 10.66519 2.3509886e-038
-30.836199 277.70544 10.641159 2.3509886e-038
-25.818668 276.82645 10.607478 2.3509886e-038
-20.862164 276.34198 10.588914 2.3509886e-038
-15.899365 275.45007 10.554738 2.3509886e-038
-10.929447 273.58643 10.483326 2.3509886e-038
-6.0395961 272.34604 10.435798 2.3509886e-038
-1.200574 272.63629 10.446919 2.3509886e-038
3.6359904 271.97098 10.421426 2.3509886e-038
8.4154339 270.23083 10.354746 2.3509886e-038
13.156731 268.97534 10.306639 2.3418052e-038
17.893744 268.32483 10.281712 2.3418052e-038
22.642904 268.09216 10.272797 2.3418052e-038
27.55825 269.56555 10.329254 2.3418052e-038
27.611567 269.60797 10.330879 2.3418052e-038
-69.751183 284.19189 5.8388762 2.3509886e-038
-66.028595 280.43875 5.761766 2.3509886e-038
-60.376297 277.36917 5.6986995 2.3509886e-038
-55.391979 277.09525 5.6930718 2.3509886e-038
-50.565414 277.63412 5.704143 2.3509886e-038
-45.696598 278.03244 5.712327 2.3509886e-038
-40.805622 278.37616 5.719389 2.3509886e-038
-35.903629 278.72922 5.7266426 2.3509886e-038
-30.891209 278.20084 5.7157865 2.3509886e-038
-25.858187 277.25015 5.6962538 2.3509886e-038
-20.901346 276.86099 5.6882586 2.3509886e-038
-15.943586 276.21619 5.6750107 2.3509886e-038
-10.967759 274.54544 5.6406841 2.3509886e-038
-6.0537028 272.98218 5.6085668 2.3509886e-038
-1.198498 272.16489 5.5917745 2.3509886e-038
3.6250181 271.15027 5.5709286 2.3509886e-038
8.4177055 270.3038 5.5535378 2.3418052e-038
13.207746 270.01831 5.5476723 2.3418052e-038
18.011267 270.08716 5.5490866 2.3418052e-038
22.9011 271.1492 5.5709066 2.3418052e-038
24.720684 272.43292 5.5972819 2.3418052e-038
-68.882286 284.92093 0.79006588 2.3509886e-038
-66.562553 282.70657 0.78392565 2.3509886e-038
-60.708286 278.89435 0.77335453 2.3509886e-038
-55.546345 277.86746 0.77050716 2.3509886e-038
-50.622314 277.94653 0.77072638 2.3509886e-038
-45.694046 278.01694 0.77092159 2.3509886e-038
-40.790966 278.27621 0.77164048 2.3509886e-038
-35.896076 278.67062 0.77273417 2.3509886e-038
-30.883362 278.13019 0.77123564 2.3509886e-038
-25.862577 277.29724 0.76892591 2.3509886e-038
-20.919134 277.09659 0.76836962 2.3509886e-038
-15.96707 276.62302 0.76705629 2.3509886e-038
-10.999014 275.32779 0.76346481 2.3509886e-038
-6.0804935 274.19025 0.76031047 2.3509886e-038
-1.2046355 273.55862 0.75855899 2.3509886e-038
3.6454263 272.67679 0.75611371 2.3509886e-038
8.4667959 271.88016 0.7539047 2.3418052e-038
13.283481 271.56662 0.75303537 2.3418052e-038
18.125813 271.80481 0.75369579 2.3418052e-038
21.858049 273.04437 0.75713301 2.3418052e-038
-68.822495 287.01306 -4.3050942 2.3509886e-038
-67.123543 285.08923 -4.276237 2.3509886e-038
-60.88768 279.71844 -4.1956778 2.3509886e-038
-55.547684 277.87418 -4.168014 2.3509886e-038
-50.554684 277.57523 -4.1635299 2.3509886e-038
-45.610317 277.50748 -4.1625137 2.3509886e-038
-40.72723 277.8414 -4.1675224 2.3509886e-038
-35.858479 278.37872 -4.1755819 2.3509886e-038
-30.858496 277.90625 -4.1684952 2.3509886e-038
-25.84318 277.08923 -4.1562405 2.3509886e-038
-20.902578 276.87729 -4.1530609 2.3509886e-038
-15.965397 276.59406 -4.1488123 2.3509886e-038
-11.022507 275.91586 -4.1386399 2.3509886e-038
-6.1119685 275.60956 -4.1340456 2.3509886e-038
-1.2133477 275.53705 -4.1329575 2.3509886e-038
3.6737323 274.79407 -4.1218133 2.3509886e-038
8.5208454 273.61575 -4.1041389 2.3509886e-038
13.357663 273.08322 -4.0961514 2.3418052e-038
18.269997 273.96695 -4.1094069 2.3418052e-038
19.677029 274.79416 -4.1218147 2.3418052e-038
-115.66727 273.32828 -8.9575834 2.3418409e-038
-112.46581 272.19992 -8.9206057 2.3418409e-038
-107.70554 272.39575 -8.9270229 2.3418409e-038
-104.7438 274.05902 -8.9815321 2.3418409e-038
-68.962189 288.26205 -9.4469986 2.3509886e-038
-67.396881 286.25015 -9.3810625 2.3509886e-038
-60.950928 280.00903 -9.176527 2.3509886e-038
-55.568443 277.978 -9.1099653 2.3509886e-038
-50.540428 277.49695 -9.0942001 2.3509886e-038
-45.574783 277.29129 -9.0874615 2.3509886e-038
-40.690983 277.59412 -9.0973854 2.3509886e-038
-35.846706 278.28732 -9.1201029 2.3509886e-038
-30.889431 278.18484 -9.116744 2.3509886e-038
-25.874529 277.42538 -9.091855 2.3509886e-038
-20.913719 277.02487 -9.0787287 2.3509886e-038
-15.984414 276.92349 -9.075408 2.3509886e-038
-11.056048 276.75552 -9.0699015 2.3509886e-038
-6.1379623 276.78174 -9.0707617 2.3509886e-038
-1.2181593 276.62973 -9.0657787 2.3509886e-038
3.6869156 275.78018 -9.0379381 2.3509886e-038
8.5490808 274.52243 -8.9967184 2.3509886e-038
13.408059 274.11349 -8.9833174 2.3418052e-038
18.239716 275.69119 -9.0350208 2.3418052e-038
-117.25729 272.65939 -13.781532 2.3418409e-038
-111.6432 270.20895 -13.657675 2.3418409e-038
-107.04267 270.71933 -13.683472 2.3418409e-038
-103.24677 273.40845 -13.819393 2.3418409e-038
-99.773323 277.25925 -14.014031 2.3418409e-038
-98.65873 278.4342 -14.073421 2.3418409e-038
-69.176514 288.9437 -14.604621 2.3509886e-038
-67.48233 286.61307 -14.486819 2.3509886e-038
-60.908638 279.81476 -14.143199 2.3509886e-038
-55.515556 277.71344 -14.036989 2.3509886e-038
-50.522858 277.40045 -14.02117 2.3509886e-038
-45.586155 277.36047 -14.019148 2.3509886e-038
-40.68457 277.55035 -14.028745 2.3509886e-038
-35.843777 278.26462 -14.064848 2.3509886e-038
-30.961792 278.83649 -14.093753 2.3509886e-038
-25.965729 278.4032 -14.071852 2.3509886e-038
-20.961344 277.65573 -14.034071 2.3509886e-038
-16.024544 277.61871 -14.0322 2.3509886e-038
-11.088639 277.57132 -14.029804 2.3509886e-038
-6.1493158 277.29367 -14.015772 2.3509886e-038
-1.2189897 276.8183 -13.991744 2.3509886e-038
3.6907878 276.06982 -13.953912 2.3509886e-038
8.5696278 275.18222 -13.909048 2.3509886e-038
13.453579 275.0441 -13.902066 2.3509886e-038
17.514904 276.32547 -13.966833 2.3509886e-038
-115.85104 273.0827 -18.656322 2.3418409e-038
-111.9951 271.06067 -18.518181 2.3418409e-038
-106.87763 270.30191 -18.466347 2.3418409e-038
-102.68871 271.93063 -18.577616 2.3418409e-038
-99.061569 275.28137 -18.80653 2.3418409e-038
-95.250092 278.44141 -19.022415 2.3418409e-038
-93.160927 279.78149 -19.113968 2.3418409e-038
-69.801338 289.4903 -19.777246 2.3509886e-038
-67.383957 286.19528 -19.552139 2.3418409e-038
-60.844036 279.51797 -19.095964 2.3509886e-038
-55.424213 277.25653 -18.941467 2.3509886e-038
-50.4482 276.99057 -18.923298 2.3509886e-038
-45.564041 277.22595 -18.939377 2.3509886e-038
-40.684391 277.5491 -18.961456 2.3509886e-038
-35.866325 278.43964 -19.022295 2.3509886e-038
-31.041069 279.55048 -19.098183 2.3509886e-038
-26.064745 279.46484 -19.092335 2.3509886e-038
-21.023912 278.4845 -19.02536 2.3509886e-038
-16.062426 278.27502 -19.011049 2.3509886e-038
-11.110907 278.12872 -19.001053 2.3509886e-038
-6.158608 277.71271 -18.972631 2.3509886e-038
-1.2215521 277.40021 -18.951283 2.3509886e-038
3.7032285 277.00037 -18.923967 2.3509886e-038
8.6048231 276.31238 -18.876966 2.3509886e-038
13.503168 276.05789 -18.859581 2.3509886e-038
17.308792 277.09888 -18.930696 2.3509886e-038
-112.95306 274.83691 -23.660736 2.3418409e-038
-107.62325 272.18762 -23.432655 2.3418409e-038
-102.59648 271.6864 -23.389507 2.3418409e-038
-98.370117 273.35989 -23.533577 2.3418409e-038
-94.415985 276.00305 -23.761127 2.3418409e-038
-90.296021 278.42456 -23.969595 2.3418409e-038
-87.334404 279.95694 -24.101519 2.3418409e-038
-71.542969 290.07248 -24.972364 2.3418409e-038
-67.040512 284.73657 -24.512997 2.3418409e-038
-60.837841 279.4895 -24.061277 2.3418409e-038
-55.460751 277.4393 -23.884773 2.3509886e-038
-50.435337 276.91992 -23.840061 2.3509886e-038
-45.545128 277.11084 -23.856497 2.3509886e-038
-40.698051 277.6423 -23.90225 2.3509886e-038
-35.907513 278.7594 -23.998421 2.3509886e-038
-31.096979 280.05399 -24.109873 2.3509886e-038
-26.145845 280.33441 -24.134014 2.3509886e-038
-21.105757 279.5686 -24.068087 2.3509886e-038
-16.107489 279.05573 -24.023932 2.3509886e-038
-11.13163 278.64746 -23.988783 2.3509886e-038
-6.1756654 278.48187 -23.974529 2.3509886e-038
-1.2267401 278.57831 -23.982832 2.3509886e-038
3.7191367 278.19031 -23.949429 2.3509886e-038
8.6320181 277.18564 -23.862938 2.3509886e-038
13.52613 276.52731 -23.806261 2.3509886e-038
17.267031 277.29645 -23.872477 2.3509886e-038
-108.64412 276.82217 -28.751497 2.3418409e-038
-103.6229 274.40448 -28.500387 2.3418409e-038
-98.361519 273.336 -28.389414 2.3418409e-038
-93.859016 274.37491 -28.497318 2.3418409e-038
-89.674065 276.50677 -28.71874 2.3418409e-038
-85.428909 278.68954 -28.945446 2.3418409e-038
-81.497307 282.22678 -29.312832 2.3418409e-038
-79.238068 285.3952 -29.641914 2.3418409e-038
-77.414291 287.4928 -29.859777 2.3418409e-038
-72.679253 287.02008 -29.81068 2.3418409e-038
-66.562279 282.70541 -29.362549 2.3418409e-038
-60.878197 279.67493 -29.047791 2.3418409e-038
-55.615688 278.21436 -28.896093 2.3509886e-038
-50.536373 277.47467 -28.819267 2.3509886e-038
-45.575096 277.29321 -28.800421 2.3509886e-038
-40.705963 277.69632 -28.842287 2.3509886e-038
-35.904335 278.73474 -28.950142 2.3509886e-038
-31.101225 280.09222 -29.091131 2.3509886e-038
-26.196505 280.87756 -29.172699 2.3509886e-038
-21.190193 280.68707 -29.152914 2.3509886e-038
-16.168793 280.11777 -29.093786 2.3509886e-038
-11.161161 279.38669 -29.017857 2.3509886e-038
-6.1924272 279.23773 -29.002382 2.3509886e-038
-1.2304254 279.41519 -29.020815 2.3509886e-038
3.7274823 278.81454 -28.958431 2.3509886e-038
8.6418076 277.5 -28.821899 2.3509886e-038
13.531425 276.63556 -28.732115 2.3509886e-038
17.253796 277.19778 -28.79051 2.3509886e-038
-103.4313 278.63031 -33.891285 2.3509886e-038
-99.462456 276.39539 -33.619438 2.3418409e-038
-94.200249 275.37241 -33.49501 2.3418409e-038
-89.509796 276.00027 -33.571377 2.3418409e-038
-84.965034 277.17627 -33.71442 2.3418409e-038
-80.598633 279.11465 -33.950199 2.3418409e-038
-76.205048 281.207 -34.2047 2.3418409e-038
-71.352875 281.78207 -34.274651 2.3418409e-038
-66.132706 280.88089 -34.165035 2.3418409e-038
-60.887531 279.71777 -34.023556 2.3418409e-038
-55.744877 278.8606 -33.919296 2.3418409e-038
-50.665806 278.18533 -33.837158 2.3509886e-038
-45.623978 277.59061 -33.76482 2.3509886e-038
-40.687645 277.57135 -33.762478 2.3509886e-038
-35.869621 278.46521 -33.871204 2.3509886e-038
-31.098808 280.07047 -34.066456 2.3509886e-038
-26.241259 281.35742 -34.222996 2.3509886e-038
-21.262094 281.6395 -34.257309 2.3509886e-038
-16.232096 281.21448 -34.205612 2.3509886e-038
-11.1956 280.24872 -34.088142 2.3509886e-038
-6.2049088 279.80057 -34.03363 2.3509886e-038
-1.2317383 279.71335 -34.023022 2.3509886e-038
3.7280691 278.85846 -33.919033 2.3509886e-038
8.644536 277.58762 -33.764454 2.3509886e-038
13.552601 277.06848 -33.701313 2.3509886e-038
17.282045 277.65161 -33.77224 2.3509886e-038
-97.965645 281.7334 -39.275867 2.3509886e-038
-96.034576 280.73465 -39.136635 2.3418409e-038
-90.262299 278.32059 -38.800095 2.3418409e-038
-84.965797 277.17874 -38.640907 2.3418409e-038
-80.152206 277.56866 -38.695267 2.3418409e-038
-75.465332 278.47736 -38.821945 2.3418409e-038
-70.666443 279.07123 -38.904743 2.3418409e-038
-65.771133 279.34525 -38.94294 2.3418409e-038
-60.775166 279.20157 -38.922909 2.3418409e-038
-55.756042 278.91647 -38.883163 2.3509886e-038
-50.725025 278.51047 -38.826565 2.3509886e-038
-45.632275 277.64108 -38.705368 2.3509886e-038
-40.643066 277.26721 -38.653248 2.3509886e-038
-35.834728 278.19437 -38.782497 2.3509886e-038
-31.107641 280.14999 -39.055126 2.3509886e-038
-26.297852 281.9642 -39.308044 2.3509886e-038
-21.333923 282.59091 -39.395412 2.3509886e-038
-16.290977 282.23459 -39.345734 2.3509886e-038
-11.232823 281.18054 -39.198795 2.3509886e-038
-6.2187128 280.42303 -39.093193 2.3509886e-038
-1.2330117 280.00253 -39.034573 2.3509886e-038
3.7287118 278.90652 -38.881779 2.3509886e-038
8.6533442 277.87048 -38.737347 2.3509886e-038
13.597078 277.97778 -38.752308 2.3509886e-038
17.354254 278.82782 -38.870804 2.3509886e-038
-93.541588 285.5177 -44.877823 2.3509886e-038
-92.254646 284.4639 -44.712189 2.3509886e-038
-85.877457 280.1528 -44.034565 2.3418409e-038
-80.285614 278.0307 -43.701012 2.3418409e-038
-75.16539 277.37054 -43.597252 2.3418409e-038
-70.21521 277.28928 -43.584476 2.3418409e-038
-65.363983 277.61597 -43.635826 2.3418409e-038
-60.505562 277.96301 -43.690376 2.3418409e-038
-55.611404 278.19293 -43.726517 2.3509886e-038
-50.644859 278.07034 -43.707245 2.3509886e-038
-45.575024 277.29276 -43.585026 2.3509886e-038
-40.594593 276.93652 -43.52903 2.3509886e-038
-35.791626 277.85971 -43.674137 2.3509886e-038
-31.085932 279.9545 -44.003399 2.3509886e-038
-26.335144 282.36407 -44.382137 2.3509886e-038
-21.401249 283.48273 -44.557968 2.3509886e-038
-16.345179 283.17361 -44.50938 2.3509886e-038
-11.274709 282.229 -44.360905 2.3509886e-038
-6.237781 281.2829 -44.212196 2.3509886e-038
-1.2356334 280.5979 -44.104527 2.3509886e-038
3.7377536 279.58286 -43.944981 2.3509886e-038
8.683671 278.8443 -43.828892 2.3509886e-038
13.660575 279.27591 -43.89674 2.3509886e-038
17.427454 280.39792 -44.073093 2.3509886e-038
-89.725128 288.82742 -50.531265 2.3509886e-038
-87.956581 286.93539 -50.200249 2.3509886e-038
-81.026054 280.59482 -49.090946 2.3509886e-038
-75.104233 277.14484 -48.487366 2.3418409e-038
-69.84536 275.82867 -48.257099 2.3418409e-038
-64.929268 275.76965 -48.246769 2.3509886e-038
-60.119709 276.1904 -48.320377 2.3509886e-038
-55.293053 276.6004 -48.392109 2.3509886e-038
-50.394768 276.69714 -48.409039 2.3509886e-038
-45.449181 276.5271 -48.379288 2.3509886e-038
-40.569977 276.76859 -48.421535 2.3509886e-038
-35.779587 277.7663 -48.596088 2.3509886e-038
-31.067068 279.78458 -48.949192 2.3509886e-038
-26.344971 282.46942 -49.418915 2.3509886e-038
-21.443583 284.04349 -49.694302 2.3509886e-038
-16.388248 283.91977 -49.672661 2.3509886e-038
-11.311401 283.14752 -49.537552 2.3509886e-038
-6.2588778 282.23422 -49.377766 2.3509886e-038
-1.2394563 281.46603 -49.24337 2.3509886e-038
3.7544584 280.83234 -49.132504 2.3509886e-038
8.7328844 280.42459 -49.061165 2.3509886e-038
13.745979 281.02191 -49.165668 2.3509886e-038
17.439066 282.44168 -49.414063 2.3509886e-038
-84.619827 287.78555 -55.463688 2.3509886e-038
-82.360687 285.21667 -54.968597 2.3509886e-038
-75.544838 278.77078 -53.726303 2.3509886e-038
-69.76059 275.49393 -53.094772 2.3509886e-038
-64.630211 274.49948 -52.903114 2.3509886e-038
-59.752602 274.50391 -52.903973 2.3509886e-038
-54.921333 274.74088 -52.949642 2.3509886e-038
-50.067333 274.89935 -52.980186 2.3509886e-038
-45.249367 275.31134 -53.059586 2.3509886e-038
-40.513371 276.38242 -53.266006 2.3509886e-038
-35.78648 277.81979 -53.543022 2.3509886e-038
-31.073788 279.84512 -53.933361 2.3509886e-038
-26.334126 282.35312 -54.416721 2.3509886e-038
-21.46002 284.26123 -54.784458 2.3509886e-038
-16.429722 284.63828 -54.857128 2.3509886e-038
-11.345292 283.99588 -54.733318 2.3509886e-038
-6.2806706 283.21692 -54.583191 2.3509886e-038
-1.2442937 282.56451 -54.457458 2.3509886e-038
3.773793 282.27856 -54.402348 2.3509886e-038
8.7885227 282.21121 -54.38937 2.3509886e-038
13.852894 283.20764 -54.581406 2.3509886e-038
17.207634 284.95486 -54.91814 2.3509886e-038
-79.765343 287.49243 -60.516685 2.3509886e-038
-77.071373 284.4039 -59.866554 2.3509886e-038
-70.412529 278.06851 -58.532967 2.3509886e-038
-64.742622 274.97693 -57.882198 2.3509886e-038
-59.630013 273.94073 -57.664078 2.3509886e-038
-54.71751 273.72128 -57.617882 2.3509886e-038
-49.85553 273.73645 -57.621075 2.3509886e-038
-45.0844 274.30768 -57.741314 2.3509886e-038
-40.413605 275.70181 -58.034782 2.3509886e-038
-35.748535 277.52518 -58.418598 2.3509886e-038
-31.062195 279.74072 -58.884964 2.3509886e-038
-26.314404 282.14169 -59.390362 2.3509886e-038
-21.478752 284.50934 -59.888748 2.3509886e-038
-16.486128 285.61548 -60.12159 2.3509886e-038
-11.391925 285.16318 -60.026379 2.3509886e-038
-6.3100634 284.54236 -59.895699 2.3509886e-038
-1.2508869 284.0618 -59.79454 2.3509886e-038
3.7962615 283.9592 -59.772949 2.3509886e-038
8.8562508 284.38608 -59.862804 2.3509886e-038
13.997879 286.17172 -60.238682 2.3509886e-038
16.623354 287.96634 -60.616444 2.3509886e-038
-75.307693 288.76004 -65.915535 2.3509886e-038
-72.170692 285.01172 -65.059898 2.3509886e-038
-65.635857 278.77072 -63.635269 2.3509886e-038
-59.969685 275.50119 -62.888927 2.3509886e-038
-54.811291 274.1904 -62.589714 2.3509886e-038
-49.866627 273.79736 -62.499992 2.3509886e-038
-45.090591 274.34531 -62.625072 2.3509886e-038
-40.429016 275.80698 -62.958725 2.3509886e-038
-35.761547 277.62622 -63.374004 2.3509886e-038
-31.072254 279.8313 -63.877357 2.3509886e-038
-26.332073 282.33115 -64.448006 2.3509886e-038
-21.525707 285.13132 -65.087196 2.3509886e-038
-16.550421 286.72934 -65.451988 2.3509886e-038
-11.445965 286.5159 -65.403259 2.3509886e-038
-6.3435454 286.05215 -65.297409 2.3509886e-038
-1.2587538 285.84827 -65.250862 2.3509886e-038
3.8265808 286.22708 -65.337341 2.3509886e-038
8.9642487 287.85403 -65.708725 2.3509886e-038
14.28489 292.03937 -66.664116 2.3509886e-038
15.995711 294.18628 -67.154182 2.3509886e-038
-70.974632 291.50485 -71.7229 2.3509886e-038
-67.71389 287.59656 -70.761284 2.3509886e-038
-61.057941 280.50064 -69.015388 2.3509886e-038
-55.297398 276.62213 -68.061096 2.3509886e-038
-50.138538 275.29031 -67.733414 2.3509886e-038
-45.285347 275.53027 -67.792458 2.3509886e-038
-40.599522 276.97015 -68.146729 2.3509886e-038
-35.895866 278.66898 -68.564713 2.3509886e-038
-31.155331 280.57947 -69.034782 2.3509886e-038
-26.397011 283.02737 -69.637077 2.3509886e-038
-21.589712 285.97913 -70.363327 2.3509886e-038
-16.614887 287.84622 -70.822716 2.3509886e-038
-11.508749 288.08752 -70.882088 2.3509886e-038
-6.3841062 287.8812 -70.831322 2.3509886e-038
-1.2683487 288.02713 -70.867233 2.3509886e-038
3.8666334 289.22302 -71.161469 2.3509886e-038
9.118372 292.8031 -72.042328 2.3509886e-038
14.758292 301.71759 -74.23568 2.3509886e-038
15.115361 302.52905 -74.435341 2.3509886e-038
-65.610786 293.2977 -77.376686 2.3509886e-038
-63.040436 289.60825 -76.403351 2.3509886e-038
-56.384823 282.06189 -74.412506 2.3509886e-038
-50.816723 279.01395 -73.608406 2.3509886e-038
-45.735054 278.26642 -73.411194 2.3509886e-038
-40.899166 279.01431 -73.608505 2.3509886e-038
-36.104832 280.29123 -73.945366 2.3509886e-038
-31.325125 282.10861 -74.424828 2.3509886e-038
-26.545954 284.62433 -75.088516 2.3509886e-038
-21.711889 287.5975 -75.872887 2.3509886e-038
-16.74369 290.07767 -76.527184 2.3509886e-038
-11.632535 291.18613 -76.819618 2.3509886e-038
-6.465385 291.54633 -76.914642 2.3509886e-038
-1.2871943 292.30676 -77.115257 2.3509886e-038
3.9375966 294.53101 -77.702049 2.3509886e-038
9.3486204 300.19672 -79.196762 2.3509886e-038
13.204592 307.52792 -81.130852 2.3509886e-038
-57.896488 291.61127 -82.114471 2.3509886e-038
-52.241306 286.83575 -80.769745 2.3509886e-038
-46.665794 283.92935 -79.951332 2.3509886e-038
-41.516151 283.22339 -79.752541 2.3509886e-038
-36.540894 283.67648 -79.880127 2.3509886e-038
-31.683329 285.33453 -80.347015 2.3509886e-038
-26.86603 288.05618 -81.113403 2.3509886e-038
-21.97492 291.0816 -81.965324 2.3509886e-038
-17.006708 294.63434 -82.965736 2.3509886e-038
-11.886677 297.54782 -83.78614 2.3509886e-038
-6.6360111 299.24045 -84.262764 2.3509886e-038
-1.3252765 300.95477 -84.745499 2.3509886e-038
4.0714231 304.5412 -85.755402 2.3509886e-038
9.5189505 312.1066 -87.885727 2.3509886e-038
-41.666927 291.0451 -87.127655 2.3509886e-038
-37.53096 291.36261 -87.222702 2.3509886e-038
-32.497009 292.66238 -87.611801 2.3509886e-038
-27.531698 295.19345 -88.369514 2.3509886e-038
-22.457333 297.47171 -89.051529 2.3509886e-038
-17.416359 301.73135 -90.326706 2.3509886e-038
-12.284279 307.50061 -92.053795 2.3509886e-038
-6.9034638 311.30081 -93.191429 2.3509886e-038
-1.3843998 314.38098 -94.11351 2.3509886e-038
1.2446973 316.33624 -94.698845 2.3509886e-038
-112.72754 272.83337 -7.753942 2.3418409e-038
-113.44837 274.578 -22.941553 2.3418409e-038
-107.886 272.85214 -7.8038988 2.3418409e-038
-109.28163 276.38181 -27.978254 2.3418409e-038
-103.73886 274.71155 -9.5366039 2.3418409e-038
-105.09554 278.30417 -32.419418 2.3509886e-038
-99.940941 277.72504 -12.839999 2.3418409e-038
-100.58331 279.5101 -36.427387 2.3509886e-038
-95.643707 279.59204 -16.942879 2.3418409e-038
-96.820984 283.03351 -40.746143 2.3509886e-038
-90.792549 279.9556 -21.210056 2.3418409e-038
-92.805214 286.16156 -45.937744 2.3509886e-038
-85.886742 280.18307 -25.31728 2.3418409e-038
-88.602531 289.04263 -51.840157 2.3509886e-038
-80.107048 277.41229 71.145775 9.1476764e-041
-80.150955 277.56436 58.012421 9.1476764e-041
-81.681938 282.86618 -28.512781 2.3418409e-038
-82.938095 287.21628 -56.975815 2.3509886e-038
-74.687447 275.60684 72.972679 9.1476764e-041
-74.903351 276.40356 34.124912 9.1476764e-041
-77.809311 287.12695 -29.835091 2.3418409e-038
-78.067261 288.07883 -62.632874 2.3509886e-038
-70.021294 276.52347 66.223228 9.1476764e-041
-72.067299 284.60342 13.43324 2.3509886e-038
-73.491653 290.22839 -27.663866 2.3418409e-038
-73.32373 289.56525 -68.399101 2.3509886e-038
-64.831779 275.35559 52.645985 9.1476764e-041
-68.992546 293.02734 -74.328491 2.3509886e-038
-60.454559 277.7287 41.082867 9.1476764e-041
-63.686771 292.57755 -78.599655 2.3509886e-038
-55.840611 279.33951 25.753782 9.1476764e-041
-58.293144 291.60818 -81.8993 2.3509886e-038
-51.325439 281.80713 19.357084 9.1476764e-041
-53.12178 291.67007 -84.410431 2.3509886e-038
-46.790844 284.69022 19.326111 2.3509886e-038
-47.769066 290.642 -85.662743 2.3509886e-038
-40.538593 276.5545 88.435394 2.3509528e-038
-42.617081 290.73395 -86.825027 2.3509886e-038
-35.680779 276.99918 84.600159 2.3509528e-038
-37.799797 293.44971 -88.884155 2.3509886e-038
-30.7817 277.21463 60.820473 2.3509528e-038
-33.076099 297.87759 -91.708672 2.3509886e-038
-25.969027 278.43857 24.883032 3.5733111e-043
-28.222704 302.60239 -94.132591 2.3509886e-038
-20.996433 278.12048 29.944458 2.3509528e-038
-22.932232 303.76227 -94.521149 2.3509886e-038
-15.689285 271.81055 55.754368 2.3509528e-038
-17.683336 306.35663 -94.750763 2.3509886e-038
-10.664316 266.94962 78.917015 3.5733111e-043
-12.468335 312.10791 -95.867165 2.3509886e-038
-5.9508133 268.34253 78.426643 3.5733111e-043
-6.9961629 315.48093 -96.329956 2.3509886e-038
-1.2029983 273.18683 12.53541 2.3509886e-038
-1.3936515 316.48193 -95.582207 2.3509886e-038
3.636894 272.03857 10.588744 2.3509886e-038
4.2188497 315.5687 -93.074715 2.3509886e-038
8.4419899 271.08359 12.663541 2.3509886e-038
9.7124691 311.88037 -87.592133 2.3509886e-038
13.184597 269.54504 16.887739 2.3418052e-038
14.855277 303.70032 -75.73027 2.3509886e-038
17.786617 266.71841 22.20912 2.3418052e-038
18.382164 275.64893 -8.4731102 2.3418052e-038
22.42079 265.46231 27.994213 2.3418052e-038
23.045977 272.86453 2.8516617 2.3418052e-038
27.003252 264.13675 33.802917 2.3418052e-038
27.565784 269.63925 10.257059 2.3418052e-038
31.713888 264.27222 39.60358 2.3418052e-038
32.230328 268.57568 18.066542 2.3418052e-038
36.229874 262.95966 43.507874 2.3418052e-038
36.916256 267.94147 26.365166 2.3418052e-038
41.089153 264.15427 43.553436 2.3418052e-038
41.572014 267.25845 36.192799 2.3418052e-038
