# .PCD v0.7 - Point Cloud Data file format
VERSION 0.7
FIELDS x y z rgb
SIZE 4 4 4 4
TYPE F F F F
COUNT 1 1 1 1
WIDTH 751
HEIGHT 1
VIEWPOINT 0 0 0 1 0 0 0
POINTS 751
DATA ascii
33.876266 256.88739 30.246668 2.3418052e-038
-82.652855 254.3396 56.299767 9.1476764e-041
-9.6362076 255.7534 65.044403 3.5733111e-043
-109.08168 254.51633 -20.377895 2.3509528e-038
-37.24968 255.13271 75.700966 2.3418409e-038
-42.638599 255.25287 77.635353 2.3418409e-038
-42.037403 254.97086 77.549576 2.3418409e-038
-37.277779 254.27431 77.33773 2.3418409e-038
-34.072914 255.86992 77.823036 2.3418409e-038
-43.602512 256.88202 73.438446 2.3418409e-038
-42.234673 256.16736 73.234131 2.3418409e-038
-37.453918 255.47578 73.036423 2.3418409e-038
-33.105457 257.95587 73.745445 2.3418409e-038
-32.77536 258.27307 73.836121 2.3418409e-038
-43.863213 258.02701 69.052437 2.3418409e-038
-42.394547 257.13702 68.814262 2.3418409e-038
-37.56221 256.21445 68.56736 2.3418409e-038
-33.18362 258.56488 69.196381 2.3418409e-038
-31.945675 259.87317 69.546501 2.3418409e-038
-13.499757 256.72314 68.703491 3.5733111e-043
-9.3733377 253.30952 67.789948 3.5733111e-043
-4.7436156 253.17374 67.753616 3.5733111e-043
-4.4569197 253.28795 67.784172 3.5733111e-043
-44.042946 259.06247 64.59729 2.3418409e-038
-42.533234 257.97824 64.326927 2.3418409e-038
-37.645729 256.78412 64.029175 2.3418409e-038
-33.273109 259.26221 64.647087 2.3418409e-038
-31.45713 261.50546 65.206444 2.3418409e-038
-15.216909 260.16388 64.871925 3.5733111e-043
-14.324096 259.16434 64.622688 3.5733111e-043
-9.4415693 255.15341 63.622562 3.5733111e-043
-4.7897272 255.63478 63.742592 3.5733111e-043
-3.0634205 257.18372 64.128815 3.5733111e-043
-86.256516 251.39427 58.09304 9.1476764e-041
-83.256271 252.84874 58.429146 9.1476764e-041
-79.525536 255.70404 59.088955 9.1476764e-041
-77.935028 257.43787 59.489613 9.1476764e-041
-44.178848 259.86191 60.049774 2.3418409e-038
-42.648232 258.67572 59.775665 2.3418409e-038
-37.760704 257.56839 59.519779 2.3418409e-038
-33.394493 260.20801 60.129749 2.3418409e-038
-31.040205 262.94183 60.761494 2.3418409e-038
-15.703815 261.46741 60.420773 3.5733111e-043
-14.373281 260.05423 60.094215 3.5733111e-043
-9.4865894 256.37006 59.242867 3.5733111e-043
-4.8270345 257.62595 59.533073 3.5733111e-043
-2.7157316 260.39865 60.173805 3.5733111e-043
-87.005478 253.80301 54.013481 9.1476764e-041
-83.874306 254.72569 54.209839 9.1476764e-041
-79.774002 256.50293 54.588066 9.1476764e-041
-76.032898 259.72906 55.274639 9.1476764e-041
-75.499062 260.7189 55.485298 9.1476764e-041
-44.394928 261.13992 55.574894 2.3418409e-038
-42.852005 259.91168 55.313507 2.3418409e-038
-37.946632 258.83664 55.084713 2.3418409e-038
-33.504978 261.06891 55.55978 2.3418409e-038
-30.347792 263.55231 56.088291 2.3418409e-038
-16.018032 261.86716 55.729664 3.5733111e-043
-14.379753 260.17133 55.368759 3.5733111e-043
-9.4948492 256.59329 54.607296 3.5733111e-043
-4.8388124 258.25449 54.960827 3.5733111e-043
-2.6682129 261.6423 55.681808 3.5733111e-043
-86.916275 257.06302 50.011532 9.1476764e-041
-84.561478 256.81262 49.962814 9.1476764e-041
-79.846733 256.73679 49.948059 9.1476764e-041
-75.614426 258.29953 50.25209 9.1476764e-041
-73.068779 261.15598 50.807808 9.1476764e-041
-44.601948 262.42264 51.054241 2.3418409e-038
-43.07085 261.23904 50.823975 2.3418409e-038
-38.124481 260.04974 50.59259 2.3418409e-038
-33.593235 261.75659 50.924664 2.3418409e-038
-29.618387 264.49725 51.457855 2.3418409e-038
-16.57247 261.98221 50.968555 3.5733111e-043
-14.34787 259.59448 50.504021 3.5733111e-043
-9.4762926 256.0918 49.822578 3.5733111e-043
-4.8400583 258.32101 50.256271 3.5733111e-043
-2.6692638 262.33694 51.037567 3.5733111e-043
-86.021042 259.36166 45.721012 9.1476764e-041
-85.273949 258.97641 45.653099 9.1476764e-041
-79.992744 257.20627 45.341053 9.1476764e-041
-75.458092 257.7655 45.43964 9.1476764e-041
-71.524506 260.58896 45.937366 9.1476764e-041
-70.928467 261.52194 46.101833 9.1476764e-041
-44.679138 263.32916 46.420414 2.3418409e-038
-43.234665 262.23264 46.227116 2.3418409e-038
-38.2411 260.84518 45.982533 2.3418409e-038
-33.659058 262.26947 46.233608 2.3418409e-038
-29.283243 266.03992 46.898277 3.5733111e-043
-29.078745 266.3074 46.945431 3.5733111e-043
-17.34539 262.52942 46.279438 3.5733111e-043
-14.309501 258.90027 45.639675 3.5733111e-043
-9.4479933 255.32704 45.009781 3.5733111e-043
-4.8329868 257.9436 45.471035 3.5733111e-043
-2.6686919 262.30109 46.239182 3.5733111e-043
-84.274452 259.26028 40.967274 9.1476764e-041
-80.033997 257.3389 40.663662 9.1476764e-041
-75.503029 257.91901 40.755333 9.1476764e-041
-71.484329 260.4426 41.154095 9.1476764e-041
-69.146805 263.20966 41.591335 9.1476764e-041
-44.542206 264.37988 41.776253 2.3418409e-038
-43.44062 263.48181 41.634342 2.3418409e-038
-38.378826 261.78464 41.366161 2.3418409e-038
-33.747337 262.95737 41.551472 2.3418409e-038
-29.30711 266.25674 42.072826 2.3418409e-038
-28.368452 267.21054 42.223537 3.5733111e-043
-17.954493 262.45023 41.471333 3.5733111e-043
-14.266433 258.12103 40.787254 3.5733111e-043
-9.4276104 254.77621 40.258717 3.5733111e-043
-4.8195348 257.22565 40.645763 3.5733111e-043
-2.6573391 261.10779 41.259209 3.5733111e-043
-82.388031 258.25482 36.090889 2.3509886e-038
-80.043152 257.36835 35.967007 9.1476764e-041
-75.551186 258.0835 36.066944 9.1476764e-041
-71.472412 260.39917 36.390556 9.1476764e-041
-67.806625 264.65704 36.985596 9.1476764e-041
-67.44754 265.42511 37.09293 9.1476764e-041
-43.978706 264.59995 36.977615 2.3418409e-038
-43.576645 264.30688 36.936661 2.3418409e-038
-38.523979 262.77475 36.722546 2.3418409e-038
-33.857666 263.81705 36.868202 2.3418409e-038
-29.315006 266.32849 37.219177 2.3418409e-038
-27.586151 267.48376 37.380627 3.5733111e-043
-18.280445 262.29782 36.655891 3.5733111e-043
-14.270758 258.19928 36.08313 3.5733111e-043
-9.4506292 255.39827 35.691689 3.5733111e-043
-4.8173161 257.10724 35.930515 3.5733111e-043
-2.6669221 259.92764 36.324661 3.5733111e-043
-80.930725 258.94473 31.457205 9.1476764e-041
-80.482117 258.77979 31.437166 9.1476764e-041
-75.803429 258.94516 31.457256 9.1476764e-041
-71.469292 260.38782 31.632513 9.1476764e-041
-67.469917 263.34286 31.991501 9.1476764e-041
-65.498962 266.25519 32.345299 9.1476764e-041
-43.203938 264.37985 32.117477 2.3418409e-038
-38.635651 263.53644 32.015015 2.3418409e-038
-33.929955 264.38031 32.117531 2.3418409e-038
-29.337925 266.53671 32.379498 2.3418409e-038
-27.101225 267.83469 32.537178 3.5733111e-043
-18.435431 263.06714 31.958002 3.5733111e-043
-14.333394 259.33258 31.504322 3.5733111e-043
-9.5003843 256.74286 31.189718 3.5733111e-043
-4.8249588 257.51514 31.283535 3.5733111e-043
-2.7949176 259.42511 31.51556 2.3509886e-038
29.452009 259.77225 31.557732 2.3418052e-038
32.800224 257.46234 31.277124 2.3418052e-038
37.444935 257.06195 31.228481 2.3418052e-038
39.598904 257.65033 31.299955 2.3418052e-038
-79.737587 261.39963 26.98048 2.3509886e-038
-76.448997 261.15045 26.954762 9.1476764e-041
-71.772156 261.49124 26.989935 9.1476764e-041
-67.491402 263.42673 27.189707 9.1476764e-041
-63.825623 267.9678 27.658417 9.1476764e-041
-42.845276 265.74289 27.428772 2.3418409e-038
-38.842606 264.94809 27.346737 2.3418409e-038
-34.04295 265.26074 27.379007 2.3418409e-038
-29.410629 267.19724 27.57888 3.5733111e-043
-26.938196 268.67688 27.731606 3.5733111e-043
-18.582249 264.11996 27.261259 3.5733111e-043
-14.390921 260.37338 26.874556 3.5733111e-043
-9.5414963 257.85388 26.614506 3.5733111e-043
-4.8441696 258.54047 26.685368 2.3509886e-038
-3.1624787 260.11862 26.848263 2.3509886e-038
26.250481 261.09814 26.949364 2.3418052e-038
28.302206 259.34085 26.767982 2.3418052e-038
32.799507 257.45676 26.573515 2.3418052e-038
37.59182 258.07031 26.636845 2.3418052e-038
38.864502 258.64655 26.69632 2.3418052e-038
-78.766678 265.13547 22.522886 9.1476764e-041
-77.40432 264.41382 22.461582 9.1476764e-041
-72.145988 262.85327 22.329014 9.1476764e-041
-67.658424 264.07861 22.433105 9.1476764e-041
-63.878788 268.46735 22.805922 9.1476764e-041
-62.497181 271.93796 23.100746 9.1476764e-041
-43.07925 268.36646 22.797352 2.3418409e-038
-39.140755 266.98178 22.679726 2.3418409e-038
-34.205032 266.52368 22.640812 3.5733111e-043
-29.530605 268.2872 22.790621 3.5733111e-043
-26.857483 270.1105 22.945509 3.5733111e-043
-19.064461 265.69525 22.570436 3.5733111e-043
-14.448421 261.41373 22.206728 3.5733111e-043
-9.5813608 258.93121 21.995842 3.5733111e-043
-4.8679905 259.8118 22.070646 3.5733111e-043
-3.8366137 260.73465 22.149042 2.3509886e-038
23.235399 260.82983 22.157127 2.3418052e-038
23.670685 260.50555 22.12958 2.3418052e-038
28.18866 258.30038 21.942255 2.3418052e-038
32.908394 258.31146 21.943195 2.3418052e-038
37.335838 260.70026 22.146118 2.3418052e-038
-76.977791 266.46829 17.768576 9.1476764e-041
-72.411964 263.8223 17.592136 9.1476764e-041
-67.743546 264.41086 17.631382 9.1476764e-041
-63.83828 268.29709 17.890522 9.1476764e-041
-60.622688 275.96918 18.402113 9.1476764e-041
-60.545193 276.21246 18.418335 9.1476764e-041
-43.709267 270.71881 18.052008 2.3509886e-038
-39.355434 268.44614 17.900463 2.3509886e-038
-34.31757 267.40057 17.83074 2.3509886e-038
-29.5837 268.76959 17.922031 3.5733111e-043
-26.107401 270.87943 18.062717 3.5733111e-043
-20.54184 268.31039 17.891411 3.5733111e-043
-19.674158 267.54044 17.840067 3.5733111e-043
-14.539867 263.06827 17.541855 3.5733111e-043
-9.6401272 260.51935 17.371891 3.5733111e-043
-4.8974524 261.38422 17.42956 3.5733111e-043
-4.5869479 261.60919 17.444563 3.5733111e-043
19.946157 260.74741 17.387098 2.3418052e-038
23.495649 258.57922 17.242519 2.3418052e-038
28.087704 257.37531 17.162239 2.3418052e-038
32.974094 258.82715 17.259052 2.3418052e-038
34.858711 260.44238 17.366758 2.3418052e-038
-74.762886 266.55179 12.905081 9.1476764e-041
-72.875664 265.51172 12.854726 9.1476764e-041
-67.952934 265.22809 12.840994 9.1476764e-041
-63.616776 267.36615 12.944508 9.1476764e-041
-59.547314 271.07382 13.124014 9.1476764e-041
-55.773109 275.69281 13.347643 9.1476764e-041
-45.671001 273.06073 13.220211 2.3509886e-038
-44.922844 272.47198 13.191707 2.3509886e-038
-39.474434 269.25784 13.036094 2.3509886e-038
-34.418591 268.18774 12.984284 2.3509886e-038
-29.604515 268.95868 13.02161 3.5733111e-043
-24.812305 270.27463 13.085321 3.5733111e-043
-19.729168 268.28845 12.989161 3.5733111e-043
-14.645623 264.98169 12.829064 3.5733111e-043
-9.7207165 262.6972 12.718461 3.5733111e-043
-4.9811273 263.91367 12.777355 2.3509886e-038
16.362368 262.58878 12.713212 2.3418052e-038
18.915293 260.54987 12.614498 2.3418052e-038
23.461962 258.2085 12.501141 2.3418052e-038
28.103386 257.51901 12.467759 2.3418052e-038
31.761438 258.79126 12.529355 2.3418052e-038
-73.250076 268.60858 8.0980253 2.3509886e-038
-68.391533 266.94003 8.0477209 9.1476764e-041
-63.555649 267.10928 8.052824 9.1476764e-041
-58.92186 268.22659 8.0865088 9.1476764e-041
-54.464958 270.42493 8.1527843 2.3509886e-038
-49.870117 272.30856 8.2095718 2.3509886e-038
-44.818161 271.83707 8.1953573 2.3509886e-038
-39.594997 270.0802 8.1423912 2.3509886e-038
-34.575317 269.40894 8.1221542 2.3509886e-038
-29.657263 269.4379 8.1230268 2.3509886e-038
-24.725349 269.32745 8.1196976 3.5733111e-043
-19.73613 268.38315 8.0912285 3.5733111e-043
-14.733223 266.56662 8.0364647 3.5733111e-043
-9.7925959 264.63974 7.9783721 2.3509886e-038
-4.9782038 265.69406 8.0101576 2.3509886e-038
-4.6595035 265.95218 8.0179396 2.3509886e-038
12.467721 264.77429 7.9824281 2.3418052e-038
14.305261 263.29947 7.9379649 2.3418052e-038
18.924988 260.68341 7.859097 2.3418052e-038
23.559336 259.28012 7.8167896 2.3418052e-038
28.302631 259.34476 7.8187389 2.3418052e-038
28.910378 259.51028 7.823729 2.3418052e-038
-72.201981 271.16275 3.2217457 2.3509886e-038
-69.044968 269.49045 3.2018769 2.3509886e-038
-63.775249 268.0322 3.184551 2.3509886e-038
-58.877884 268.0264 3.1844823 2.3509886e-038
-54.159588 268.90875 3.1949654 2.3509886e-038
-49.441715 269.9693 3.2075665 2.3509886e-038
-44.632858 270.71317 3.216404 2.3509886e-038
-39.696705 270.77399 3.2171266 2.3509886e-038
-34.730904 270.62125 3.215312 2.3509886e-038
-29.718691 269.996 3.2078834 2.3509886e-038
-24.707405 269.13199 3.1976178 2.3509886e-038
-19.764412 268.76773 3.1932902 2.3509886e-038
-14.799219 267.76068 3.1813252 2.3509886e-038
-9.8360748 265.81473 3.1582048 2.3509886e-038
-4.9826479 265.93124 3.1595891 2.3509886e-038
-2.7573576 267.37473 3.1767395 2.3509886e-038
7.3157468 267.53467 3.1786399 2.3418052e-038
9.5953951 266.06619 3.1611924 2.3418052e-038
14.300875 263.21872 3.1273613 2.3418052e-038
18.966034 261.24884 3.1039565 2.3418052e-038
23.67577 260.56152 3.0957904 2.3418052e-038
26.24827 261.10657 3.1022663 2.3418052e-038
-71.79081 274.5629 -1.7532582 2.3509886e-038
-69.9571 273.0506 -1.7436013 2.3509886e-038
-64.117249 269.46951 -1.7207336 2.3509886e-038
-58.98465 268.51242 -1.7146221 2.3509886e-038
-54.16766 268.94879 -1.7174087 2.3509886e-038
-49.376434 269.61288 -1.7216492 2.3509886e-038
-44.580349 270.39465 -1.7266413 2.3509886e-038
-39.749275 271.13257 -1.7313534 2.3509886e-038
-34.823875 271.34567 -1.7327143 2.3509886e-038
-29.794714 270.68665 -1.728506 2.3509886e-038
-24.792521 270.05914 -1.7244989 2.3509886e-038
-19.845304 269.86777 -1.723277 2.3509886e-038
-14.856931 268.80484 -1.7164894 2.3509886e-038
-9.8800793 267.00394 -1.7049893 2.3509886e-038
-4.9969397 266.694 -1.7030104 2.3509886e-038
-0.12594557 268.09555 -1.7119602 2.3418052e-038
4.7629914 267.6282 -1.7089758 2.3418052e-038
9.5974951 266.12442 -1.6993732 2.3418052e-038
14.366005 264.41751 -1.6884733 2.3418052e-038
19.070896 262.69327 -1.6774631 2.3418052e-038
23.534668 262.20432 -1.674341 2.3418052e-038
-71.427483 277.21078 -6.8339372 2.3509886e-038
-70.860878 276.57816 -6.8183417 2.3509886e-038
-64.474533 270.9711 -6.6801133 2.3509886e-038
-59.165886 269.33746 -6.6398406 2.3509886e-038
-54.329613 269.75293 -6.6500821 2.3509886e-038
-49.517948 270.38559 -6.665679 2.3509886e-038
-44.671261 270.94604 -6.6794963 2.3509886e-038
-39.822948 271.63507 -6.6964822 2.3509886e-038
-34.91375 272.04596 -6.7066116 2.3509886e-038
-29.911438 271.7471 -6.699244 2.3509886e-038
-24.929247 271.54849 -6.6943469 2.3509886e-038
-19.951956 271.31808 -6.6886673 2.3509886e-038
-14.937488 270.26236 -6.662641 2.3509886e-038
-9.9582758 269.11716 -6.634409 2.3509886e-038
-5.0357828 268.76712 -6.6257801 2.3509886e-038
-0.12624454 268.73196 -6.6249127 2.3418052e-038
4.7738075 268.23599 -6.6126862 2.3418052e-038
9.6476479 267.51511 -6.5949144 2.3418052e-038
14.48555 266.61783 -6.5727944 2.3418052e-038
19.2913 265.72922 -6.5508881 2.3418052e-038
21.116764 265.58881 -6.5474267 2.3418052e-038
-70.509956 277.44458 -11.907731 2.3509886e-038
-64.752197 272.13806 -11.679979 2.3509886e-038
-59.389542 270.35562 -11.603477 2.3509886e-038
-54.5499 270.84668 -11.624554 2.3509886e-038
-49.695175 271.3533 -11.646297 2.3509886e-038
-44.790955 271.67203 -11.659978 2.3509886e-038
-39.900883 272.16669 -11.681209 2.3509886e-038
-35.006271 272.76688 -11.706968 2.3509886e-038
-30.028246 272.80832 -11.708746 2.3509886e-038
-25.037703 272.72986 -11.705379 2.3509886e-038
-20.044737 272.57977 -11.698937 2.3509886e-038
-15.036708 272.05753 -11.676523 2.3509886e-038
-10.052354 271.65955 -11.659443 2.3509886e-038
-5.0840335 271.34235 -11.645827 2.3509886e-038
-0.12715553 270.67114 -11.61702 2.3418052e-038
4.8050208 269.98981 -11.587778 2.3418052e-038
9.7122908 269.30756 -11.558496 2.3418052e-038
14.616479 269.02768 -11.546484 2.3418052e-038
19.136913 270.54514 -11.611611 2.3418052e-038
-115.65327 256.66623 -15.704417 2.3509528e-038
-112.56433 256.48434 -15.693287 2.3509528e-038
-108.74295 258.53796 -15.818942 2.3509528e-038
-107.52506 259.75845 -15.893618 2.3509528e-038
-69.719994 277.04361 -16.951229 2.3509886e-038
-64.934753 272.9053 -16.698021 2.3509886e-038
-59.553566 271.10226 -16.587702 2.3509886e-038
-54.68782 271.53146 -16.613962 2.3509886e-038
-49.789257 271.86703 -16.634497 2.3509886e-038
-44.853233 272.04977 -16.645678 2.3509886e-038
-39.924606 272.32849 -16.662729 2.3509886e-038
-35.049477 273.10355 -16.710152 2.3509886e-038
-30.098778 273.4491 -16.731297 2.3509886e-038
-25.078672 273.17615 -16.714594 2.3509886e-038
-20.071854 272.94852 -16.700666 2.3509886e-038
-15.085958 272.94861 -16.700674 2.3509886e-038
-10.108265 273.17053 -16.714251 2.3509886e-038
-5.1137309 272.92734 -16.699371 2.3509886e-038
-0.12777124 271.98178 -16.641516 2.3509886e-038
4.8242011 271.06754 -16.585577 2.3418052e-038
9.7435513 270.17432 -16.530926 2.3418052e-038
14.698811 270.54306 -16.553486 2.3418052e-038
17.611675 272.58411 -16.678371 2.3418052e-038
-116.38541 252.97868 -20.099924 2.3509528e-038
-115.56302 252.79517 -20.085342 2.3509528e-038
-111.16824 253.30322 -20.125711 2.3509528e-038
-107.56091 255.72765 -20.318338 2.3509528e-038
-104.35043 259.35855 -20.606825 2.3509528e-038
-101.47906 264.21777 -20.992903 2.3509528e-038
-100.91436 265.54904 -21.098677 2.3509528e-038
-69.597191 277.4982 -22.048073 2.3509886e-038
-65.012154 273.23062 -21.709003 2.3509886e-038
-59.533005 271.00867 -21.532461 2.3509886e-038
-54.668987 271.43796 -21.566572 2.3509886e-038
-49.81319 271.99771 -21.611044 2.3509886e-038
-44.905903 272.36926 -21.640566 2.3509886e-038
-39.972527 272.65536 -21.663298 2.3509886e-038
-35.109119 273.56827 -21.73583 2.3509886e-038
-30.178396 274.17242 -21.783833 2.3509886e-038
-25.132439 273.76178 -21.751205 2.3509886e-038
-20.106768 273.42331 -21.724312 2.3509886e-038
-15.113718 273.45087 -21.726501 2.3509886e-038
-10.131211 273.79062 -21.753498 2.3509886e-038
-5.1280255 273.69025 -21.745522 2.3509886e-038
-0.12816963 272.8298 -21.677156 2.3509886e-038
4.8379254 271.83868 -21.59841 2.3509886e-038
9.7606802 270.64932 -21.50391 2.3509886e-038
14.707128 270.69614 -21.507629 2.3418052e-038
16.662876 271.91348 -21.604349 2.3509886e-038
-113.9161 251.14388 -24.541744 2.3509528e-038
-110.4754 251.72456 -24.59849 2.3509528e-038
-106.61925 253.48885 -24.770895 2.3509528e-038
-103.41712 257.03885 -25.117802 2.3509528e-038
-100.77557 262.38611 -25.640335 2.3509528e-038
-97.973534 267.82867 -26.172182 2.3509528e-038
-96.792397 269.86115 -26.370794 2.3509886e-038
-70.377068 279.24811 -27.288088 2.3509886e-038
-65.053238 273.40326 -26.716928 2.3509886e-038
-59.407822 270.43881 -26.427244 2.3509886e-038
-54.555397 270.87396 -26.469767 2.3509886e-038
-49.823895 272.05615 -26.585291 2.3509886e-038
-45.037506 273.16748 -26.69389 2.3509886e-038
-40.141903 273.8107 -26.756742 2.3509886e-038
-35.245468 274.63071 -26.836874 2.3509886e-038
-30.289755 275.18411 -26.890955 2.3509886e-038
-25.237715 274.90854 -26.864025 2.3509886e-038
-20.195999 274.63672 -26.837463 2.3509886e-038
-15.17539 274.56671 -26.830622 2.3509886e-038
-10.16014 274.57239 -26.831179 2.3509886e-038
-5.1442804 274.5578 -26.829752 2.3509886e-038
-0.12885979 274.29892 -26.804451 2.3509886e-038
4.8673849 273.49402 -26.725798 2.3509886e-038
9.8121586 272.07672 -26.587299 2.3509886e-038
14.736513 271.23703 -26.505245 2.3509886e-038
16.30098 271.66241 -26.546814 2.3509886e-038
-110.26642 251.59166 -29.181282 2.3509528e-038
-106.21449 252.52652 -29.289713 2.3509528e-038
-102.88307 255.7115 -29.659128 2.3509528e-038
-99.986992 260.33292 -30.19515 2.3509528e-038
-96.849617 264.75626 -30.7082 2.3509528e-038
-93.576317 269.25348 -31.22982 2.3509528e-038
-91.692879 272.42526 -31.597704 2.3509886e-038
-72.585724 281.56607 -32.657917 2.3509886e-038
-71.912498 280.68274 -32.555462 2.3509886e-038
-65.072327 273.48349 -31.72044 2.3509886e-038
-59.464405 270.69641 -31.397179 2.3509886e-038
-54.562454 270.909 -31.421837 2.3509886e-038
-49.831047 272.09525 -31.559423 2.3509886e-038
-45.100319 273.54846 -31.727978 2.3509886e-038
-40.267204 274.66537 -31.857529 2.3509886e-038
-35.37817 275.6647 -31.973436 2.3509886e-038
-30.426994 276.43097 -32.062309 2.3509886e-038
-25.385931 276.52301 -32.072987 2.3509886e-038
-20.313541 276.23514 -32.039597 2.3509886e-038
-15.260664 276.10956 -32.025032 2.3509886e-038
-10.211031 275.94772 -32.00626 2.3509886e-038
-5.1698895 275.92459 -32.003578 2.3509886e-038
-0.12966113 276.0047 -32.012867 2.3509886e-038
4.8983655 275.23477 -31.923567 2.3509886e-038
9.8787117 273.92215 -31.77132 2.3509886e-038
14.867743 273.65237 -31.740032 2.3509886e-038
16.377777 274.20731 -31.804394 2.3509886e-038
-106.25446 253.94067 -34.092445 2.3509528e-038
-103.16888 256.42188 -34.425552 2.3509528e-038
-99.637001 259.42166 -34.828281 2.3509528e-038
-95.951111 262.30002 -35.214714 2.3509528e-038
-92.415161 265.91241 -35.699692 2.3509528e-038
-88.985542 270.24847 -36.281822 2.3509528e-038
-85.41851 274.65213 -36.873032 2.3509886e-038
-83.559509 277.34018 -37.23391 2.3509886e-038
-78.63121 281.94635 -37.852306 2.3509886e-038
-77.264488 281.50174 -37.792614 2.3509886e-038
-71.011391 277.16565 -37.21048 2.3509886e-038
-65.014343 273.23978 -36.683418 2.3509886e-038
-59.670357 271.63391 -36.467823 2.3509886e-038
-54.746399 271.82233 -36.493118 2.3509886e-038
-49.945614 272.72083 -36.613743 2.3509886e-038
-45.142094 273.80182 -36.758873 2.3509886e-038
-40.299191 274.88358 -36.904099 2.3509886e-038
-35.45306 276.24826 -37.087315 2.3509886e-038
-30.545193 277.50479 -37.256012 2.3509886e-038
-25.514359 277.92194 -37.312016 2.3509886e-038
-20.404118 277.46683 -37.250916 2.3509886e-038
-15.329137 277.34842 -37.23502 2.3509886e-038
-10.264038 277.38019 -37.239285 2.3509886e-038
-5.1950464 277.26724 -37.224121 2.3509886e-038
-0.13015445 277.05478 -37.195599 2.3509886e-038
4.9093313 275.85092 -37.03397 2.3509886e-038
9.9005699 274.52823 -36.8564 2.3509886e-038
14.958635 275.32532 -36.963409 2.3509886e-038
16.398905 276.18869 -37.079319 2.3509886e-038
-102.90419 259.46609 -39.573872 2.3509528e-038
-99.895424 260.09448 -39.66972 2.3509528e-038
-95.590935 261.3154 -39.85593 2.3509528e-038
-91.632088 263.65924 -40.213413 2.3509528e-038
-87.972855 267.17297 -40.749325 2.3509528e-038
-84.162323 270.61301 -41.274006 2.3509528e-038
-80.042229 273.42496 -41.702885 2.3509886e-038
-75.403381 274.7211 -41.90057 2.3509886e-038
-70.227142 274.10461 -41.806549 2.3509886e-038
-64.964111 273.02869 -41.642441 2.3509886e-038
-59.908291 272.71707 -41.594913 2.3509886e-038
-55.029984 273.23035 -41.673203 2.3509886e-038
-50.167633 273.93307 -41.780388 2.3509886e-038
-45.243542 274.41718 -41.854218 2.3509886e-038
-40.344379 275.1918 -41.972366 2.3509886e-038
-35.502552 276.63388 -42.192314 2.3509886e-038
-30.605518 278.05286 -42.408733 2.3509886e-038
-25.598879 278.84259 -42.529186 2.3509886e-038
-20.48834 278.61212 -42.494038 2.3509886e-038
-15.385869 278.37488 -42.457848 2.3509886e-038
-10.309231 278.6015 -42.492413 2.3509886e-038
-5.214879 278.32574 -42.450352 2.3509886e-038
-0.13038184 277.53888 -42.330341 2.3509886e-038
4.913352 276.07681 -42.107346 2.3509886e-038
9.9152374 274.93494 -41.933189 2.3509886e-038
15.020184 276.45816 -42.165512 2.3509886e-038
16.122105 277.26428 -42.288464 2.3509886e-038
-98.63121 264.01151 -45.089794 2.3509528e-038
-96.453644 263.67377 -45.032112 2.3509528e-038
-91.827606 264.22183 -45.125713 2.3509528e-038
-87.660828 266.22534 -45.467888 2.3509528e-038
-83.434593 268.2731 -45.817619 2.3509528e-038
-79.032814 269.97681 -46.108589 2.3509528e-038
-74.478683 271.35208 -46.343472 2.3509886e-038
-69.71492 272.10535 -46.472118 2.3509886e-038
-64.811943 272.38916 -46.520592 2.3509886e-038
-59.933002 272.82956 -46.595806 2.3509886e-038
-55.106014 273.60785 -46.728725 2.3509886e-038
-50.24271 274.34305 -46.854286 2.3509886e-038
-45.310211 274.82153 -46.936005 2.3509886e-038
-40.425766 275.74695 -47.094055 2.3509886e-038
-35.59161 277.32785 -47.364052 2.3509886e-038
-30.70822 278.98593 -47.647232 2.3509886e-038
-25.727016 280.2384 -47.861141 2.3509886e-038
-20.610321 280.2709 -47.866692 2.3509886e-038
-15.457215 279.66574 -47.763336 2.3509886e-038
-10.348535 279.6637 -47.762985 2.3509886e-038
-5.2312651 279.20029 -47.683842 2.3509886e-038
-0.13066372 278.13892 -47.502575 2.3509886e-038
4.9298348 277.00299 -47.308571 2.3509886e-038
9.9725523 276.52423 -47.226807 2.3509886e-038
15.17108 279.23553 -47.689865 2.3509886e-038
15.582857 279.64319 -47.759483 2.3509886e-038
-94.127251 268.47681 -50.756649 2.3509528e-038
-93.22142 268.23233 -50.710426 2.3509528e-038
-88.171761 267.77704 -50.624348 2.3509528e-038
-83.170296 267.42328 -50.557472 2.3509528e-038
-78.430473 267.91919 -50.651226 2.3509528e-038
-73.866333 269.12106 -50.878445 2.3509886e-038
-69.20388 270.11072 -51.065544 2.3509886e-038
-64.440575 270.8284 -51.201225 2.3509886e-038
-59.671913 271.64102 -51.354851 2.3509886e-038
-54.913261 272.65082 -51.545757 2.3509886e-038
-50.119999 273.673 -51.739006 2.3509886e-038
-45.262203 274.53033 -51.901089 2.3509886e-038
-40.460907 275.98663 -52.176411 2.3509886e-038
-35.674316 277.97226 -52.5518 2.3509886e-038
-30.828575 280.07935 -52.95015 2.3509886e-038
-25.863125 281.72098 -53.260509 2.3509886e-038
-20.738369 282.01218 -53.315559 2.3509886e-038
-15.544239 281.24026 -53.169628 2.3509886e-038
-10.385274 280.65656 -53.059277 2.3509886e-038
-5.2461319 279.99374 -52.933968 2.3509886e-038
-0.13111304 279.09534 -52.764118 2.3509886e-038
4.9582324 278.59863 -52.670219 2.3509886e-038
10.060008 278.94922 -52.736504 2.3509886e-038
14.80209 282.26868 -53.364052 2.3509886e-038
-89.863091 272.15909 -56.424282 2.3509528e-038
-89.529472 271.90039 -56.370647 2.3509528e-038
-83.383865 268.10999 -55.584816 2.3509528e-038
-78.174721 267.04553 -55.364132 2.3509528e-038
-73.466805 267.66544 -55.492653 2.3509886e-038
-68.786812 268.48285 -55.662121 2.3509886e-038
-64.073479 269.28558 -55.828541 2.3509886e-038
-59.36515 270.24457 -56.027359 2.3509886e-038
-54.656559 271.37625 -56.261978 2.3509886e-038
-49.903709 272.492 -56.493298 2.3509886e-038
-45.100368 273.54877 -56.712387 2.3509886e-038
-40.372231 275.38177 -57.092411 2.3509886e-038
-35.65971 277.85846 -57.605877 2.3509886e-038
-30.86656 280.42444 -58.137859 2.3509886e-038
-25.920095 282.34155 -58.535316 2.3509886e-038
-20.822182 283.15192 -58.703327 2.3509886e-038
-15.627677 282.74985 -58.619968 2.3509886e-038
-10.429309 281.84656 -58.432693 2.3509886e-038
-5.2637925 280.93634 -58.243988 2.3509886e-038
-0.13166721 280.27499 -58.106873 2.3509886e-038
4.9939952 280.60812 -58.175941 2.3509886e-038
10.168413 281.95511 -58.455204 2.3509886e-038
13.866323 284.60495 -59.004562 2.3509886e-038
-84.59024 271.5127 -61.249943 2.3509528e-038
-84.404999 271.39331 -61.223007 2.3509528e-038
-78.789894 269.14697 -60.716267 2.3509528e-038
-73.62941 268.25784 -60.51569 2.3509886e-038
-68.685471 268.08731 -60.477215 2.3509886e-038
-63.876263 268.45673 -60.560555 2.3509886e-038
-59.15601 269.29251 -60.749096 2.3509886e-038
-54.43372 270.26981 -60.969566 2.3509886e-038
-49.681332 271.27774 -61.196938 2.3509886e-038
-44.97266 272.77417 -61.534512 2.3509886e-038
-40.336872 275.14063 -62.068359 2.3509886e-038
-35.663456 277.88763 -62.688053 2.3509886e-038
-30.908747 280.80771 -63.346783 2.3509886e-038
-25.98366 283.03394 -63.848995 2.3509886e-038
-20.905899 284.29034 -64.132423 2.3509886e-038
-15.709365 284.22784 -64.118324 2.3509886e-038
-10.483733 283.31735 -63.91293 2.3509886e-038
-5.2886848 282.26486 -63.675499 2.3509886e-038
-0.13236667 281.76389 -63.562481 2.3509886e-038
5.0403385 283.2121 -63.889183 2.3509886e-038
10.351041 287.01913 -64.748001 2.3509886e-038
12.986414 289.91382 -65.401016 2.3509886e-038
-80.486214 275.40479 -67.158737 2.3509528e-038
-74.480118 271.3573 -66.171745 2.3509886e-038
-68.958405 269.15259 -65.634109 2.3509886e-038
-63.919441 268.63818 -65.508675 2.3509886e-038
-59.102619 269.04947 -65.608963 2.3509886e-038
-54.32349 269.72253 -65.773094 2.3509886e-038
-49.570084 270.67026 -66.004204 2.3509886e-038
-44.959808 272.69623 -66.498245 2.3509886e-038
-40.426189 275.74985 -67.242882 2.3509886e-038
-35.776039 278.76486 -67.978111 2.3509886e-038
-31.014692 281.77023 -68.710983 2.3509886e-038
-26.081495 284.09964 -69.279022 2.3509886e-038
-20.993643 285.48355 -69.616486 2.3509886e-038
-15.773922 285.3959 -69.595116 2.3509886e-038
-10.530173 284.57236 -69.394295 2.3509886e-038
-5.3164177 283.74503 -69.192543 2.3509886e-038
-0.13324437 283.6322 -69.165031 2.3509886e-038
5.0971327 286.40329 -69.840782 2.3509886e-038
10.580428 293.3797 -71.542 2.3509886e-038
11.958351 295.77444 -72.125969 2.3509886e-038
-74.808205 276.18945 -72.395187 2.3509886e-038
-69.876572 272.7363 -71.490051 2.3509886e-038
-64.353416 270.46207 -70.893921 2.3509886e-038
-59.331963 270.09348 -70.797302 2.3509886e-038
-54.472687 270.46332 -70.894249 2.3509886e-038
-49.701324 271.3869 -71.136337 2.3509886e-038
-45.090214 273.48715 -71.686867 2.3509886e-038
-40.542984 276.54648 -72.488777 2.3509886e-038
-35.87001 279.49713 -73.262199 2.3509886e-038
-31.107914 282.61716 -74.080025 2.3509886e-038
-26.190704 285.28922 -74.780441 2.3509886e-038
-21.09197 286.82065 -75.181854 2.3509886e-038
-15.8551 286.86459 -75.193382 2.3509886e-038
-10.590878 286.21289 -75.022545 2.3509886e-038
-5.3552742 285.81885 -74.919258 2.3509886e-038
-0.13462421 286.56943 -75.116005 2.3509886e-038
5.1829948 291.22784 -76.337074 2.3509886e-038
10.490445 300.41614 -78.745529 2.3509886e-038
-68.76181 277.0777 -77.689339 2.3509886e-038
-65.316681 274.51047 -76.969528 2.3509886e-038
-59.986668 273.07385 -76.566711 2.3509886e-038
-54.991398 273.03879 -76.556877 2.3509886e-038
-50.078964 273.44894 -76.671883 2.3509886e-038
-45.325706 274.91553 -77.083099 2.3509886e-038
-40.675224 277.44852 -77.793312 2.3509886e-038
-35.94426 280.07568 -78.529938 2.3509886e-038
-31.192886 283.38913 -79.458992 2.3509886e-038
-26.321718 286.71634 -80.391907 2.3509886e-038
-21.24099 288.84711 -80.989357 2.3509886e-038
-16.012287 289.70859 -81.230896 2.3509886e-038
-10.714836 289.56281 -81.190018 2.3509886e-038
-5.4260526 289.59637 -81.19944 2.3509886e-038
-0.13679633 291.19312 -81.647141 2.3509886e-038
5.2947602 297.50781 -83.417717 2.3509886e-038
8.0426693 302.9245 -84.936485 2.3509886e-038
-61.486004 279.0654 -83.34433 2.3509886e-038
-61.295486 279.03192 -83.334343 2.3509886e-038
-56.020435 278.14804 -83.070366 2.3509886e-038
-50.815929 277.47302 -82.868767 2.3509886e-038
-45.871017 278.22302 -83.092751 2.3509886e-038
-41.067432 280.12381 -83.660431 2.3509886e-038
-36.234043 282.33365 -84.320412 2.3509886e-038
-31.460676 285.82202 -85.362244 2.3509886e-038
-26.625736 290.02792 -86.618347 2.3509886e-038
-21.56568 293.26242 -87.584351 2.3509886e-038
-16.331831 295.49005 -88.249649 2.3509886e-038
-10.964717 296.31567 -88.496216 2.3509886e-038
-5.5634379 296.92886 -88.679352 2.3509886e-038
-0.14056262 299.2103 -89.360718 2.3509886e-038
3.4716513 303.04593 -90.506248 2.3509886e-038
-51.529686 285.67944 -90.538109 2.3509886e-038
-47.247978 286.57471 -90.821846 2.3509886e-038
-42.111996 287.24884 -91.035492 2.3509886e-038
-37.006496 288.35254 -91.385277 2.3509886e-038
-32.115616 291.77219 -92.46904 2.3509886e-038
-27.249485 296.82227 -94.069527 2.3509886e-038
-22.172335 301.51205 -95.555817 2.3509886e-038
-16.906372 305.88516 -96.94175 2.3509886e-038
-11.42649 308.79486 -97.863899 2.3509886e-038
-6.0873456 310.77628 -98.491844 2.3509886e-038
-116.84151 255.59187 -17.117468 2.3509528e-038
-114.90305 251.35147 -23.026817 2.3509528e-038
-112.92559 257.30746 -14.771416 2.3509528e-038
-110.41605 251.58932 -29.023388 2.3509528e-038
-108.89133 258.89075 -15.306691 2.3509528e-038
-106.58344 253.40372 -33.536098 2.3509528e-038
-105.12483 261.28329 -17.209751 2.3509528e-038
-103.96107 258.39081 -38.194412 2.3509528e-038
-101.57632 264.47098 -20.246864 2.3509528e-038
-100.54104 261.77545 -42.555843 2.3509528e-038
-98.391869 268.97229 -24.569109 2.3509886e-038
-97.130074 265.52292 -46.961681 2.3509528e-038
-94.124512 270.83084 -29.091362 2.3509886e-038
-93.5466 269.168 -51.59634 2.3509528e-038
-82.874237 251.68851 61.828835 9.1476764e-041
-85.491837 259.63812 44.083015 9.1476764e-041
-90.021851 273.39575 -33.118088 2.3509886e-038
-89.612633 272.15295 -56.660954 2.3509528e-038
-79.322815 255.05222 60.969616 9.1476764e-041
-80.665047 259.36798 30.470633 9.1476764e-041
-85.703827 275.56952 -36.103149 2.3509886e-038
-84.455215 271.55478 -61.40638 2.3509528e-038
-76.150146 260.12958 56.695313 9.1476764e-041
-77.95755 266.30365 20.024855 9.1476764e-041
-81.773445 279.33881 -37.870903 2.3509886e-038
-80.602448 275.33865 -67.02079 2.3509528e-038
-71.699806 261.22763 47.894215 9.1476764e-041
-73.560188 268.00568 9.2553501 2.3509886e-038
-77.496086 282.34552 -37.454128 2.3509886e-038
-75.767159 276.04645 -71.524261 2.3509886e-038
-67.905693 265.04373 38.233498 9.1476764e-041
-71.100296 277.51263 -8.8579874 2.3509886e-038
-72.024597 281.1203 -31.736937 2.3509886e-038
-71.055969 277.33963 -76.020454 2.3509886e-038
-63.782177 268.06131 27.51545 9.1476764e-041
-65.818451 276.61929 -79.600906 2.3509886e-038
-60.656513 276.12317 18.589693 9.1476764e-041
-61.330257 279.19022 -83.484337 2.3509886e-038
-55.514629 275.63666 13.153653 9.1476764e-041
-56.815914 282.09769 -86.958229 2.3509886e-038
-50.294014 274.6232 10.937275 2.3509886e-038
-52.189583 284.97366 -90.014488 2.3509886e-038
-41.999092 254.73848 78.504333 2.3418409e-038
-43.595409 264.42068 34.626774 2.3418409e-038
-44.913731 272.41675 14.344189 2.3509886e-038
-47.798153 289.91171 -93.292297 2.3509886e-038
-37.227539 253.93161 81.097122 2.3418409e-038
-42.926979 292.80789 -95.551949 2.3509886e-038
-33.070087 257.68027 74.92453 2.3418409e-038
-37.832367 294.78769 -97.151749 2.3509886e-038
-29.249687 265.73505 48.399269 2.3418409e-038
-32.844448 298.39365 -98.710739 2.3509886e-038
-24.85438 270.73294 15.761206 3.5733111e-043
-27.834267 303.19217 -99.967178 2.3509886e-038
-19.629395 266.9317 20.14323 3.5733111e-043
-22.581852 307.0809 -100.42486 2.3509886e-038
-14.264747 258.09052 67.728104 3.5733111e-043
-17.176697 310.77615 -100.74395 2.3509886e-038
-9.3362532 252.30733 70.34095 3.5733111e-043
-11.561673 312.44812 -100.41224 2.3509886e-038
-4.7390285 252.92891 68.185432 3.5733111e-043
-4.9359913 263.4411 13.633826 2.3509886e-038
-4.9604502 264.74652 11.261503 2.3509886e-038
-5.8190312 310.57025 -98.321785 2.3509886e-038
-0.1261787 268.5918 1.4004157 2.3509886e-038
-0.14360842 305.69379 -94.101479 2.3509886e-038
4.7749333 268.29922 1.731385 2.3418052e-038
5.3862286 302.64734 -88.449661 2.3509886e-038
9.6097059 266.46301 5.0447741 2.3418052e-038
10.803116 299.5545 -77.486427 2.3509886e-038
14.327646 263.71149 10.16724 2.3418052e-038
15.26323 280.93164 -50.280136 2.3509886e-038
18.950462 261.03433 16.071163 2.3418052e-038
19.571594 269.59018 -10.455014 2.3418052e-038
23.706524 260.89999 22.881548 2.3418052e-038
23.809124 262.02914 -1.1749548 2.3418052e-038
28.406342 260.29507 30.226902 2.3418052e-038
28.367762 259.94156 6.8611927 2.3418052e-038
32.97855 258.86212 34.765682 2.3418052e-038
33.05439 259.4574 14.501245 2.3418052e-038
37.681541 258.68628 35.746433 2.3418052e-038
37.89801 260.17236 23.578598 2.3418052e-038
