# .PCD v0.7 - Point Cloud Data file format
VERSION 0.7
FIELDS x y z rgb
SIZE 4 4 4 4
TYPE F F F F
COUNT 1 1 1 1
WIDTH 572
HEIGHT 1
VIEWPOINT 0 0 0 1 0 0 0
POINTS 572
DATA ascii
22.977215 256.77283 41.117119 2.3418052e-038
-83.093536 248.49298 40.961601 9.1476764e-041
-32.02211 242.82712 46.889523 3.5733111e-043
0 0 0 2.3418409e-038
0 0 0 2.3418409e-038
-37.043041 239.67482 47.708241 3.5733111e-043
-35.421734 239.3213 47.637871 3.5733111e-043
-31.265419 240.09232 47.791344 3.5733111e-043
-27.481195 244.41666 48.652119 3.5733111e-043
-26.554079 245.68456 48.904499 3.5733111e-043
-86.810905 243.71671 44.177898 9.1476764e-041
-83.908012 244.15851 44.25798 9.1476764e-041
-80.35672 246.58723 44.698227 9.1476764e-041
-79.774902 247.10132 44.791416 9.1476764e-041
-36.429516 246.23366 44.634136 3.5733111e-043
-32.420059 248.95898 45.128151 3.5733111e-043
-28.391014 252.50854 45.771572 3.5733111e-043
-24.118959 254.82466 46.19141 3.5733111e-043
-22.932549 255.41296 46.298046 3.5733111e-043
-88.751022 248.01732 40.546066 9.1476764e-041
-85.299019 248.20612 40.576931 9.1476764e-041
-81.208633 249.20146 40.739651 9.1476764e-041
-77.526039 251.63538 41.13755 9.1476764e-041
-76.513824 253.00896 41.362103 9.1476764e-041
-35.698788 260.45984 42.580181 3.5733111e-043
-34.009747 261.16647 42.695702 3.5733111e-043
-29.390312 261.39627 42.733269 3.5733111e-043
-24.615471 260.07047 42.516525 3.5733111e-043
-19.991688 260.09644 42.520767 3.5733111e-043
-19.896635 260.12152 42.524872 3.5733111e-043
18.508806 260.25735 42.547081 2.3418052e-038
21.417742 257.37192 42.075367 2.3418052e-038
25.806067 255.4962 41.768723 2.3418052e-038
27.655642 255.62543 41.789845 2.3418052e-038
-89.192024 253.96835 37.001705 9.1476764e-041
-87.150162 253.59264 36.946968 9.1476764e-041
-82.485451 253.11958 36.878044 9.1476764e-041
-78.366295 254.36267 37.059158 9.1476764e-041
-74.801613 257.66815 37.540745 9.1476764e-041
-74.080429 258.75131 37.698555 9.1476764e-041
-34.407665 271.2012 39.512432 2.3509886e-038
-30.15589 268.20529 39.075943 3.5733111e-043
-25.054359 264.70749 38.566338 3.5733111e-043
-20.241159 263.3421 38.367409 3.5733111e-043
-17.506468 264.0134 38.465214 3.5733111e-043
16.029715 263.44415 38.382278 2.3418052e-038
17.162992 262.3089 38.216877 2.3418052e-038
21.547062 258.92593 37.723999 2.3418052e-038
26.058455 257.995 37.588367 2.3418052e-038
27.625511 258.61096 37.678108 2.3418052e-038
-87.903175 258.4072 33.052219 9.1476764e-041
-83.824318 257.22812 32.901402 9.1476764e-041
-79.354042 257.56873 32.944969 9.1476764e-041
-75.296379 259.37244 33.175682 9.1476764e-041
-71.409752 262.03922 33.516781 9.1476764e-041
-70.875687 262.49875 33.575558 9.1476764e-041
-32.919018 275.47595 35.235439 2.3509886e-038
-30.746077 273.45438 34.976868 2.3509886e-038
-25.503342 269.45111 34.464817 3.5733111e-043
-20.570765 267.63034 34.231926 3.5733111e-043
-16.015335 269.99762 34.534721 3.5733111e-043
13.6243 264.16385 33.78854 2.3418052e-038
17.135818 261.89359 33.498158 2.3418052e-038
21.637445 260.01205 33.257492 2.3418052e-038
26.340195 260.78442 33.356281 2.3418052e-038
26.614914 261.0163 33.385944 2.3418052e-038
-85.557068 261.34363 28.779388 9.1476764e-041
-85.123192 261.2139 28.765102 9.1476764e-041
-80.405174 260.98053 28.739405 9.1476764e-041
-75.92524 261.53867 28.800865 9.1476764e-041
-71.339592 261.78174 28.827635 9.1476764e-041
-66.197914 259.87595 28.617767 9.1476764e-041
-62.93668 257.31467 28.335714 9.1476764e-041
-53.968151 252.4541 27.800467 2.3509886e-038
-51.546078 255.9782 28.188543 2.3509886e-038
-48.31794 263.19482 28.983244 2.3509886e-038
-47.925808 263.96921 29.068521 2.3509886e-038
-32.035774 278.01138 30.614857 2.3509886e-038
-31.167997 277.20694 30.52627 2.3509886e-038
-25.875628 273.38446 30.105335 3.5733111e-043
-20.873138 271.5643 29.9049 3.5733111e-043
-16.174425 273.79019 30.150015 3.5733111e-043
-15.083925 275.1626 30.301147 3.5733111e-043
10.993355 264.79196 29.159122 2.3418052e-038
12.562375 263.67261 29.03586 2.3418052e-038
17.126207 261.7467 28.823776 2.3418052e-038
21.755318 261.4285 28.788736 2.3418052e-038
24.965675 262.83237 28.943333 2.3418052e-038
-83.712997 265.68219 24.531567 9.1476764e-041
-81.714417 265.23007 24.48982 9.1476764e-041
-76.730034 264.31091 24.404953 9.1476764e-041
-71.368355 261.88727 24.181168 9.1476764e-041
-64.974075 255.07146 23.551832 9.1476764e-041
-58.46003 246.7269 22.781343 2.3509886e-038
-53.856663 245.7462 22.690792 2.3509886e-038
-51.212139 254.31984 23.482435 2.3509886e-038
-48.603874 264.75235 24.445713 2.3509886e-038
-45.035686 271.63358 25.081083 2.3509886e-038
-43.535595 273.76584 25.277966 2.3509886e-038
-31.755104 279.30048 25.789001 2.3509886e-038
-31.374044 279.03949 25.764904 2.3509886e-038
-26.107327 275.83243 25.468782 3.5733111e-043
-21.072029 274.15192 25.313614 3.5733111e-043
-16.281378 275.60065 25.44738 3.5733111e-043
-14.295425 277.18219 25.59341 3.5733111e-043
8.244586 267.84695 24.731447 2.3418052e-038
12.592372 264.30222 24.40415 2.3418052e-038
17.204485 262.94305 24.278652 2.3418052e-038
21.992004 264.27271 24.401423 2.3418052e-038
23.107128 265.31613 24.497768 2.3418052e-038
-82.057594 269.87946 20.118876 9.1476764e-041
-77.573212 267.21539 19.920277 9.1476764e-041
-70.806915 259.82709 19.369493 9.1476764e-041
-63.126251 247.81737 18.474199 2.3509886e-038
-56.802387 239.73093 17.871372 2.3509886e-038
-53.192966 242.71776 18.094034 2.3509886e-038
-51.310577 254.8087 18.995386 2.3509886e-038
-49.18269 267.90527 19.971704 2.3509886e-038
-45.544239 274.70093 20.478304 2.3509886e-038
-41.31757 279.15561 20.81039 2.3509886e-038
-40.241905 280.29279 20.895163 2.3509886e-038
-32.580849 281.77649 21.00577 2.3509886e-038
-31.62846 281.30225 20.970417 2.3509886e-038
-26.340839 278.29953 20.746572 3.5733111e-043
-21.264296 276.65335 20.623854 3.5733111e-043
-16.400024 277.60898 20.695093 3.5733111e-043
-13.485375 279.1748 20.811821 3.5733111e-043
5.1104984 272.50397 20.314526 2.3418052e-038
8.0420609 269.35068 20.079456 2.3418052e-038
12.669909 265.92966 19.824427 2.3418052e-038
17.349611 265.16107 19.76713 2.3418052e-038
21.088085 267.01041 19.904995 2.3418052e-038
-79.420799 270.36508 15.346194 9.1476764e-041
-77.962402 268.55606 15.243512 9.1476764e-041
-69.62558 255.49216 14.501991 9.1476764e-041
-61.548119 241.62202 13.71471 2.3509886e-038
-56.135418 236.91603 13.447593 2.3509886e-038
-53.404751 243.68413 13.831757 2.3509886e-038
-52.158649 259.02023 14.70225 2.3509886e-038
-50.187424 273.3782 15.517221 2.3509886e-038
-46.155472 278.38757 15.80156 2.3509886e-038
-41.590153 280.99728 15.949689 2.3509886e-038
-36.955544 283.78772 16.108076 2.3509886e-038
-31.867653 283.42963 16.087751 2.3509886e-038
-26.600359 281.04147 15.952198 2.3509886e-038
-21.492031 279.61621 15.871298 2.3509886e-038
-16.545441 280.07053 15.897084 3.5733111e-043
-12.239359 281.69977 15.989562 3.5733111e-043
1.0177358 276.98831 15.722136 2.3418052e-038
3.3163402 274.74551 15.594832 2.3418052e-038
8.0870237 270.85663 15.374094 2.3418052e-038
12.773007 268.0936 15.217262 2.3418052e-038
17.520088 267.76654 15.198698 2.3418052e-038
19.016861 268.65137 15.248922 2.3418052e-038
-74.786362 262.45065 10.228852 9.1476764e-041
-68.356659 250.8358 9.7761707 9.1476764e-041
-60.748173 238.48164 9.2946749 2.3509886e-038
-56.31918 237.69157 9.2638826 2.3509886e-038
-54.576141 249.02914 9.7057571 2.3509886e-038
-53.844921 267.39429 10.421527 2.3509886e-038
-51.555721 280.83151 10.945234 2.3509886e-038
-46.969646 283.29828 11.041376 2.3509886e-038
-42.006439 283.80984 11.061314 2.3509886e-038
-37.081062 284.75162 11.098019 2.3509886e-038
-31.975105 284.38531 11.083742 2.3509886e-038
-26.796707 283.11597 11.034269 2.3509886e-038
-21.680105 282.06314 10.993236 2.3509886e-038
-16.6399 281.66946 10.977893 2.3418052e-038
-11.646515 282.07065 10.993529 2.3418052e-038
-6.6171913 281.54987 10.973232 2.3418052e-038
-1.593398 278.75577 10.864333 2.3418052e-038
3.3238678 275.36917 10.732344 2.3418052e-038
8.1402264 272.63849 10.625917 2.3418052e-038
12.90781 270.92297 10.559056 2.3418052e-038
16.955544 271.40146 10.577704 2.3418052e-038
-70.306435 252.28328 5.3453169 9.1476764e-041
-67.437317 247.46228 5.2431707 2.3509886e-038
-61.001442 239.47592 5.0739579 2.3509886e-038
-57.786934 243.88614 5.1674004 2.3509886e-038
-57.014706 260.15625 5.5121279 2.3509886e-038
-56.030918 278.24994 5.8954926 2.3509886e-038
-52.748081 287.32645 6.0878034 2.3509886e-038
-47.713676 287.78592 6.0975385 2.3509886e-038
-42.494789 287.10928 6.0832019 2.3509886e-038
-37.362553 286.91321 6.0790482 2.3509886e-038
-32.184155 286.24457 6.0648808 2.3509886e-038
-26.987768 285.13458 6.0413623 2.3509886e-038
-21.835026 284.07864 6.0189896 2.3509886e-038
-16.712233 282.89386 5.9938869 2.3509886e-038
-11.629517 281.65894 5.9677219 2.3418052e-038
-6.5901866 280.40088 5.9410658 2.3418052e-038
-1.5928522 278.66031 5.9041872 2.3418052e-038
3.3384826 276.57996 5.8601089 2.3418052e-038
8.2105141 274.99265 5.8264775 2.3418052e-038
13.101233 274.98276 5.8262677 2.3509886e-038
14.983977 276.05795 5.8490496 2.3509886e-038
-68.544403 248.67418 0.84576541 2.3509886e-038
-67.442009 247.47948 0.8417021 2.3509886e-038
-62.667542 246.01659 0.83672667 2.3509886e-038
-60.745186 256.37125 0.87194389 2.3509886e-038
-59.870102 273.1853 0.9291302 2.3509886e-038
-57.431519 285.20532 0.97001147 2.3509886e-038
-53.163517 289.58942 0.98492205 2.3509886e-038
-48.070904 289.94052 0.98611635 2.3509886e-038
-42.877686 289.69629 0.98528564 2.3509886e-038
-37.74942 289.88406 0.98592424 2.3509886e-038
-32.522743 289.25598 0.98378807 2.3509886e-038
-27.246933 287.87274 0.97908348 2.3509886e-038
-22.018007 286.45929 0.9742763 2.3509886e-038
-16.822327 284.75748 0.96848822 2.3509886e-038
-11.685808 283.02228 0.96258664 2.3509886e-038
-6.6204886 281.69019 0.95805609 2.3418052e-038
-1.6017147 280.21072 0.95302433 2.3418052e-038
3.3632481 278.63165 0.94765371 2.3418052e-038
8.3059292 278.18839 0.94614607 2.3509886e-038
13.160756 280.55786 0.95420492 2.3509886e-038
-67.259644 244.26762 -3.5139182 2.3509886e-038
-66.472328 243.92123 -3.5089352 2.3509886e-038
-62.872925 246.82289 -3.5506771 2.3509886e-038
-61.875298 261.14081 -3.7566481 2.3509886e-038
-61.123238 278.90332 -4.0121713 2.3509886e-038
-58.118156 288.6152 -4.1518812 2.3509886e-038
-53.532295 291.59821 -4.1947932 2.3509886e-038
-48.465321 292.31949 -4.2051697 2.3509886e-038
-43.286369 292.45746 -4.2071543 2.3509886e-038
-38.101334 292.58646 -4.2090101 2.3509886e-038
-32.818676 291.88797 -4.1989617 2.3509886e-038
-27.493368 290.47641 -4.1786556 2.3509886e-038
-22.192532 288.72992 -4.1535316 2.3509886e-038
-16.950716 286.93073 -4.1276498 2.3509886e-038
-11.786573 285.46277 -4.1065316 2.3509886e-038
-6.6765542 284.07568 -4.0865784 2.3509886e-038
-1.6127318 282.13812 -4.0587053 2.3509886e-038
3.3842547 280.37198 -4.033298 2.3509886e-038
8.3776903 280.59183 -4.0364609 2.3509886e-038
11.595984 282.60977 -4.0654898 2.3509886e-038
-65.827339 238.14697 -7.6617002 2.3509886e-038
-64.730843 237.53085 -7.6418786 2.3509886e-038
-60.917709 239.14722 -7.6938801 2.3509886e-038
-59.654598 251.76849 -8.0999336 2.3509886e-038
-59.654541 272.20172 -8.7573147 2.3509886e-038
-57.940472 287.73282 -9.2569828 2.3509886e-038
-53.836121 293.25317 -9.4345856 2.3509886e-038
-48.829544 294.5163 -9.4752226 2.3509886e-038
-43.627544 294.76257 -9.4831467 2.3509886e-038
-38.353344 294.52167 -9.4753952 2.3509886e-038
-33.015202 293.63589 -9.4468985 2.3509886e-038
-27.671535 292.3588 -9.4058113 2.3509886e-038
-22.326632 290.47458 -9.345192 2.3509886e-038
-17.062773 288.82758 -9.2922039 2.3509886e-038
-11.875696 287.62125 -9.2533951 2.3509886e-038
-6.7190166 285.88235 -9.1974506 2.3509886e-038
-1.6196109 283.34155 -9.1157074 2.3509886e-038
3.3983452 281.53931 -9.0577259 2.3509886e-038
8.4173622 281.92056 -9.0699902 2.3509886e-038
10.581082 282.91791 -9.1020784 2.3509886e-038
-65.333054 235.70914 -11.775748 2.3509886e-038
-63.876732 234.39667 -11.710178 2.3509886e-038
-59.537331 233.72821 -11.676784 2.3509886e-038
-57.291763 241.79631 -12.079856 2.3509886e-038
-57.237549 261.17307 -13.047895 2.3509886e-038
-56.898365 282.55771 -14.116246 2.3509886e-038
-53.737209 292.71439 -14.623662 2.3509886e-038
-48.888058 294.8692 -14.731315 2.3509886e-038
-43.696186 295.22635 -14.749156 2.3509886e-038
-38.42762 295.09204 -14.742448 2.3509886e-038
-33.115887 294.53137 -14.714437 2.3509886e-038
-27.77286 293.42932 -14.65938 2.3509886e-038
-22.40188 291.45358 -14.560674 2.3509886e-038
-17.130405 289.97238 -14.486676 2.3509886e-038
-11.930313 288.94403 -14.435301 2.3509886e-038
-6.747911 287.11176 -14.343761 2.3509886e-038
-1.6251233 284.30594 -14.203586 2.3509886e-038
3.4092209 282.44031 -14.110382 2.3509886e-038
8.447526 282.93082 -14.134888 2.3509886e-038
10.43818 283.81595 -14.179107 2.3509886e-038
-65.288963 236.0247 -15.989596 2.3509886e-038
-63.962406 234.71104 -15.9006 2.3509886e-038
-59.362328 233.04118 -15.787475 2.3509886e-038
-56.303204 237.62416 -16.097952 2.3509886e-038
-55.508736 253.28455 -17.158871 2.3509886e-038
-55.598152 276.1008 -18.704569 2.3509886e-038
-53.31163 290.39621 -19.673018 2.3509886e-038
-48.720768 293.86023 -19.907688 2.3509886e-038
-43.614326 294.67328 -19.962767 2.3509886e-038
-38.434273 295.14316 -19.994602 2.3509886e-038
-33.18853 295.17746 -19.996923 2.3509886e-038
-27.849701 294.24115 -19.933495 2.3509886e-038
-22.458298 292.18756 -19.794373 2.3509886e-038
-17.162886 290.52222 -19.681553 2.3509886e-038
-11.955968 289.5654 -19.616732 2.3509886e-038
-6.7711091 288.09882 -19.51738 2.3509886e-038
-1.632024 285.51315 -19.342213 2.3509886e-038
3.4210124 283.41721 -19.20022 2.3509886e-038
8.47649 283.90091 -19.23299 2.3509886e-038
11.027364 285.4202 -19.335917 2.3509886e-038
-64.945869 236.64279 -20.240545 2.3509886e-038
-64.336914 236.0853 -20.192862 2.3509886e-038
-59.658695 234.20465 -20.032007 2.3509886e-038
-56.192307 237.15611 -20.284452 2.3509886e-038
-54.755219 249.84627 -21.369867 2.3509886e-038
-54.641037 271.34778 -23.208937 2.3509886e-038
-52.800114 287.60989 -24.599869 2.3509886e-038
-48.497879 292.51584 -25.019484 2.3509886e-038
-43.542606 294.18869 -25.162565 2.3509886e-038
-38.464958 295.37878 -25.264357 2.3509886e-038
-33.269875 295.90094 -25.309017 2.3509886e-038
-27.939035 295.185 -25.247782 2.3509886e-038
-22.532524 293.15329 -25.074005 2.3509886e-038
-17.188265 290.95181 -24.885708 2.3509886e-038
-11.959323 289.64664 -24.774073 2.3509886e-038
-6.7733183 288.19281 -24.649725 2.3509886e-038
-1.6340873 285.87411 -24.451403 2.3509886e-038
3.4238596 283.65308 -24.261435 2.3509886e-038
8.4701233 283.68768 -24.264391 2.3509886e-038
11.723738 285.3689 -24.40819 2.3509886e-038
-64.775101 239.06018 -24.699383 2.3509886e-038
-60.471004 237.39357 -24.527191 2.3509886e-038
-56.736145 239.45135 -24.739798 2.3509886e-038
-54.809834 250.09549 -25.839537 2.3509886e-038
-54.224209 269.2778 -27.821428 2.3509886e-038
-52.367756 285.25479 -29.472149 2.3509886e-038
-48.239334 290.95645 -30.061235 2.3509886e-038
-43.405296 293.26099 -30.299339 2.3509886e-038
-38.401005 294.88766 -30.467405 2.3509886e-038
-33.265285 295.86011 -30.567877 2.3509886e-038
-27.978996 295.60721 -30.541748 2.3509886e-038
-22.588696 293.88409 -30.363718 2.3509886e-038
-17.2188 291.46872 -30.114162 2.3509886e-038
-11.960649 289.67874 -29.929228 2.3509886e-038
-6.7612786 287.68054 -29.722775 2.3509886e-038
-1.6307985 285.29877 -29.476692 2.3509886e-038
3.4172618 283.10648 -29.250187 2.3509886e-038
8.4344921 282.49426 -29.186935 2.3509886e-038
12.302637 283.37976 -29.278423 2.3509886e-038
-65.482582 245.57076 -29.73992 2.3509886e-038
-62.120758 243.87007 -29.533958 2.3509886e-038
-57.828892 244.06323 -29.55735 2.3509886e-038
-55.274067 252.21375 -30.544422 2.3509886e-038
-53.997292 268.15097 -32.474503 2.3509886e-038
-51.839134 282.37531 -34.197147 2.3509886e-038
-47.798649 288.29843 -34.914467 2.3509886e-038
-43.075394 291.03204 -35.245525 2.3509886e-038
-38.183922 293.22064 -35.510574 2.3509886e-038
-33.145668 294.79623 -35.701385 2.3509886e-038
-27.936684 295.16019 -35.745464 2.3509886e-038
-22.594406 293.95837 -35.599918 2.3509886e-038
-17.245064 291.91327 -35.352245 2.3509886e-038
-11.970424 289.9155 -35.110306 2.3509886e-038
-6.7547116 287.40115 -34.805805 2.3509886e-038
-1.628352 284.87079 -34.499363 2.3509886e-038
3.4137883 282.8187 -34.250843 2.3509886e-038
8.4171724 281.91422 -34.141304 2.3509886e-038
12.925863 282.50421 -34.212757 2.3509886e-038
-67.344391 257.35367 -35.744347 2.3509886e-038
-64.742134 254.1609 -35.3009 2.3509886e-038
-59.197571 249.83965 -34.700714 2.3509886e-038
-55.746666 254.37021 -35.329971 2.3509886e-038
-53.597416 266.16516 -36.968193 2.3509886e-038
-50.97641 277.67593 -38.566948 2.3509886e-038
-47.00795 283.5293 -39.379936 2.3509886e-038
-42.466496 286.91812 -39.850616 2.3509886e-038
-37.798973 290.26459 -40.315407 2.3509886e-038
-32.938217 292.95117 -40.688557 2.3509886e-038
-27.838823 294.12625 -40.851765 2.3509886e-038
-22.564203 293.56543 -40.773869 2.3509886e-038
-17.248581 291.97281 -40.55267 2.3509886e-038
-11.973506 289.99011 -40.27729 2.3509886e-038
-6.7528586 287.3223 -39.906746 2.3509886e-038
-1.6283591 284.87201 -39.566425 2.3509886e-038
3.4175727 283.13223 -39.324783 2.3509886e-038
8.4344721 282.49362 -39.236088 2.3509886e-038
13.534072 284.06763 -39.4547 2.3509886e-038
13.707073 284.21597 -39.475307 2.3509886e-038
-67.786827 264.46112 -41.435387 2.3509886e-038
-67.042961 263.19336 -41.236759 2.3509886e-038
-60.361263 254.75093 -39.914009 2.3509886e-038
-56.116665 256.0585 -40.118877 2.3509886e-038
-53.111267 263.75095 -41.324116 2.3509886e-038
-49.923679 271.94153 -42.607407 2.3509886e-038
-45.947258 277.13174 -43.420601 2.3509886e-038
-41.593376 281.01904 -44.029655 2.3509886e-038
-37.172428 285.45322 -44.7244 2.3509886e-038
-32.579987 289.76511 -45.399982 2.3509886e-038
-27.686504 292.51694 -45.831131 2.3509886e-038
-22.517256 292.95465 -45.899712 2.3509886e-038
-17.224102 291.55844 -45.680954 2.3509886e-038
-11.962601 289.72601 -45.393856 2.3509886e-038
-6.7535582 287.35205 -45.021908 2.3509886e-038
-1.6300001 285.15909 -44.67831 2.3509886e-038
3.4266207 283.88181 -44.478191 2.3509886e-038
8.4741669 283.82309 -44.468994 2.3509886e-038
13.637851 286.24585 -44.848587 2.3509886e-038
14.299807 286.96545 -44.961334 2.3509886e-038
-66.413757 264.9473 -46.224075 2.3509886e-038
-61.283203 258.64194 -45.124008 2.3509886e-038
-56.477592 257.70538 -44.960617 2.3509886e-038
-52.767689 262.04474 -45.717678 2.3509886e-038
-49.04491 267.15475 -46.6092 2.3509886e-038
-44.960247 271.17856 -47.311214 2.3509886e-038
-40.69659 274.96005 -47.970955 2.3509886e-038
-36.423927 279.70538 -48.798847 2.3509886e-038
-32.085701 285.36896 -49.786945 2.3509886e-038
-27.465969 290.18692 -50.62751 2.3509886e-038
-22.446375 292.03244 -50.949493 2.3509886e-038
-17.192293 291.02002 -50.772858 2.3509886e-038
-11.949266 289.40308 -50.490761 2.3509886e-038
-6.758739 287.57248 -50.171383 2.3509886e-038
-1.6329644 285.67767 -49.840809 2.3509886e-038
3.4374235 284.77676 -49.683632 2.3509886e-038
8.5157614 285.21622 -49.760296 2.3509886e-038
13.707308 287.7037 -50.194275 2.3509886e-038
14.124133 288.14917 -50.271999 2.3509886e-038
-65.03447 267.26874 -51.3829 2.3509886e-038
-62.544102 263.96347 -50.747452 2.3509886e-038
-57.048775 260.31171 -50.045395 2.3509886e-038
-52.756786 261.99057 -50.36816 2.3509886e-038
-48.579891 264.62173 -50.874004 2.3509886e-038
-44.310772 267.26123 -51.381454 2.3509886e-038
-40.038704 270.51514 -52.007023 2.3509886e-038
-35.806271 274.96228 -52.861992 2.3509886e-038
-31.58934 280.95435 -54.013973 2.3509886e-038
-27.169268 287.05219 -55.186298 2.3509886e-038
-22.336451 290.60233 -55.86882 2.3509886e-038
-17.178707 290.79004 -55.904911 2.3509886e-038
-11.953493 289.50546 -55.657944 2.3509886e-038
-6.7705956 288.07697 -55.383316 2.3509886e-038
-1.6378735 286.5365 -55.087158 2.3509886e-038
3.451437 285.93774 -54.97205 2.3509886e-038
8.5731783 287.13925 -55.203041 2.3509886e-038
13.546964 290.22934 -55.797115 2.3509886e-038
-62.728397 269.52792 -56.611221 2.3509886e-038
-58.192448 265.53024 -55.771557 2.3509886e-038
-53.1693 264.03912 -55.458366 2.3509886e-038
-48.471798 264.03293 -55.457062 2.3509886e-038
-44.012821 265.46414 -55.757675 2.3509886e-038
-39.701572 268.2374 -56.34016 2.3509886e-038
-35.440331 272.15216 -57.162415 2.3509886e-038
-31.212046 277.59869 -58.306393 2.3509886e-038
-26.874863 283.94168 -59.638668 2.3509886e-038
-22.223709 289.13553 -60.729572 2.3509886e-038
-17.183233 290.86664 -61.093174 2.3509886e-038
-11.977595 290.0892 -60.929878 2.3509886e-038
-6.7903738 288.91849 -60.683987 2.3509886e-038
-1.6456903 287.90399 -60.470905 2.3509886e-038
3.4765506 288.01831 -60.494919 2.3509886e-038
8.6943302 291.19696 -61.162556 2.3509886e-038
13.141877 296.86743 -62.353569 2.3509886e-038
-59.774353 273.59619 -62.332073 2.3509886e-038
-54.035355 268.33997 -61.134571 2.3509886e-038
-48.728649 265.43204 -60.472069 2.3509886e-038
-44.07383 265.83212 -60.563221 2.3509886e-038
-39.703644 268.25137 -61.114384 2.3509886e-038
-35.384361 271.72235 -61.905159 2.3509886e-038
-31.087654 276.49237 -62.991886 2.3509886e-038
-26.726763 282.37698 -64.33255 2.3509886e-038
-22.161953 288.33206 -65.68927 2.3509886e-038
-17.198872 291.13138 -66.327019 2.3509886e-038
-12.009423 290.86002 -66.265205 2.3509886e-038
-6.8152423 289.97659 -66.063934 2.3509886e-038
-1.6551547 289.55975 -65.968971 2.3509886e-038
3.5089197 290.69995 -66.228729 2.3509886e-038
8.842536 296.16083 -67.472855 2.3509886e-038
12.715771 303.83606 -69.221466 2.3509886e-038
-55.261482 275.02301 -67.548889 2.3509886e-038
-49.49493 269.60608 -66.218422 2.3509886e-038
-44.5317 268.59375 -65.969788 2.3509886e-038
-40.037106 270.50436 -66.439049 2.3509886e-038
-35.640709 273.69092 -67.22171 2.3509886e-038
-31.238878 277.83734 -68.240112 2.3509886e-038
-26.769949 282.83325 -69.467171 2.3509886e-038
-22.181477 288.58609 -70.880135 2.3509886e-038
-17.237793 291.79022 -71.667107 2.3509886e-038
-12.052794 291.91043 -71.69664 2.3509886e-038
-6.8475132 291.34967 -71.558907 2.3509886e-038
-1.6658597 291.43253 -71.579254 2.3509886e-038
3.5426736 293.49634 -72.086159 2.3509886e-038
8.9498243 299.75421 -73.623161 2.3509886e-038
11.706614 305.05695 -74.925583 2.3509886e-038
-49.837833 275.75861 -72.634369 2.3509886e-038
-45.478302 274.30322 -72.251022 2.3509886e-038
-40.816841 275.77249 -72.638031 2.3509886e-038
-36.222633 278.15958 -73.266785 2.3509886e-038
-31.631958 281.33334 -74.102753 2.3509886e-038
-27.038589 285.67151 -75.245407 2.3509886e-038
-22.360043 290.90924 -76.625023 2.3509886e-038
-17.375383 294.11926 -77.470543 2.3509886e-038
-12.161624 294.5462 -77.582993 2.3509886e-038
-6.9195204 294.41345 -77.548027 2.3509886e-038
-1.6871719 295.16098 -77.744926 2.3509886e-038
3.6008234 298.31381 -78.575378 2.3509886e-038
9.1048717 304.94717 -80.322586 2.3509886e-038
9.8531275 306.11597 -80.630447 2.3509886e-038
-44.483585 285.85361 -80.377739 2.3509886e-038
-42.391552 286.4118 -80.534698 2.3509886e-038
-37.299782 286.43118 -80.540161 2.3509886e-038
-32.346245 287.68619 -80.893044 2.3509886e-038
-27.563231 291.21454 -81.885162 2.3509886e-038
-22.736263 295.80396 -83.175636 2.3509886e-038
-17.693697 299.50745 -84.216995 2.3509886e-038
-12.427898 300.99521 -84.63533 2.3509886e-038
-7.0926471 301.77969 -84.855919 2.3509886e-038
-1.7346925 303.47443 -85.332451 2.3509886e-038
3.713908 307.68243 -86.515678 2.3509886e-038
6.5700855 311.14514 -87.489342 2.3509886e-038
-35.684559 297.05246 -88.810257 2.3509886e-038
-33.402851 297.08365 -88.81958 2.3509886e-038
-28.283556 298.82498 -89.340195 2.3509886e-038
-23.259604 302.61276 -90.472626 2.3509886e-038
-18.170719 307.58221 -91.958351 2.3509886e-038
-12.832475 310.79379 -92.918526 2.3509886e-038
-7.3515415 312.7952 -93.516884 2.3509886e-038
-1.8017573 315.20703 -94.237961 2.3509886e-038
-0.69823194 315.86282 -94.434021 2.3509886e-038
-83.502098 242.97736 45.925289 9.1476764e-041
-88.491913 257.49689 34.248081 9.1476764e-041
-80.300667 246.41521 45.195206 9.1476764e-041
-85.299843 261.75598 28.278677 9.1476764e-041
-77.318687 250.96234 42.462692 9.1476764e-041
-82.727562 268.51852 21.802467 9.1476764e-041
-74.744316 257.47076 38.690331 9.1476764e-041
-77.919121 268.40695 13.48533 9.1476764e-041
-71.442673 262.16 34.206894 9.1476764e-041
-64.76577 237.65901 -22.803513 2.3509886e-038
-66.488739 261.01761 30.067265 9.1476764e-041
-67.414818 264.6532 -42.838837 2.3509886e-038
-60.166374 253.92842 27.450186 2.3509886e-038
-63.644966 268.60962 -54.687279 2.3509886e-038
-55.111389 251.47147 27.437391 2.3509886e-038
-59.927132 273.44556 -62.080326 2.3509886e-038
-51.590981 256.20117 28.711597 2.3509886e-038
-55.378384 275.00946 -67.42952 2.3509886e-038
-48.312073 263.16287 29.140179 2.3509886e-038
-50.572659 275.47662 -71.898148 2.3509886e-038
-44.870853 270.6394 26.904673 2.3509886e-038
-46.441963 280.11557 -76.898636 2.3509886e-038
-35.048729 236.80118 50.421951 3.5733111e-043
-36.434578 246.16446 44.649822 3.5733111e-043
-41.24189 278.64429 22.156748 2.3509886e-038
-42.939613 290.11469 -82.88723 2.3509886e-038
-30.777889 236.3485 50.090031 3.5733111e-043
-34.959415 268.45914 40.822659 2.3509886e-038
-36.894909 283.32211 18.251951 2.3509886e-038
-38.451424 295.27481 -87.067459 2.3509886e-038
-27.346531 243.21896 49.231007 3.5733111e-043
-33.560337 298.48428 -89.99189 2.3509886e-038
-23.957592 253.11977 47.270363 3.5733111e-043
-28.504158 301.15573 -91.736351 2.3509886e-038
-19.985783 260.01956 42.650593 3.5733111e-043
-23.451405 305.10812 -93.261833 2.3509886e-038
-15.967138 270.28137 34.355278 3.5733111e-043
-18.35145 310.64151 -95.020348 2.3509886e-038
-11.649629 282.14603 14.60865 2.3418052e-038
-12.974839 314.24176 -96.06398 2.3509886e-038
-6.6185498 281.6077 11.146433 2.3418052e-038
-7.4241209 315.8833 -96.173508 2.3509886e-038
-1.5959805 279.20755 13.484009 2.3418052e-038
-1.8073715 316.18921 -95.025665 2.3509886e-038
3.3158221 274.70261 18.149044 2.3418052e-038
3.7882519 313.84152 -91.136436 2.3509886e-038
8.0076847 268.19934 24.380377 2.3418052e-038
9.1738081 307.25601 -82.409378 2.3509886e-038
12.589734 264.24686 31.906139 2.3418052e-038
13.346955 280.14023 1.5182465 2.3509886e-038
13.512018 283.60474 -38.207127 2.3509886e-038
13.764642 288.90707 -53.536701 2.3509886e-038
17.161861 262.2916 40.446186 2.3418052e-038
17.681631 270.23544 12.231755 2.3418052e-038
21.333788 256.36307 45.454926 2.3418052e-038
22.160273 266.29474 22.317448 2.3418052e-038
25.662029 254.07016 45.840057 2.3418052e-038
26.391132 261.28873 32.707756 2.3418052e-038
