# .PCD v0.7 - Point Cloud Data file format
VERSION 0.7
FIELDS x y z rgb
SIZE 4 4 4 4
TYPE F F F F
COUNT 1 1 1 1
WIDTH 758
HEIGHT 1
VIEWPOINT 0 0 0 1 0 0 0
POINTS 758
DATA ascii
35.096779 256.9653 31.466078 2.3418052e-038
-82.601418 254.18135 56.26474 9.1476764e-041
-9.635004 255.72145 65.036278 3.5733111e-043
-108.91291 254.12256 -21.543215 2.3509528e-038
-38.592106 256.06711 74.772209 2.3418409e-038
-42.662395 256.03433 78.028702 2.3418409e-038
-42.073605 255.60007 77.896347 2.3418409e-038
-37.196423 254.17825 77.463036 2.3418409e-038
-35.172653 254.86086 77.671066 2.3418409e-038
-44.156147 258.63339 74.096275 2.3418409e-038
-42.30336 256.99585 73.627129 2.3418409e-038
-37.394905 255.53456 73.208481 2.3418409e-038
-33.340107 257.5657 73.79039 2.3418409e-038
-44.140568 258.83264 69.425194 2.3418409e-038
-42.392124 257.5351 69.077164 2.3418409e-038
-37.512543 256.33841 68.756187 2.3418409e-038
-33.106979 258.5014 69.336357 2.3418409e-038
-32.299671 259.19666 69.522835 2.3418409e-038
-13.369308 256.42566 68.779579 3.5733111e-043
-9.3067837 253.33873 67.951599 3.5733111e-043
-6.474968 252.77773 67.801117 3.5733111e-043
-44.136787 259.59177 64.886787 2.3418409e-038
-42.524353 258.33838 64.573494 2.3418409e-038
-37.591248 256.87625 64.208031 2.3418409e-038
-33.154987 258.87625 64.707939 2.3418409e-038
-31.595957 260.36581 65.080269 2.3418409e-038
-15.156864 260.10049 65.013947 3.5733111e-043
-14.253706 259.1405 64.773994 3.5733111e-043
-9.3725061 255.12776 63.770981 3.5733111e-043
-4.717267 255.41074 63.841709 3.5733111e-043
-4.5473986 255.50601 63.865528 3.5733111e-043
-86.248077 251.51285 58.272968 9.1476764e-041
-83.151558 252.73088 58.555172 9.1476764e-041
-79.289352 255.15894 59.117725 9.1476764e-041
-78.108162 256.14432 59.346031 9.1476764e-041
-44.214695 260.4187 60.336365 2.3418409e-038
-42.65152 259.11096 60.033375 2.3418409e-038
-37.704403 257.64951 59.694771 2.3418409e-038
-33.269474 259.77014 60.186104 2.3418409e-038
-31.153975 261.72534 60.639099 2.3418409e-038
-15.729029 261.42557 60.569641 3.5733111e-043
-14.299711 259.9769 60.234001 3.5733111e-043
-9.4171371 256.34265 59.391983 3.5733111e-043
-4.7620635 257.83615 59.738014 3.5733111e-043
-3.6379061 259.35104 60.089001 3.5733111e-043
-86.990059 253.84409 54.176067 9.1476764e-041
-83.777153 254.63232 54.344296 9.1476764e-041
-79.599457 256.15686 54.669666 9.1476764e-041
-75.744164 258.97409 55.270927 9.1476764e-041
-75.632576 259.14673 55.30777 9.1476764e-041
-44.383797 261.47079 55.80378 2.3418409e-038
-42.838577 260.24734 55.542671 2.3418409e-038
-37.914089 259.08237 55.294037 2.3418409e-038
-33.421722 260.95895 55.694538 2.3418409e-038
-30.613802 262.72931 56.072376 2.3418409e-038
-16.231489 262.10654 55.939461 3.5733111e-043
-14.308961 260.14508 55.52084 3.5733111e-043
-9.4300175 256.69324 54.784142 3.5733111e-043
-4.7859964 259.13199 55.304626 3.5733111e-043
-3.0936024 262.59949 56.04467 3.5733111e-043
-87.012718 257.16028 50.186207 9.1476764e-041
-84.504524 256.84308 50.124302 9.1476764e-041
-79.74015 256.60962 50.078743 9.1476764e-041
-75.443855 257.94733 50.339802 9.1476764e-041
-73.225868 260.27917 50.794872 9.1476764e-041
-44.594677 262.73871 51.274864 2.3418409e-038
-43.063232 261.61212 51.055008 2.3418409e-038
-38.12154 260.49994 50.837959 2.3418409e-038
-33.538399 261.86993 51.10532 2.3418409e-038
-29.843307 263.71368 51.465137 2.3418409e-038
-16.969067 263.21902 51.368603 2.3418409e-038
-14.298622 259.95709 50.732021 3.5733111e-043
-9.4112301 256.18182 49.995255 3.5733111e-043
-4.7828975 258.9642 50.538254 3.5733111e-043
-2.7762823 263.82852 51.487545 3.5733111e-043
-86.62075 260.45148 46.070774 9.1476764e-041
-85.456017 259.73505 45.94405 9.1476764e-041
-79.974655 257.36426 45.524685 9.1476764e-041
-75.361572 257.66599 45.57806 9.1476764e-041
-71.397484 260.37469 46.057194 9.1476764e-041
-70.970467 261.03253 46.173557 9.1476764e-041
-44.742798 263.7597 46.655964 2.3418409e-038
-43.227875 262.61234 46.453007 2.3418409e-038
-38.226131 261.21466 46.205776 2.3418409e-038
-33.601646 262.3638 46.409046 2.3418409e-038
-29.149651 265.46631 46.95784 2.3418409e-038
-29.09576 265.52795 46.968746 2.3418409e-038
-17.860636 264.42996 46.774521 2.3418409e-038
-14.27134 259.46109 45.895592 3.5733111e-043
-9.3894901 255.59006 45.21085 3.5733111e-043
-4.7887335 259.28021 45.86359 3.5733111e-043
-2.6532168 265.30194 46.928768 3.5733111e-043
-85.248634 261.13751 41.421871 9.1476764e-041
-80.092018 257.74194 40.883266 9.1476764e-041
-75.431969 257.90668 40.909389 9.1476764e-041
-71.307549 260.04669 41.248844 9.1476764e-041
-68.960793 262.08673 41.572433 9.1476764e-041
-44.803913 265.0892 42.048691 2.3509886e-038
-43.439636 263.89883 41.859867 2.3418409e-038
-38.342106 262.00717 41.559814 2.3418409e-038
-33.680763 262.98154 41.714371 2.3418409e-038
-29.205332 265.97339 42.188942 2.3418409e-038
-28.327122 266.87238 42.331539 2.3418409e-038
-18.665344 264.44421 41.946381 2.3418409e-038
-14.226461 258.64517 41.026531 3.5733111e-043
-9.3751736 255.20036 40.48011 3.5733111e-043
-4.7847252 259.06317 41.092838 3.5733111e-043
-2.6253843 264.80038 42.002876 3.5733111e-043
-82.952049 259.18234 36.37719 9.1476764e-041
-80.081848 257.70923 36.170433 9.1476764e-041
-75.49453 258.12057 36.228168 9.1476764e-041
-71.336212 260.15125 36.51318 9.1476764e-041
-67.510178 263.77008 37.021095 9.1476764e-041
-67.333893 264.08646 37.065502 9.1476764e-041
-44.418324 265.52362 37.267212 2.3509886e-038
-43.592674 264.82852 37.169655 2.3509886e-038
-38.48806 263.00455 36.913651 2.3418409e-038
-33.798897 263.90393 37.039886 2.3418409e-038
-29.259233 266.46426 37.399235 2.3418409e-038
-27.588617 267.8642 37.595722 2.3418409e-038
-19.444004 264.6351 37.142509 2.3418409e-038
-19.385126 264.56741 37.133003 2.3418409e-038
-14.222778 258.57822 36.2924 3.5733111e-043
-9.3923969 255.66917 35.884106 3.5733111e-043
-4.7702765 258.28088 36.250668 2.3509886e-038
-2.62183 262.3652 36.823917 2.3509886e-038
35.522842 259.21027 36.381111 2.3418052e-038
37.799522 259.01483 36.35368 2.3418052e-038
37.822895 259.01556 36.353783 2.3418052e-038
-81.217056 259.30411 31.657516 9.1476764e-041
-80.485069 259.00684 31.621222 9.1476764e-041
-75.760201 259.02893 31.623922 9.1476764e-041
-71.388069 260.34033 31.784023 9.1476764e-041
-67.309448 262.98578 32.106995 9.1476764e-041
-65.612663 265.22198 32.380009 9.1476764e-041
-43.649704 265.04315 32.358173 2.3509886e-038
-43.625809 265.02982 32.356548 2.3509886e-038
-38.607807 263.82281 32.20919 2.3418409e-038
-33.88509 264.57697 32.301262 2.3418409e-038
-29.348194 267.27444 32.630585 2.3418409e-038
-27.184069 269.47083 32.898731 2.3418409e-038
-20.400032 266.94 32.589756 2.3418409e-038
-19.479855 265.86026 32.457932 2.3418409e-038
-14.290235 259.8046 31.718618 3.5733111e-043
-9.4381609 256.91492 31.365828 3.5733111e-043
-4.7692094 258.22308 31.525537 2.3509886e-038
-2.7413464 260.93268 31.856342 2.3509886e-038
29.850121 259.68088 31.703512 2.3418052e-038
32.897213 257.67685 31.458847 2.3418052e-038
37.55442 257.3353 31.417154 2.3418052e-038
39.680428 258.0174 31.500425 2.3418052e-038
-80.127533 261.90146 27.190407 9.1476764e-041
-76.464233 261.43607 27.142088 9.1476764e-041
-71.726173 261.57336 27.156343 9.1476764e-041
-67.385269 263.28204 27.333735 9.1476764e-041
-64.004433 266.73706 27.692436 9.1476764e-041
-43.124722 266.15826 27.632343 2.3509886e-038
-38.805225 265.17184 27.529936 2.3418409e-038
-33.987556 265.37701 27.551235 2.3418409e-038
-29.466343 268.35043 27.859932 2.3418409e-038
-27.153851 271.45096 28.181829 2.3418409e-038
-21.228058 269.90234 28.021053 2.3418409e-038
-19.629684 267.90515 27.813704 2.3418409e-038
-14.362652 261.12119 27.109398 3.5733111e-043
-9.4792109 258.03235 26.788717 3.5733111e-043
-4.7882104 259.25189 26.915331 2.3509886e-038
-3.10904 261.47586 27.146221 2.3509886e-038
26.569168 260.91116 27.087593 2.3418052e-038
28.375723 259.3728 26.927883 2.3418052e-038
32.882008 257.55774 26.739445 2.3418052e-038
37.760815 258.7496 26.863182 2.3418052e-038
38.903366 259.49481 26.940548 2.3418052e-038
-79.529259 266.37659 22.789042 9.1476764e-041
-77.548943 265.14478 22.683659 9.1476764e-041
-72.136803 263.07086 22.506229 9.1476764e-041
-67.560341 263.96603 22.582813 9.1476764e-041
-63.48727 267.11679 22.852367 9.1476764e-041
-62.30426 268.51636 22.972103 9.1476764e-041
-43.14233 268.66412 22.984745 2.3509886e-038
-39.085995 267.09048 22.850115 2.3418409e-038
-34.128735 266.47931 22.797831 2.3418409e-038
-29.573807 269.3291 23.041636 2.3418409e-038
-27.192617 272.84998 23.342854 2.3418409e-038
-21.675718 271.64734 23.239965 2.3418409e-038
-19.720333 269.1423 23.025654 2.3418409e-038
-14.417968 262.12686 22.425468 3.5733111e-043
-9.5160122 259.03409 22.160877 2.3509886e-038
-4.810205 260.44275 22.281391 2.3509886e-038
-3.7813039 261.73096 22.3916 2.3509886e-038
23.469372 260.99622 22.328741 2.3418052e-038
23.764717 260.7666 22.309097 2.3418052e-038
28.263771 258.34952 22.10231 2.3418052e-038
32.97084 258.25357 22.094103 2.3418052e-038
37.187553 260.95929 22.325583 2.3418052e-038
-77.946526 267.97354 18.030542 9.1476764e-041
-72.405251 264.04984 17.766535 9.1476764e-041
-67.646217 264.30161 17.783476 9.1476764e-041
-63.433735 266.89157 17.957741 9.1476764e-041
-60.191574 270.18283 18.179193 9.1476764e-041
-43.742641 271.15579 18.244659 2.3509886e-038
-39.30867 268.61212 18.073509 2.3509886e-038
-34.237839 267.33124 17.987326 3.5733111e-043
-29.584404 269.4256 18.128244 2.3418409e-038
-26.856337 272.74542 18.351618 2.3418409e-038
-22.063892 272.04498 18.304487 2.3418409e-038
-19.75395 269.6011 18.140053 3.5733111e-043
-14.492835 263.48801 17.728733 3.5733111e-043
-9.5673342 260.43115 17.523054 2.3509886e-038
-4.8289242 261.45627 17.59203 2.3509886e-038
-4.5192142 261.73572 17.61083 2.3509886e-038
20.239712 261.11044 17.568762 2.3418052e-038
23.596685 258.92282 17.421566 2.3418052e-038
28.17728 257.5589 17.329796 2.3418052e-038
33.00433 258.51587 17.394184 2.3418052e-038
34.543385 259.59064 17.466501 2.3418052e-038
-75.542694 267.36752 13.105695 9.1476764e-041
-72.851151 265.67596 13.022779 9.1476764e-041
-67.875145 265.19601 12.999254 9.1476764e-041
-63.414856 266.8121 13.078471 9.1476764e-041
-59.140041 269.54263 13.212314 9.1476764e-041
-56.986591 271.7818 13.322073 2.3509886e-038
-45.436253 273.37671 13.400251 2.3509886e-038
-44.93885 273.00665 13.382112 2.3509886e-038
-39.441807 269.52185 13.211296 2.3509886e-038
-34.34808 268.19199 13.146109 2.3509886e-038
-29.559137 269.1955 13.195298 3.5733111e-043
-25.281137 271.4278 13.304721 3.5733111e-043
-23.539026 271.29532 13.298225 3.5733111e-043
-19.728277 269.25073 13.198005 3.5733111e-043
-14.582256 265.11371 12.995219 3.5733111e-043
-9.6411304 262.43994 12.864158 2.3509886e-038
-4.9030547 263.50958 12.916588 2.3509886e-038
16.73119 262.34988 12.859743 2.3418052e-038
18.988781 260.59583 12.773764 2.3418052e-038
23.544016 258.34488 12.663428 2.3418052e-038
28.191961 257.69312 12.631479 2.3418052e-038
31.697653 258.79602 12.685541 2.3418052e-038
-73.922646 269.5452 8.288599 9.1476764e-041
-73.909332 269.53497 8.2882843 9.1476764e-041
-68.379883 267.16806 8.2155008 9.1476764e-041
-63.474083 267.06128 8.2122173 9.1476764e-041
-58.779552 267.89963 8.2379971 9.1476764e-041
-54.2537 269.72891 8.2942467 2.3509886e-038
-49.712757 271.84103 8.3591957 2.3509886e-038
-44.795414 272.13525 8.3682432 2.3509886e-038
-39.549942 270.2608 8.3106041 2.3509886e-038
-34.509426 269.45181 8.2857275 2.3509886e-038
-29.587643 269.45511 8.2858276 2.3509886e-038
-24.672951 269.53717 8.288352 3.5733111e-043
-19.681477 268.61197 8.259901 3.5733111e-043
-14.664308 266.60547 8.1982012 2.3509886e-038
-9.7139673 264.42264 8.1310778 2.3509886e-038
-4.9025354 265.44186 8.1624193 2.3509886e-038
-4.5850153 265.74133 8.171629 2.3509886e-038
12.783838 264.51498 8.1339178 2.3418052e-038
14.372525 263.23495 8.0945559 2.3418052e-038
18.988371 260.59021 8.0132284 2.3418052e-038
23.625061 259.23419 7.9715319 2.3418052e-038
28.376371 259.37872 7.975976 2.3418052e-038
28.894831 259.5368 7.9808373 2.3418052e-038
-72.722916 272.39203 3.4002945 9.1476764e-041
-69.119186 270.05664 3.3711417 9.1476764e-041
-63.747623 268.21219 3.3481171 9.1476764e-041
-58.823723 268.10095 3.3467286 2.3509886e-038
-54.076168 268.84628 3.3560326 2.3509886e-038
-49.358612 269.90445 3.369242 2.3509886e-038
-44.582714 270.84308 3.380959 2.3509886e-038
-39.640736 270.88123 3.3814352 2.3509886e-038
-34.674381 270.73978 3.379669 2.3509886e-038
-29.668049 270.18735 3.3727734 2.3509886e-038
-24.65567 269.34839 3.3623004 2.3509886e-038
-19.703232 268.90887 3.3568141 2.3509886e-038
-14.731393 267.82513 3.3432856 2.3509886e-038
-9.7619743 265.7294 3.3171241 2.3509886e-038
-4.9115553 265.93024 3.3196313 2.3509886e-038
-2.698194 267.70059 3.3417306 2.3509886e-038
7.5883136 268.14597 3.3472908 2.3418052e-038
9.6789436 266.40012 3.3254972 2.3418052e-038
14.371285 263.21222 3.2857022 2.3418052e-038
19.032278 261.19275 3.2604928 2.3418052e-038
23.734266 260.4325 3.2510023 2.3418052e-038
26.105455 260.81396 3.2557642 2.3418052e-038
-72.081154 275.57437 -1.5939673 2.3509886e-038
-70.064461 273.74994 -1.5834146 2.3509886e-038
-64.125198 269.80081 -1.560572 2.3509886e-038
-58.96843 268.76047 -1.5545546 2.3509886e-038
-54.130203 269.1149 -1.5566047 2.3509886e-038
-49.321468 269.70135 -1.5599968 2.3509886e-038
-44.527176 270.50571 -1.5646492 2.3509886e-038
-39.690929 271.22424 -1.5688053 2.3509886e-038
-34.77314 271.51089 -1.5704635 2.3509886e-038
-29.758671 271.01266 -1.5675817 2.3509886e-038
-24.750244 270.38153 -1.5639311 2.3509886e-038
-19.784468 270.01761 -1.561826 2.3509886e-038
-14.786133 268.82031 -1.5549006 2.3509886e-038
-9.8074265 266.96667 -1.544179 2.3509886e-038
-4.9254894 266.68469 -1.5425478 2.3509886e-038
-0.05419426 268.17801 -1.5511855 2.3418052e-038
4.8383541 267.82776 -1.5491595 2.3418052e-038
9.6719027 266.20633 -1.539781 2.3418052e-038
14.43823 264.43832 -1.5295546 2.3418052e-038
19.140108 262.67258 -1.5193411 2.3418052e-038
23.388487 262.04813 -1.5157292 2.3418052e-038
-71.622078 278.16336 -6.6902142 2.3509886e-038
-71.011612 277.45056 -6.6730695 2.3509886e-038
-64.503456 271.39227 -6.52736 2.3509886e-038
-59.147038 269.57452 -6.4836402 2.3509886e-038
-54.292358 269.92108 -6.4919758 2.3509886e-038
-49.464256 270.48215 -6.5054698 2.3509886e-038
-44.611881 271.02029 -6.5184131 2.3509886e-038
-39.757896 271.68185 -6.5343242 2.3509886e-038
-34.853359 272.13727 -6.5452771 2.3509886e-038
-29.86105 271.94504 -6.5406542 2.3509886e-038
-24.873562 271.72873 -6.5354519 2.3509886e-038
-19.884747 271.3862 -6.5272141 2.3509886e-038
-14.863543 270.22766 -6.4993491 2.3509886e-038
-9.8850307 269.07913 -6.471725 2.3509886e-038
-4.9636254 268.74951 -6.4637971 2.3509886e-038
-0.054291904 268.66119 -6.4616733 2.3418052e-038
4.8447886 268.18393 -6.4501939 2.3418052e-038
9.7199726 267.52939 -6.4344521 2.3418052e-038
14.560164 266.6716 -6.4138207 2.3418052e-038
19.36462 265.75372 -6.3917446 2.3418052e-038
21.086548 265.61356 -6.3883734 2.3418052e-038
-70.790207 278.83154 -11.799761 2.3509886e-038
-64.791473 272.6041 -11.536224 2.3509886e-038
-59.342781 270.46664 -11.445771 2.3509886e-038
-54.499512 270.95096 -11.466267 2.3509886e-038
-49.647991 271.48685 -11.488943 2.3509886e-038
-44.734806 271.76706 -11.500801 2.3509886e-038
-39.835693 272.21347 -11.519692 2.3509886e-038
-34.940933 272.82104 -11.545404 2.3509886e-038
-29.964672 272.88873 -11.548268 2.3509886e-038
-24.970758 272.79056 -11.544115 2.3509886e-038
-19.974287 272.60825 -11.5364 2.3509886e-038
-14.963312 272.04153 -11.512418 2.3509886e-038
-9.9776516 271.60034 -11.493746 2.3509886e-038
-5.0100989 271.26578 -11.479589 2.3509886e-038
-0.05468281 270.59558 -11.451226 2.3418052e-038
4.876842 269.95822 -11.424254 2.3418052e-038
9.7855806 269.33514 -11.397887 2.3418052e-038
14.68669 268.98892 -11.383236 2.3418052e-038
19.215559 270.43436 -11.444404 2.3418052e-038
-115.47659 256.15967 -15.519652 2.3509528e-038
-112.33778 256.11899 -15.517188 2.3509528e-038
-108.54845 258.2345 -15.645359 2.3509528e-038
-107.62383 259.07715 -15.696412 2.3509528e-038
-70.014999 278.5062 -16.873537 2.3509886e-038
-64.966805 273.3418 -16.560648 2.3509886e-038
-59.491997 271.14676 -16.427658 2.3509886e-038
-54.628376 271.59164 -16.454611 2.3509886e-038
-49.742279 272.00244 -16.4795 2.3509886e-038
-44.80035 272.16525 -16.489365 2.3509886e-038
-39.860825 272.38522 -16.502691 2.3509886e-038
-34.981232 273.13568 -16.548161 2.3509886e-038
-30.029716 273.48108 -16.569086 2.3509886e-038
-25.01189 273.23987 -16.554474 2.3509886e-038
-20.007601 273.06293 -16.543749 2.3509886e-038
-15.020147 273.07483 -16.544472 2.3509886e-038
-10.036051 273.19 -16.551451 2.3509886e-038
-5.0406938 272.92227 -16.535231 2.3509886e-038
-0.054973062 272.03186 -16.481283 2.3509886e-038
4.8983021 271.14618 -16.427624 2.3418052e-038
9.8174801 270.21317 -16.371096 2.3418052e-038
14.751581 270.17743 -16.368931 2.3418052e-038
17.645199 271.84302 -16.469841 2.3418052e-038
-117.11132 253.93236 -20.023338 2.3509528e-038
-115.73853 253.32216 -19.975224 2.3509528e-038
-111.09179 253.27826 -19.97176 2.3509528e-038
-107.39294 255.48557 -20.145813 2.3509528e-038
-104.08844 258.87424 -20.413021 2.3509528e-038
-101.07059 263.33231 -20.764553 2.3509528e-038
-100.8073 263.86063 -20.806211 2.3509528e-038
-69.703896 278.21451 -21.938061 2.3509886e-038
-64.981468 273.4035 -21.558697 2.3509886e-038
-59.463539 271.01706 -21.37052 2.3509886e-038
-54.604397 271.47241 -21.406427 2.3509886e-038
-49.76223 272.11154 -21.456823 2.3509886e-038
-44.856506 272.50641 -21.487959 2.3509886e-038
-39.910244 272.7229 -21.50503 2.3509886e-038
-35.038376 273.58185 -21.572762 2.3509886e-038
-30.105602 274.17215 -21.619308 2.3509886e-038
-25.063906 273.80814 -21.590603 2.3509886e-038
-20.046431 273.59286 -21.573629 2.3509886e-038
-15.056707 273.7395 -21.585192 2.3509886e-038
-10.065071 273.97995 -21.604153 2.3509886e-038
-5.0578618 273.85184 -21.594051 2.3509886e-038
-0.055174891 273.03064 -21.529297 2.3509886e-038
4.913836 272.00604 -21.448502 2.3509886e-038
9.834404 270.67896 -21.343859 2.3509886e-038
14.752815 270.20001 -21.306091 2.3418052e-038
16.65464 270.98715 -21.36816 2.3418052e-038
-115.06497 252.62439 -24.534956 2.3509528e-038
-110.56136 252.06894 -24.48101 2.3509528e-038
-106.52943 253.43129 -24.613321 2.3509528e-038
-103.29464 256.90002 -24.950205 2.3509528e-038
-100.58197 262.05923 -25.451271 2.3509528e-038
-97.679031 267.21359 -25.95186 2.3509528e-038
-96.864929 268.64609 -26.090986 2.3509528e-038
-70.574944 280.34778 -27.227457 2.3509886e-038
-65.069336 273.77319 -26.588934 2.3509886e-038
-59.340313 270.45541 -26.266708 2.3509886e-038
-54.480545 270.85669 -26.305679 2.3509886e-038
-49.759384 272.09598 -26.426041 2.3509886e-038
-44.979713 273.25491 -26.538595 2.3509886e-038
-40.07983 273.88174 -26.599474 2.3509886e-038
-35.178101 274.67282 -26.676306 2.3509886e-038
-30.217918 275.19504 -26.727022 2.3509886e-038
-25.165562 274.91864 -26.70018 2.3509886e-038
-20.12977 274.73026 -26.681883 2.3509886e-038
-15.11324 274.7673 -26.685482 2.3509886e-038
-10.095207 274.80029 -26.688686 2.3509886e-038
-5.0758648 274.8266 -26.691238 2.3509886e-038
-0.055479065 274.5358 -26.662998 2.3509886e-038
4.9434948 273.64783 -26.576756 2.3509886e-038
9.8852711 272.07901 -26.424395 2.3509886e-038
14.799444 271.05402 -26.324846 2.3509886e-038
16.359571 271.39951 -26.3584 2.3509886e-038
-111.66205 253.09616 -29.204147 2.3509528e-038
-110.88518 252.80721 -29.170803 2.3509528e-038
-106.25079 252.7684 -29.166327 2.3509528e-038
-102.81864 255.71617 -29.506464 2.3509528e-038
-99.898232 260.2778 -30.03282 2.3509528e-038
-96.728035 264.612 -30.53293 2.3509528e-038
-93.437088 269.0545 -31.04554 2.3509528e-038
-92.376701 270.76675 -31.243114 2.3509528e-038
-72.867058 283.32092 -32.691711 2.3509886e-038
-72.310768 282.52652 -32.600044 2.3509886e-038
-65.129112 274.02466 -31.619034 2.3509886e-038
-59.406532 270.75723 -31.242012 2.3509886e-038
-54.48917 270.89957 -31.258438 2.3509886e-038
-49.761276 272.10632 -31.397682 2.3509886e-038
-45.037472 273.60577 -31.5707 2.3509886e-038
-40.20723 274.75232 -31.702999 2.3509886e-038
-35.31646 275.75317 -31.818483 2.3509886e-038
-30.358261 276.47314 -31.901558 2.3509886e-038
-25.311178 276.5094 -31.905745 2.3509886e-038
-20.240339 276.23932 -31.874578 2.3509886e-038
-15.187999 276.12646 -31.861559 2.3509886e-038
-10.140418 276.03098 -31.850538 2.3509886e-038
-5.1004601 276.15826 -31.865229 2.3509886e-038
-0.055824175 276.24356 -31.875071 2.3509886e-038
4.9744687 275.36237 -31.773388 2.3509886e-038
9.9519567 273.91446 -31.606319 2.3509886e-038
14.936778 273.56931 -31.566494 2.3509886e-038
16.417311 274.11691 -31.629679 2.3509886e-038
-107.18165 254.10468 -33.962292 2.3509528e-038
-106.84718 254.18719 -33.97332 2.3509528e-038
-103.15855 256.56155 -34.290665 2.3509528e-038
-99.588493 259.47079 -34.679497 2.3509528e-038
-95.882507 262.29895 -35.057491 2.3509528e-038
-92.323776 265.84866 -35.531929 2.3509528e-038
-88.832298 269.99695 -36.086369 2.3509528e-038
-85.773079 273.65341 -36.575073 2.3509886e-038
-76.896606 281.81619 -37.666069 2.3509886e-038
-71.024422 277.50064 -37.089268 2.3509886e-038
-64.969788 273.35434 -36.535103 2.3509886e-038
-59.599533 271.63687 -36.305553 2.3509886e-038
-54.672485 271.81094 -36.328819 2.3509886e-038
-49.873108 272.71783 -36.450027 2.3509886e-038
-45.071819 273.81445 -36.596596 2.3509886e-038
-40.232315 274.92374 -36.744858 2.3509886e-038
-35.387878 276.31079 -36.930244 2.3509886e-038
-30.476406 277.5491 -37.095749 2.3509886e-038
-25.439959 277.91629 -37.144825 2.3509886e-038
-20.329477 277.45587 -37.083286 2.3509886e-038
-15.251311 277.27753 -37.059452 2.3509886e-038
-10.187901 277.32352 -37.065598 2.3509886e-038
-5.1235695 277.40948 -37.077091 2.3509886e-038
-0.056026734 277.24594 -37.055233 2.3509886e-038
4.9844503 275.91495 -36.877338 2.3509886e-038
9.9742184 274.52716 -36.691853 2.3509886e-038
15.031325 275.30096 -36.795277 2.3509886e-038
16.317398 276.05554 -36.89613 2.3509886e-038
-104.36867 260.20367 -39.530659 2.3509528e-038
-100.0531 260.6813 -39.603222 2.3509528e-038
-95.573586 261.45383 -39.720589 2.3509528e-038
-91.577751 263.7005 -40.061901 2.3509528e-038
-87.896828 267.15369 -40.586517 2.3509528e-038
-84.064186 270.52469 -41.098648 2.3509528e-038
-79.947731 273.34637 -41.527325 2.3509886e-038
-75.316727 274.66751 -41.728031 2.3509886e-038
-70.147049 274.07263 -41.637657 2.3509886e-038
-64.889771 273.0177 -41.477394 2.3509886e-038
-59.831635 272.6947 -41.428322 2.3509886e-038
-54.95266 273.20386 -41.505672 2.3509886e-038
-50.089996 273.90384 -41.612019 2.3509886e-038
-45.166008 274.38666 -41.685364 2.3509886e-038
-40.267857 275.1666 -41.803856 2.3509886e-038
-35.426762 276.61444 -42.023815 2.3509886e-038
-30.529222 278.03009 -42.238884 2.3509886e-038
-25.52323 278.82596 -42.359795 2.3509886e-038
-20.411957 278.58157 -42.322666 2.3509886e-038
-15.304861 278.25107 -42.272457 2.3509886e-038
-10.229582 278.4581 -42.303905 2.3509886e-038
-5.1407576 278.34012 -42.285988 2.3509886e-038
-0.056105699 277.63669 -42.179115 2.3509886e-038
4.9882894 276.12744 -41.949829 2.3509886e-038
9.9886522 274.92447 -41.767067 2.3509886e-038
15.088956 276.35648 -41.984627 2.3509886e-038
15.853665 276.88113 -42.064331 2.3509886e-038
-99.99926 265.27734 -45.14735 2.3509528e-038
-96.530632 264.07196 -44.942211 2.3509528e-038
-91.763466 264.23526 -44.969997 2.3509528e-038
-87.584221 266.20352 -45.304977 2.3509528e-038
-83.370697 268.293 -45.66058 2.3509528e-038
-78.973961 270.017 -45.953987 2.3509886e-038
-74.418549 271.39203 -46.188004 2.3509886e-038
-69.651398 272.13605 -46.314629 2.3509886e-038
-64.743752 272.40332 -46.360115 2.3509886e-038
-59.861927 272.83279 -46.433208 2.3509886e-038
-55.032814 273.60236 -46.564182 2.3509886e-038
-50.164162 274.30939 -46.684509 2.3509886e-038
-45.227196 274.75836 -46.760921 2.3509886e-038
-40.339809 275.65829 -46.914074 2.3509886e-038
-35.508709 277.25424 -47.185692 2.3509886e-038
-30.626646 278.9173 -47.468727 2.3509886e-038
-25.647856 280.18744 -47.684887 2.3509886e-038
-20.529734 280.18896 -47.68515 2.3509886e-038
-15.374791 279.52246 -47.571716 2.3509886e-038
-10.26955 279.54608 -47.575737 2.3509886e-038
-5.1567979 279.20859 -47.518303 2.3509886e-038
-0.056218974 278.19724 -47.34618 2.3509886e-038
5.0041232 277.00391 -47.143085 2.3509886e-038
10.043729 276.44034 -47.047176 2.3509886e-038
15.198397 278.96234 -47.476391 2.3509886e-038
-95.333054 268.88519 -50.673141 2.3509528e-038
-93.085182 268.04117 -50.514076 2.3509528e-038
-88.05677 267.6398 -50.438442 2.3509528e-038
-83.099976 267.42178 -50.39735 2.3509528e-038
-78.372673 267.96115 -50.498997 2.3509528e-038
-73.807671 269.16425 -50.725727 2.3509886e-038
-69.143478 270.15155 -50.911797 2.3509886e-038
-64.369431 270.82843 -51.039352 2.3509886e-038
-59.596226 271.6218 -51.188869 2.3509886e-038
-54.839115 272.63937 -51.380638 2.3509886e-038
-50.040405 273.63269 -51.567833 2.3509886e-038
-45.183872 274.49515 -51.730373 2.3509886e-038
-40.381817 275.94534 -52.00367 2.3509886e-038
-35.59676 277.94177 -52.37991 2.3509886e-038
-30.752344 280.06204 -52.779491 2.3509886e-038
-25.785828 281.69467 -53.08717 2.3509886e-038
-20.659899 281.96545 -53.138199 2.3509886e-038
-15.465544 281.17239 -52.988743 2.3509886e-038
-10.310375 280.65735 -52.891678 2.3509886e-038
-5.1732831 280.10117 -52.786865 2.3509886e-038
-0.056413949 279.16205 -52.609879 2.3509886e-038
5.0324454 278.57169 -52.498623 2.3509886e-038
10.132133 278.8736 -52.555515 2.3509886e-038
14.464782 281.6575 -53.080162 2.3509886e-038
-91.434593 273.38889 -56.515957 2.3509528e-038
-89.470879 271.93784 -56.215992 2.3509528e-038
-83.379539 268.32141 -55.468391 2.3509528e-038
-78.121063 267.10086 -55.216072 2.3509528e-038
-73.394615 267.6579 -55.331226 2.3509886e-038
-68.718857 268.49252 -55.503761 2.3509886e-038
-63.994789 269.25214 -55.660789 2.3509886e-038
-59.272858 270.14798 -55.845982 2.3509886e-038
-54.563736 271.27026 -56.077988 2.3509886e-038
-49.813797 272.39352 -56.310192 2.3509886e-038
-45.024223 273.5253 -56.544155 2.3509886e-038
-40.30265 275.40436 -56.932602 2.3509886e-038
-35.587532 277.86969 -57.442245 2.3509886e-038
-30.797682 280.47498 -57.980812 2.3509886e-038
-25.849876 282.39438 -58.377605 2.3509886e-038
-20.748343 283.17255 -58.538471 2.3509886e-038
-15.552433 282.75211 -58.451553 2.3509886e-038
-10.356336 281.90845 -58.277153 2.3509886e-038
-5.1916876 281.09766 -58.109539 2.3509886e-038
-0.056656744 280.36349 -57.957771 2.3509886e-038
5.069521 280.62399 -58.011623 2.3509886e-038
10.244871 281.97656 -58.291229 2.3509886e-038
13.743772 284.36502 -58.784985 2.3509886e-038
-86.133781 273.96106 -61.638756 2.3509528e-038
-84.778 272.82181 -61.382435 2.3509528e-038
-78.806931 269.44589 -60.622883 2.3509528e-038
-73.563065 268.27219 -60.35881 2.3509886e-038
-68.614563 268.08502 -60.3167 2.3509886e-038
-63.79789 268.42371 -60.392902 2.3509886e-038
-59.060642 269.18076 -60.563229 2.3509886e-038
-54.330128 270.10889 -60.772049 2.3509886e-038
-49.584839 271.14154 -61.004387 2.3509886e-038
-44.892929 272.72766 -61.361252 2.3509886e-038
-40.264519 275.1438 -61.904861 2.3509886e-038
-35.590771 277.89499 -62.523857 2.3509886e-038
-30.838413 280.84589 -63.187778 2.3509886e-038
-25.913219 283.08636 -63.69186 2.3509886e-038
-20.832767 284.32477 -63.97049 2.3509886e-038
-15.632458 284.207 -63.943996 2.3509886e-038
-10.406044 283.26157 -63.731281 2.3509886e-038
-5.2124076 282.21954 -63.496834 2.3509886e-038
-0.056929436 281.71292 -63.382858 2.3509886e-038
5.1176381 283.28757 -63.737133 2.3509886e-038
10.445871 287.50879 -64.686874 2.3509886e-038
13.07154 290.61734 -65.386269 2.3509886e-038
-81.003937 276.28217 -67.207878 2.3509528e-038
-80.738892 276.05139 -67.151749 2.3509528e-038
-74.446701 271.49466 -66.043282 2.3509886e-038
-68.889404 269.15884 -65.475075 2.3509886e-038
-63.841583 268.60751 -65.340958 2.3509886e-038
-59.021091 269.00049 -65.436554 2.3509886e-038
-54.240395 269.66275 -65.597656 2.3509886e-038
-49.491493 270.6311 -65.833214 2.3509886e-038
-44.887375 272.69394 -66.335014 2.3509886e-038
-40.354252 275.75699 -67.080124 2.3509886e-038
-35.702183 278.76492 -67.811829 2.3509886e-038
-30.937977 281.75262 -68.538612 2.3509886e-038
-26.004042 284.07855 -69.104408 2.3509886e-038
-20.916857 285.47238 -69.443481 2.3509886e-038
-15.695568 285.35437 -69.414772 2.3509886e-038
-10.450781 284.47931 -69.201904 2.3509886e-038
-5.2385502 283.63498 -68.996513 2.3509886e-038
-0.05729131 283.50363 -68.964554 2.3509886e-038
5.1767211 286.55811 -69.707581 2.3509886e-038
10.726031 295.21982 -71.814613 2.3509886e-038
12.135227 298.33881 -72.573334 2.3509886e-038
-75.316055 276.62909 -72.345528 2.3509886e-038
-69.722878 272.41531 -71.243507 2.3509886e-038
-64.244431 270.30246 -70.690948 2.3509886e-038
-59.24654 270.02802 -70.619179 2.3509886e-038
-54.393345 270.42316 -70.722511 2.3509886e-038
-49.631062 271.39429 -70.976486 2.3509886e-038
-45.023064 273.51825 -71.531967 2.3509886e-038
-40.472427 276.56451 -72.328636 2.3509886e-038
-35.795448 279.49313 -73.094536 2.3509886e-038
-31.027256 282.56567 -73.898094 2.3509886e-038
-26.109076 285.22595 -74.593819 2.3509886e-038
-21.013956 286.79761 -75.004852 2.3509886e-038
-15.777472 286.84344 -75.01683 2.3509886e-038
-10.512025 286.14642 -74.834549 2.3509886e-038
-5.2770243 285.71811 -74.722534 2.3509886e-038
-0.057883736 286.43521 -74.910072 2.3509886e-038
5.2622113 291.29044 -76.179832 2.3509886e-038
10.630683 302.14633 -79.018936 2.3509886e-038
-69.323105 276.68207 -77.413612 2.3509886e-038
-65.141144 274.07529 -76.68425 2.3509886e-038
-59.890991 272.96524 -76.373665 2.3509886e-038
-54.904083 272.96237 -76.372864 2.3509886e-038
-50.014259 273.48969 -76.520401 2.3509886e-038
-45.266205 274.99533 -76.941666 2.3509886e-038
-40.605713 277.47534 -77.635559 2.3509886e-038
-35.868866 280.06638 -78.360504 2.3509886e-038
-31.110804 283.32657 -79.27269 2.3509886e-038
-26.239641 286.65231 -80.203217 2.3509886e-038
-21.164133 288.8472 -80.817322 2.3509886e-038
-15.932105 289.65475 -81.043266 2.3509886e-038
-10.633018 289.44 -80.983185 2.3509886e-038
-5.3460979 289.45804 -80.988228 2.3509886e-038
-0.058808383 291.0108 -81.422676 2.3509886e-038
5.3687687 297.1889 -83.151268 2.3509886e-038
8.1253481 302.64066 -84.67662 2.3509886e-038
-61.751984 279.12576 -83.196167 2.3509886e-038
-61.223133 279.03677 -83.169647 2.3509886e-038
-55.97971 278.30997 -82.953018 2.3509886e-038
-50.811741 277.85049 -82.816071 2.3509886e-038
-45.833897 278.44412 -82.993004 2.3509886e-038
-41.001263 280.17828 -83.509888 2.3509886e-038
-36.1609 282.34665 -84.156189 2.3509886e-038
-31.372246 285.70749 -85.157928 2.3509886e-038
-26.535717 289.88678 -86.403603 2.3509886e-038
-21.490421 293.30038 -87.421059 2.3509886e-038
-16.24918 295.41934 -88.052635 2.3509886e-038
-10.878306 296.11694 -88.260559 2.3509886e-038
-5.4810524 296.76498 -88.45372 2.3509886e-038
-0.060423087 299.0011 -89.120216 2.3509886e-038
3.516161 302.53766 -90.174316 2.3509886e-038
-51.489609 286.26544 -90.553505 2.3509886e-038
-47.209808 286.80286 -90.723511 2.3509886e-038
-42.049709 287.34271 -90.894279 2.3509886e-038
-36.944153 288.46228 -91.248428 2.3509886e-038
-32.024933 291.65152 -92.257271 2.3509886e-038
-27.143061 296.52164 -93.797821 2.3509886e-038
-22.086493 301.43552 -95.352219 2.3509886e-038
-16.82509 305.88977 -96.761215 2.3509886e-038
-11.339099 308.66013 -97.63755 2.3509886e-038
-5.8810663 310.63684 -98.26284 2.3509886e-038
-116.73173 255.496 -16.80743 2.3509528e-038
-115.42919 252.64508 -23.903584 2.3509528e-038
-112.66604 256.86737 -14.609458 2.3509528e-038
-111.00442 253.07906 -29.885017 2.3509528e-038
-108.67671 258.53961 -15.238496 2.3509528e-038
-106.94 254.40804 -34.33802 2.3509528e-038
-104.70821 260.41565 -17.282238 2.3509528e-038
-104.51938 259.94601 -39.281223 2.3509528e-038
-101.09497 263.39581 -20.447033 2.3509528e-038
-101.37431 264.12363 -43.620766 2.3509528e-038
-97.925797 267.88864 -24.770432 2.3509528e-038
-97.605278 267.01181 -47.81879 2.3509528e-038
-93.785057 270.05646 -29.651539 2.3509886e-038
-93.917572 270.43805 -52.720783 2.3509528e-038
-82.753731 251.52174 61.988483 9.1476764e-041
-85.987518 261.35052 43.428555 9.1476764e-041
-89.458252 271.89948 -33.979343 2.3509528e-038
-90.060089 273.7287 -57.959248 2.3509528e-038
-79.119621 254.61272 60.540443 9.1476764e-041
-80.792076 259.99481 30.104927 9.1476764e-041
-85.157944 274.04449 -36.941364 2.3509886e-038
-85.202568 274.18808 -62.583641 2.3509528e-038
-75.76223 259.03586 55.547619 9.1476764e-041
-78.396408 268.0423 19.033382 9.1476764e-041
-81.25425 277.81345 -38.454933 2.3509886e-038
-80.820557 276.33063 -67.386597 2.3509528e-038
-71.514992 260.80322 47.335167 9.1476764e-041
-73.916107 269.55969 8.2653036 9.1476764e-041
-77.240891 281.6846 -37.814388 2.3509886e-038
-75.856354 276.63544 -71.86525 2.3509886e-038
-67.540993 263.89047 37.630081 9.1476764e-041
-71.300682 278.58002 -8.7677736 2.3509886e-038
-72.428627 282.987 -31.930834 2.3509886e-038
-70.871361 276.90259 -76.343697 2.3509886e-038
-63.543819 267.35474 26.287777 9.1476764e-041
-65.756172 276.66296 -79.855743 2.3509886e-038
-59.426182 270.84677 16.729235 9.1476764e-041
-61.319805 279.47736 -83.578918 2.3509886e-038
-54.698082 271.9382 11.315568 2.3509886e-038
-56.83065 282.54053 -86.972176 2.3509886e-038
-49.917789 272.96219 9.8739872 2.3509886e-038
-52.220989 285.55661 -90.007339 2.3509886e-038
-42.019123 255.26907 78.720116 2.3418409e-038
-43.627785 265.04184 32.219341 2.3509886e-038
-44.934391 272.97955 14.372961 2.3509886e-038
-47.754601 290.11252 -93.18631 2.3509886e-038
-37.1339 253.75101 79.388603 2.3418409e-038
-42.872936 292.96817 -95.455017 2.3509886e-038
-33.053188 258.08142 72.727585 2.3418409e-038
-37.787441 295.04675 -97.056435 2.3509886e-038
-29.142632 265.40237 47.263268 2.3418409e-038
-32.76284 298.37167 -98.520828 2.3509886e-038
-24.837746 271.33746 13.050765 3.5733111e-043
-27.710503 302.72061 -99.611206 2.3509886e-038
-19.384512 264.55902 37.469376 2.3418409e-038
-22.487936 306.91446 -100.21215 2.3509886e-038
-14.187389 257.93481 67.731468 3.5733111e-043
-17.097837 310.84845 -100.58276 2.3509886e-038
-9.2782297 252.56145 69.688179 3.5733111e-043
-11.472727 312.29758 -100.15352 2.3509886e-038
-4.7118964 255.11995 64.375595 3.5733111e-043
-4.8589988 263.08463 13.773585 2.3509886e-038
-4.8818579 264.3223 11.402716 2.3509886e-038
-5.735106 310.52039 -98.167892 2.3509886e-038
-0.054373596 269.06543 1.5292767 2.3509886e-038
-0.061719038 305.41406 -93.815811 2.3509886e-038
4.8601813 269.03598 1.7752525 2.3418052e-038
5.4555349 301.99188 -88.054115 2.3509886e-038
9.6933746 266.79733 5.0339627 2.3418052e-038
10.959328 301.64102 -77.826546 2.3509886e-038
14.389785 263.55106 9.9838705 2.3418052e-038
15.225366 278.85486 -47.256535 2.3509886e-038
19.042898 261.3385 15.918495 2.3418052e-038
19.638561 269.51318 -10.267718 2.3418052e-038
23.786417 261.00473 22.807865 2.3418052e-038
23.850096 261.70346 -0.647645 2.3418052e-038
28.471943 260.25232 29.899986 2.3418052e-038
28.428196 259.85245 7.1766009 2.3418052e-038
33.073303 259.05612 34.950821 2.3418052e-038
33.081944 259.12381 14.971198 2.3418052e-038
37.800793 259.02356 36.368202 2.3418052e-038
38.047447 260.71368 24.314594 2.3418052e-038
