# .PCD v0.7 - Point Cloud Data file format
VERSION 0.7
FIELDS x y z rgb
SIZE 4 4 4 4
TYPE F F F F
COUNT 1 1 1 1
WIDTH 734
HEIGHT 1
VIEWPOINT 0 0 0 1 0 0 0
POINTS 734
DATA ascii
51.962685 245.1796 60.045769 2.3418052e-038
-90.791023 253.64983 -1.1946187 9.1476764e-041
-56.785587 251.18988 86.36142 3.5733111e-043
3.5017281 247.83716 94.546654 2.3509528e-038
-24.929369 252.05612 103.27882 2.3418409e-038
-29.340118 252.43494 105.62474 2.3418409e-038
-28.631876 252.23392 105.54063 2.3418409e-038
-23.81373 251.63382 105.28954 2.3418409e-038
-21.237461 251.73935 105.33369 2.3418409e-038
-30.46291 254.00993 101.48889 2.3418409e-038
-28.771839 253.46696 101.27194 2.3418409e-038
-23.923237 252.79095 101.00185 2.3418409e-038
-19.400492 252.68761 100.96056 2.3418409e-038
-30.550835 255.12773 97.119522 2.3418409e-038
-28.906046 254.64925 96.937386 2.3418409e-038
-24.048634 254.116 96.73439 2.3418409e-038
-19.234261 253.88512 96.6465 2.3418409e-038
-18.281866 253.94687 96.670006 2.3418409e-038
-0.90925348 249.74969 95.072266 2.3509528e-038
-0.063041873 249.28435 94.895126 2.3509528e-038
4.6205826 248.10033 94.444412 2.3509528e-038
7.3111987 247.96735 94.393784 2.3509528e-038
-58.568844 250.61652 90.671425 3.5733111e-043
-56.722168 250.12701 90.494324 3.5733111e-043
-54.666943 250.04419 90.464363 3.5733111e-043
-30.26685 256.25064 92.709816 2.3418409e-038
-29.055735 255.96794 92.607536 2.3418409e-038
-24.174606 255.44711 92.419106 2.3418409e-038
-19.307814 254.85599 92.205238 2.3418409e-038
-17.447971 254.72954 92.159485 2.3418409e-038
-1.6159036 251.99089 91.168663 2.3509528e-038
-0.063415796 250.76294 90.724403 2.3509528e-038
4.639111 249.09518 90.121017 2.3509528e-038
8.22647 248.88919 90.046486 2.3509528e-038
-60.981529 251.7325 86.323296 3.5733111e-043
-56.737091 250.19283 85.795319 3.5733111e-043
-52.369827 251.90309 86.381798 3.5733111e-043
-51.723541 252.38496 86.547043 3.5733111e-043
-29.735567 257.98853 88.46859 2.3418409e-038
-29.269382 257.85007 88.42112 2.3418409e-038
-24.306293 256.83862 88.074272 2.3418409e-038
-19.401064 256.08685 87.816483 2.3418409e-038
-16.703304 256.16254 87.84243 2.3418409e-038
-1.7694666 254.37514 87.229507 2.3509528e-038
-0.063868053 252.55128 86.604073 2.3509528e-038
4.6563487 250.02077 85.73632 2.3509528e-038
8.5285101 249.88788 85.69075 2.3509528e-038
-61.359165 252.56282 81.840477 3.5733111e-043
-57.054092 251.5907 81.525475 3.5733111e-043
-52.644939 253.22639 82.055504 3.5733111e-043
-50.329494 254.52773 82.47718 3.5733111e-043
-29.20273 259.54178 84.101936 2.3418409e-038
-24.400667 257.83585 83.549149 2.3418409e-038
-19.472 257.02319 83.285812 2.3418409e-038
-15.78083 257.59683 83.471695 2.3418409e-038
-1.857739 256.26068 83.038742 2.3509528e-038
-0.064273722 254.1554 82.356537 2.3509528e-038
4.6800132 251.29143 81.428497 2.3509528e-038
8.7309771 251.34024 81.444313 2.3509528e-038
-61.074223 253.24306 77.280495 3.5733111e-043
-57.304398 252.69446 77.113075 3.5733111e-043
-52.766403 253.81064 77.453705 3.5733111e-043
-48.825123 255.34761 77.922722 3.5733111e-043
-28.961176 261.02286 79.654602 2.3418409e-038
-24.529211 259.19412 79.096542 2.3418409e-038
-19.574501 258.37616 78.846924 2.3418409e-038
-14.764675 259.56201 79.208809 2.3418409e-038
-14.75904 259.56625 79.210106 2.3418409e-038
-2.0722966 257.33224 78.528358 2.3509528e-038
-0.064466745 254.91867 77.791824 2.3509528e-038
4.6908622 251.87396 76.862701 2.3509528e-038
9.1055164 251.91182 76.874252 2.3509528e-038
-60.570705 254.43858 72.842361 3.5733111e-043
-57.594296 253.97282 72.709023 3.5733111e-043
-52.907978 254.49162 72.857552 3.5733111e-043
-48.288513 255.46771 73.136986 3.5733111e-043
-47.132908 256.08685 73.31424 3.5733111e-043
-29.0543 263.50729 75.438622 2.3418409e-038
-24.715984 261.16772 74.768829 2.3418409e-038
-19.712267 260.19464 74.490242 2.3418409e-038
-14.863576 261.30069 74.806892 2.3418409e-038
-13.832026 262.00311 75.007988 2.3418409e-038
-2.5554976 257.76645 73.79509 2.3509528e-038
-0.06443011 254.77382 72.938339 2.3509528e-038
4.6859655 251.61102 72.032867 2.3509528e-038
9.4356432 251.61324 72.033501 2.3509886e-038
9.7663116 251.70973 72.061127 2.3509886e-038
-59.876858 255.56055 68.339417 3.5733111e-043
-57.845303 255.07968 68.210831 3.5733111e-043
-53.024998 255.0545 68.204094 3.5733111e-043
-48.284412 255.44601 68.308792 3.5733111e-043
-45.301723 256.96713 68.715553 3.5733111e-043
-29.024494 265.0177 70.868347 2.3418409e-038
-24.830614 262.379 70.162735 2.3418409e-038
-19.774096 261.01074 69.796852 2.3418409e-038
-14.880513 261.59845 69.95401 2.3418409e-038
-13.111395 262.37769 70.162384 2.3509528e-038
-3.3327146 258.16345 69.035461 2.3509528e-038
-0.06440527 254.6756 68.102776 2.3509528e-038
4.688601 251.75255 67.321121 2.3509886e-038
9.4197025 251.18816 67.170197 2.3509886e-038
10.459552 251.38837 67.223732 2.3509886e-038
-59.059109 256.42578 63.730316 3.5733111e-043
-58.102383 256.21335 63.677521 3.5733111e-043
-53.194302 255.86888 63.591911 3.5733111e-043
-48.373817 255.91901 63.60437 3.5733111e-043
-43.806633 257.46899 63.989594 3.5733111e-043
-43.334995 257.77246 64.06501 3.5733111e-043
-28.602345 265.52289 65.991249 2.3418409e-038
-24.910027 263.21814 65.418442 2.3418409e-038
-19.828306 261.72629 65.047668 2.3418409e-038
-14.918079 262.25885 65.180031 2.3418409e-038
-12.659724 263.01419 65.36776 2.3509528e-038
-3.997062 258.2887 64.193306 2.3509528e-038
-0.064423896 254.74924 63.313641 2.3509886e-038
4.7064462 252.71072 62.807003 2.3509886e-038
9.4417286 251.7755 62.574566 2.3509886e-038
10.970545 251.83833 62.590183 2.3509886e-038
47.748516 248.04819 61.648209 2.3418052e-038
51.098652 246.38797 61.235588 2.3418052e-038
55.643772 245.92001 61.119286 2.3418052e-038
55.783024 245.929 61.121521 2.3418052e-038
-58.222496 257.60535 59.160732 3.5733111e-043
-53.402054 256.86819 58.991436 3.5733111e-043
-48.499287 256.58279 58.925896 3.5733111e-043
-43.808182 257.47812 59.131516 3.5733111e-043
-41.492706 258.79962 59.435001 2.3418409e-038
-27.984856 266.58328 61.222576 2.3418409e-038
-25.020212 264.38242 60.717133 2.3418409e-038
-19.889444 262.53329 60.292473 2.3418409e-038
-14.978617 263.32309 60.47385 2.3418409e-038
-12.166919 264.23318 60.682854 2.3509528e-038
-4.347105 258.61362 59.392288 2.3509886e-038
-0.064440198 254.81371 58.519611 2.3509886e-038
4.7204022 253.46011 58.208752 2.3509886e-038
9.4807987 252.81734 58.061134 2.3509886e-038
11.228128 252.92746 58.086422 2.3509886e-038
44.737122 249.70433 57.346214 2.3418052e-038
46.757744 248.0329 56.962357 2.3418052e-038
51.152702 246.64859 56.644444 2.3418052e-038
55.586216 247.52983 56.846825 2.3418052e-038
-57.346207 259.26468 54.647747 3.5733111e-043
-53.60836 257.86053 54.35178 3.5733111e-043
-48.617764 257.20959 54.214577 3.5733111e-043
-43.928715 258.18655 54.420498 3.5733111e-043
-40.160057 260.63141 54.935825 2.3418409e-038
-27.254679 267.75424 56.437172 2.3418409e-038
-25.152714 265.78253 56.02158 2.3418409e-038
-19.926088 263.01697 55.438652 2.3418409e-038
-15.00777 263.8356 55.611206 2.3418409e-038
-11.48021 265.05722 55.868694 2.3509528e-038
-4.4947925 258.91177 54.573364 2.3509886e-038
-0.064521842 255.13652 53.777615 2.3509886e-038
4.7347312 254.22949 53.58643 2.3509886e-038
9.5348091 254.25758 53.592354 2.3509886e-038
11.35115 254.74521 53.695133 2.3509886e-038
41.510517 250.01189 52.697445 2.3418052e-038
42.302864 249.37199 52.562569 2.3418052e-038
46.564758 247.00919 52.064537 2.3418052e-038
51.280479 247.26471 52.118393 2.3418052e-038
54.251617 249.15678 52.517204 2.3418052e-038
-56.207043 260.53745 49.997932 3.5733111e-043
-53.875656 259.14624 49.730957 3.5733111e-043
-48.777668 258.05557 49.521652 3.5733111e-043
-44.144318 259.4537 49.789963 3.5733111e-043
-39.680183 262.31958 50.339928 3.5733111e-043
-39.111034 262.92087 50.455318 2.3418409e-038
-26.520508 268.24283 51.47662 2.3418409e-038
-25.253433 266.84683 51.208725 2.3418409e-038
-19.953341 263.37671 50.542793 2.3418409e-038
-15.019689 264.04514 50.67107 2.3509528e-038
-10.571413 265.1889 50.89056 2.3509528e-038
-4.6809807 259.76736 49.850147 2.3509886e-038
-0.06483797 256.3866 49.201374 2.3509886e-038
4.7638936 255.79536 49.087914 2.3509886e-038
9.6251364 256.66626 49.255043 2.3509886e-038
11.519847 257.98734 49.508556 2.3509886e-038
38.214138 250.81097 48.131393 2.3418052e-038
42.077698 248.04463 47.600521 2.3418052e-038
46.471737 246.51575 47.307125 2.3418052e-038
51.41671 247.9216 47.576912 2.3418052e-038
51.606785 248.06508 47.60445 2.3418052e-038
-54.709095 260.75931 45.118217 3.5733111e-043
-54.128685 260.36334 45.049709 3.5733111e-043
-48.920723 258.81241 44.781353 3.5733111e-043
-44.275673 260.22574 45.025902 3.5733111e-043
-39.748974 262.77435 45.466873 3.5733111e-043
-37.704029 264.69919 45.799923 3.5733111e-043
-26.010683 267.94434 46.36142 2.3418409e-038
-25.282701 267.1561 46.225033 2.3418409e-038
-19.988405 263.83954 45.651184 2.3509528e-038
-15.020189 264.05396 45.688278 2.3509528e-038
-10.060991 264.71906 45.803364 2.3509886e-038
-9.3263111 264.54868 45.773884 2.3509886e-038
-5.3910227 262.37042 45.396984 2.3509886e-038
-5.0137768 262.09579 45.349472 2.3509886e-038
-0.065437339 258.75665 44.771706 2.3509886e-038
4.8006039 257.76648 44.600384 2.3509886e-038
9.7174025 259.12665 44.835732 2.3509886e-038
11.777102 261.30142 45.212025 2.3509886e-038
34.998035 253.48181 43.85902 2.3418052e-038
37.767548 250.51292 43.345329 2.3418052e-038
42.069008 247.99341 42.909386 2.3418052e-038
46.658947 247.50883 42.825542 2.3418052e-038
49.039349 248.35281 42.971569 2.3418052e-038
-53.108833 260.52045 40.159126 3.5733111e-043
-49.072903 259.61749 40.019932 3.5733111e-043
-44.371483 260.78885 40.2005 3.5733111e-043
-39.755898 262.8201 40.513615 3.5733111e-043
-35.287788 266.5444 41.087711 3.5733111e-043
-35.12944 266.71924 41.11467 3.5733111e-043
-26.406347 267.84491 41.288189 2.3509886e-038
-25.256783 266.8822 41.13979 2.3509886e-038
-20.015757 264.20059 40.726421 2.3509886e-038
-15.014079 263.94653 40.687256 2.3509886e-038
-10.046249 264.33118 40.746552 2.3509886e-038
-5.0434213 263.64548 40.640846 2.3509886e-038
-0.06600599 261.00525 40.233856 2.3509886e-038
4.8367043 259.7049 40.033409 2.3509886e-038
9.7714052 260.56671 40.166256 2.3509886e-038
12.451375 262.88254 40.523239 2.3509886e-038
31.522547 256.85754 39.59449 2.3418052e-038
33.540958 254.3214 39.203545 2.3418052e-038
37.767815 250.51471 38.616745 2.3418052e-038
42.273914 249.20131 38.414284 2.3418052e-038
46.806137 250.46623 38.609268 2.3418052e-038
-51.95454 261.38431 35.358215 3.5733111e-043
-49.325211 260.9523 35.299774 3.5733111e-043
-44.461567 261.31833 35.349289 3.5733111e-043
-39.697285 262.43265 35.500023 3.5733111e-043
-35.039127 264.66614 35.802158 3.5733111e-043
-30.338631 267.26968 36.154346 2.3509886e-038
-25.26228 266.94031 36.109791 2.3509886e-038
-20.107319 265.40918 35.902672 2.3509886e-038
-15.061974 264.78851 35.81871 2.3509886e-038
-10.043426 264.2569 35.746799 2.3509886e-038
-5.0401745 263.47574 35.641129 2.3509886e-038
-0.066225097 261.87167 35.424141 2.3509886e-038
4.8524823 260.55209 35.24564 2.3509886e-038
9.7596302 260.25275 35.205143 2.3509886e-038
14.540481 262.69543 35.535576 2.3509886e-038
26.776138 260.99472 35.305515 2.3418052e-038
29.212393 258.49969 34.968002 2.3418052e-038
33.569714 254.53943 34.432289 2.3418052e-038
37.9389 251.64951 34.041359 2.3418052e-038
42.659698 251.47548 34.017818 2.3418052e-038
44.420567 252.44 34.148296 2.3418052e-038
-51.473408 263.6748 30.690735 2.3509886e-038
-49.738609 263.13937 30.628412 3.5733111e-043
-44.622429 262.26376 30.526499 3.5733111e-043
-39.710155 262.51773 30.556057 3.5733111e-043
-34.943851 263.94647 30.722357 2.3509886e-038
-30.187958 265.94229 30.954664 2.3509886e-038
-25.301992 267.35995 31.119673 2.3509886e-038
-20.233391 267.07327 31.086306 2.3509886e-038
-15.127113 265.93365 30.953659 2.3509886e-038
-10.049404 264.41422 30.776802 2.3509886e-038
-5.0356164 263.23749 30.639833 2.3509886e-038
-0.066317447 262.23685 30.523361 2.3509886e-038
4.8551164 260.69351 30.343727 2.3509886e-038
9.7287302 259.42877 30.196514 2.3509886e-038
14.652073 259.89304 30.250553 2.3509886e-038
19.655191 261.18472 30.4009 2.3418052e-038
24.480066 260.06458 30.270519 2.3418052e-038
29.165085 258.08105 30.039644 2.3418052e-038
33.780941 256.14105 29.813839 2.3418052e-038
38.341572 254.32045 29.601925 2.3418052e-038
41.861412 254.3633 29.606913 2.3418052e-038
-51.709927 267.34952 26.071781 2.3509886e-038
-50.362392 266.43945 25.983034 2.3509886e-038
-44.887299 263.8205 25.727633 2.3509886e-038
-39.829784 263.30856 25.67771 2.3509886e-038
-34.982418 264.23776 25.768324 2.3509886e-038
-30.163002 265.72244 25.913113 2.3509886e-038
-25.296679 267.3038 26.067322 2.3509886e-038
-20.274033 267.60971 26.097157 2.3509886e-038
-15.142564 266.20529 25.960196 2.3509886e-038
-10.061892 264.74277 25.817574 2.3509886e-038
-5.0497484 263.97623 25.742819 2.3509886e-038
-0.066559605 263.1944 25.666576 2.3509886e-038
4.873385 261.67447 25.518354 2.3509886e-038
9.755662 260.14691 25.369387 2.3509886e-038
14.642535 259.72385 25.328129 2.3509886e-038
19.542891 259.69244 25.325068 2.3418052e-038
24.401125 259.22592 25.279573 2.3418052e-038
29.254087 258.86862 25.244732 2.3418052e-038
34.13916 258.85721 25.243618 2.3418052e-038
39.0993 259.3465 25.29133 2.3418052e-038
39.759632 259.49863 25.306168 2.3418052e-038
-51.96331 269.90588 21.226145 2.3509886e-038
-50.826767 268.89618 21.146738 2.3509886e-038
-45.151272 265.37198 20.869585 2.3509886e-038
-39.994553 264.39783 20.792976 2.3509886e-038
-35.028534 264.58609 20.807783 2.3509886e-038
-30.127848 265.41278 20.872793 2.3509886e-038
-25.259773 266.91379 20.990839 2.3509886e-038
-20.268297 267.53403 21.039614 2.3509886e-038
-15.144995 266.24802 20.93848 2.3509886e-038
-10.083714 265.31693 20.865255 2.3509886e-038
-5.0724444 265.16266 20.853123 2.3509886e-038
-0.066916615 264.60611 20.809357 2.3509886e-038
4.9020176 263.21188 20.699709 2.3509886e-038
9.8179121 261.80692 20.589218 2.3509886e-038
14.732702 261.32321 20.55118 2.3509886e-038
19.636116 260.93124 20.520355 2.3418052e-038
24.494802 260.22113 20.464508 2.3418052e-038
29.403107 260.18729 20.461847 2.3418052e-038
34.485874 261.48615 20.563993 2.3418052e-038
37.779758 263.71939 20.73962 2.3418052e-038
-51.89513 271.19388 16.208181 2.3509886e-038
-51.126419 270.48151 16.165604 2.3509886e-038
-45.363552 266.61966 15.934797 2.3509886e-038
-40.107883 265.14703 15.846784 2.3509886e-038
-35.086288 265.02237 15.839333 2.3509886e-038
-30.157469 265.67374 15.878262 2.3509886e-038
-25.244162 266.74884 15.942517 2.3509886e-038
-20.257694 267.39407 15.98108 2.3509886e-038
-15.17485 266.77286 15.943954 2.3509886e-038
-10.110526 266.0224 15.899101 2.3509886e-038
-5.0869031 265.91849 15.892891 2.3509886e-038
-0.067175724 265.63071 15.87569 2.3509886e-038
4.9261456 264.50742 15.808557 2.3509886e-038
9.8818483 263.51184 15.749054 2.3509886e-038
14.842286 263.26694 15.734419 2.3509886e-038
19.759901 262.57614 15.693131 2.3509886e-038
24.587803 261.20911 15.61143 2.3418052e-038
29.46545 260.73898 15.583332 2.3418052e-038
34.634251 262.61121 15.695228 2.3418052e-038
35.73045 263.46521 15.746267 2.3418052e-038
-51.552071 271.99792 11.121811 2.3509886e-038
-51.383259 271.8403 11.115366 2.3509886e-038
-45.53167 267.60773 10.942298 2.3509886e-038
-40.202538 265.7728 10.86727 2.3509886e-038
-35.189709 265.80356 10.868527 2.3509886e-038
-30.246315 266.45642 10.895223 2.3509886e-038
-25.240763 266.71292 10.905711 2.3509886e-038
-20.23941 267.15274 10.923694 2.3509886e-038
-15.209263 267.37787 10.932899 2.3509886e-038
-10.141263 266.83112 10.910544 2.3509886e-038
-5.09693 266.44266 10.89466 2.3509886e-038
-0.067335978 266.26437 10.88737 2.3509886e-038
4.9464979 265.60022 10.860212 2.3509886e-038
9.9459953 265.22241 10.844765 2.3509886e-038
14.940728 265.01309 10.836206 2.3509886e-038
19.859982 263.90604 10.790938 2.3509886e-038
24.660303 261.97931 10.712157 2.3509886e-038
29.503563 261.07623 10.675231 2.3418052e-038
34.308186 262.39938 10.729333 2.3418052e-038
-51.370583 272.85312 6.0062118 2.3509886e-038
-45.661747 268.37225 5.907577 2.3509886e-038
-40.29427 266.37921 5.8637047 2.3509886e-038
-35.28846 266.54947 5.8674521 2.3509886e-038
-30.321215 267.11624 5.8799286 2.3509886e-038
-25.266916 266.98929 5.8771338 2.3509886e-038
-20.262833 267.46185 5.887537 2.3509886e-038
-15.253813 268.16104 5.9029269 2.3509886e-038
-10.172723 267.65887 5.8918734 2.3509886e-038
-5.1033945 266.78058 5.87254 2.3509886e-038
-0.06742093 266.60031 5.8685718 2.3509886e-038
4.9643154 266.55692 5.8676162 2.3509886e-038
9.9969368 266.58081 5.8681426 2.3509886e-038
15.007635 266.19986 5.8597565 2.3509886e-038
19.946817 265.05994 5.8346643 2.3509886e-038
24.780827 263.2597 5.7950363 2.3509886e-038
29.623072 262.13376 5.7702508 2.3509886e-038
33.721977 262.93375 5.7878609 2.3509886e-038
-99.153847 252.70415 0.79245043 9.1476764e-041
-95.219032 252.04411 0.79038072 9.1476764e-041
-91.084488 253.78055 0.7958259 9.1476764e-041
-87.305038 256.75403 0.80515051 9.1476764e-041
-83.451782 259.84732 0.81485063 9.1476764e-041
-80.728828 261.66055 0.82053667 9.1476764e-041
-52.35928 275.89404 0.86517125 2.3509886e-038
-52.083401 275.54434 0.86407465 2.3509886e-038
-45.81461 269.27069 0.84440118 2.3509886e-038
-40.349632 266.74521 0.83648157 2.3509886e-038
-35.318722 266.77802 0.83658451 2.3509886e-038
-30.348606 267.35754 0.83840185 2.3509886e-038
-25.305397 267.3959 0.83852208 2.3509886e-038
-20.298985 267.93906 0.8402254 2.3509886e-038
-15.284842 268.70654 0.84263211 2.3509886e-038
-10.203257 268.46228 0.84186608 2.3509886e-038
-5.1209464 267.69812 0.83946979 2.3509886e-038
-0.067700274 267.7049 0.83949107 2.3509886e-038
4.9874611 267.79971 0.83978838 2.3509886e-038
10.03936 267.7121 0.8395136 2.3509886e-038
15.080536 267.49295 0.83882642 2.3509886e-038
20.065193 266.63297 0.83612967 2.3509886e-038
24.944565 264.99918 0.83100629 2.3509886e-038
29.777376 263.49921 0.82630253 2.3509886e-038
33.606079 263.80511 0.82726181 2.3509886e-038
-96.777039 250.48209 -3.9427931 9.1476764e-041
-94.605324 250.41965 -3.9418101 9.1476764e-041
-90.478645 252.09254 -3.968143 9.1476764e-041
-86.760529 255.15271 -4.0163126 9.1476764e-041
-83.025459 258.51987 -4.0693145 9.1476764e-041
-79.061035 261.54877 -4.1169915 9.1476764e-041
-75.062653 264.86133 -4.1691341 9.1476764e-041
-74.032852 265.66321 -4.1817565 9.1476764e-041
-54.573627 279.60266 -4.401175 2.3509886e-038
-52.2672 276.51672 -4.3525996 2.3509886e-038
-45.996162 270.33777 -4.2553377 2.3509886e-038
-40.51215 267.81955 -4.2156992 2.3509886e-038
-35.386597 267.29071 -4.207375 2.3509886e-038
-30.342318 267.30215 -4.2075548 2.3509886e-038
-25.310745 267.45242 -4.2099204 2.3509886e-038
-20.308641 268.06656 -4.2195873 2.3509886e-038
-15.293838 268.86465 -4.2321501 2.3509886e-038
-10.235026 269.29819 -4.2389741 2.3509886e-038
-5.1516037 269.30072 -4.2390137 2.3509886e-038
-0.068115965 269.34866 -4.239768 2.3509886e-038
5.0170541 269.3887 -4.2403989 2.3509886e-038
10.102413 269.39346 -4.2404742 2.3509886e-038
15.171033 269.09818 -4.2358255 2.3509886e-038
20.163572 267.94025 -4.2175989 2.3509886e-038
25.048351 266.10175 -4.1886597 2.3509886e-038
29.88677 264.46722 -4.162931 2.3509886e-038
33.64262 264.50394 -4.1635084 2.3509886e-038
-93.060722 251.7294 -8.7142572 9.1476764e-041
-90.55468 252.30438 -8.7341614 9.1476764e-041
-86.584549 254.63516 -8.814847 9.1476764e-041
-82.778931 257.7522 -8.9227524 9.1476764e-041
-78.865211 260.90094 -9.0317535 9.1476764e-041
-74.831627 264.04614 -9.1406317 9.1476764e-041
-70.551926 266.70987 -9.2328444 9.1476764e-041
-66.361473 269.98825 -9.3463335 2.3509886e-038
-58.325233 278.97412 -9.657403 2.3509886e-038
-57.999767 278.98355 -9.6577291 2.3509886e-038
-52.029198 275.2576 -9.5287457 2.3509886e-038
-46.149788 271.24066 -9.3896894 2.3509886e-038
-40.726646 269.23758 -9.3203478 2.3509886e-038
-35.50536 268.18781 -9.2840061 2.3509886e-038
-30.377756 267.61438 -9.2641563 2.3509886e-038
-25.334702 267.70557 -9.267312 2.3509886e-038
-20.331512 268.36844 -9.2902603 2.3509886e-038
-15.317288 269.27692 -9.3217096 2.3509886e-038
-10.270609 270.23441 -9.3548546 2.3509886e-038
-5.1790977 270.73798 -9.3722878 2.3509886e-038
-0.068494335 270.84485 -9.375988 2.3509886e-038
5.0511994 271.22211 -9.3890476 2.3509886e-038
10.179396 271.44632 -9.3968086 2.3509886e-038
15.252869 270.54971 -9.3657703 2.3509886e-038
20.220236 268.69321 -9.3015032 2.3509886e-038
25.103611 266.68881 -9.2321157 2.3509886e-038
29.987377 265.35748 -9.1860285 2.3509886e-038
33.772991 265.58447 -9.1938858 2.3509886e-038
-88.861038 256.00842 -13.694982 9.1476764e-041
-87.201241 256.44876 -13.718537 9.1476764e-041
-82.959641 258.31488 -13.818363 9.1476764e-041
-78.765694 260.57169 -13.939089 9.1476764e-041
-74.595505 263.21298 -14.080384 9.1476764e-041
-70.351067 265.95053 -14.226827 9.1476764e-041
-66.051918 268.88611 -14.383863 9.1476764e-041
-61.631435 271.77533 -14.538421 2.3509886e-038
-56.983883 274.09708 -14.662621 2.3509886e-038
-51.641857 273.20837 -14.61508 2.3509886e-038
-46.166748 271.34033 -14.51515 2.3509886e-038
-40.811157 269.7963 -14.432552 2.3509886e-038
-35.587242 268.8063 -14.379595 2.3509886e-038
-30.470877 268.43469 -14.359715 2.3509886e-038
-25.402124 268.418 -14.358823 2.3509886e-038
-20.359417 268.73679 -14.375875 2.3509886e-038
-15.340972 269.6933 -14.427043 2.3509886e-038
-10.297345 270.9379 -14.493622 2.3509886e-038
-5.1949215 271.56516 -14.527178 2.3509886e-038
-0.06874077 271.81934 -14.540773 2.3509886e-038
5.0754437 272.5239 -14.578465 2.3509886e-038
10.227443 272.72754 -14.589358 2.3509886e-038
15.297882 271.34814 -14.515569 2.3509886e-038
20.25198 269.11505 -14.396111 2.3509886e-038
25.149292 267.1741 -14.29228 2.3509886e-038
30.085255 266.2236 -14.241435 2.3509886e-038
33.913681 266.69275 -14.266532 2.3509886e-038
-84.004799 261.20859 -18.903927 9.1476764e-041
-83.888039 261.20569 -18.903717 9.1476764e-041
-79.155342 261.86072 -18.951122 9.1476764e-041
-74.627319 263.32523 -19.057108 9.1476764e-041
-70.270126 265.64459 -19.224964 9.1476764e-041
-65.983368 268.60709 -19.439362 9.1476764e-041
-61.384041 270.68442 -19.589703 9.1476764e-041
-56.492508 271.73352 -19.665627 2.3509886e-038
-51.334854 271.5842 -19.654819 2.3509886e-038
-46.06221 270.72592 -19.592707 2.3509886e-038
-40.775795 269.56247 -19.508505 2.3509886e-038
-35.611183 268.98712 -19.466866 2.3509886e-038
-30.535965 269.00809 -19.468386 2.3509886e-038
-25.435408 268.76968 -19.45113 2.3509886e-038
-20.352482 268.64523 -19.442122 2.3509886e-038
-15.337952 269.64017 -19.514128 2.3509886e-038
-10.308861 271.24088 -19.629974 2.3509886e-038
-5.205955 272.14194 -19.695183 2.3509886e-038
-0.068941914 272.61465 -19.729395 2.3509886e-038
5.0894909 273.27814 -19.777412 2.3509886e-038
10.2487 273.2944 -19.778587 2.3509886e-038
15.322933 271.79251 -19.669893 2.3509886e-038
20.287706 269.58978 -19.510481 2.3509886e-038
25.231422 268.04663 -19.398802 2.3509886e-038
30.228188 267.48843 -19.358404 2.3509886e-038
34.100388 268.19571 -19.409592 2.3509886e-038
-78.745483 266.64981 -24.331173 9.1476764e-041
-75.382042 265.98828 -24.270811 9.1476764e-041
-70.547874 266.69455 -24.335255 9.1476764e-041
-66.036102 268.82175 -24.529356 9.1476764e-041
-61.27763 270.21518 -24.656504 9.1476764e-041
-56.257782 270.60446 -24.692024 9.1476764e-041
-51.122269 270.45953 -24.678801 2.3509886e-038
-45.934872 269.97751 -24.634817 2.3509886e-038
-40.708485 269.11752 -24.556347 2.3509886e-038
-35.57391 268.70557 -24.518757 2.3509886e-038
-30.506638 268.74976 -24.522785 2.3509886e-038
-25.41349 268.53812 -24.503475 2.3509886e-038
-20.335649 268.42307 -24.492975 2.3509886e-038
-15.330895 269.51614 -24.592718 2.3509886e-038
-10.314966 271.40152 -24.764755 2.3509886e-038
-5.2178917 272.76593 -24.889256 2.3509886e-038
-0.069206677 273.66162 -24.970982 2.3509886e-038
5.1037579 274.04425 -25.005898 2.3509886e-038
10.262711 273.66803 -24.971567 2.3509886e-038
15.350945 272.28937 -24.845768 2.3509886e-038
20.371443 270.70251 -24.700972 2.3509886e-038
25.416107 270.00864 -24.637657 2.3509886e-038
30.503098 269.92108 -24.629669 2.3509886e-038
34.33638 270.59198 -24.690886 2.3509886e-038
-73.827942 269.86789 -29.71904 9.1476764e-041
-71.269203 269.42142 -29.669874 9.1476764e-041
-66.280167 269.81528 -29.713245 9.1476764e-041
-61.247902 270.08408 -29.742847 9.1476764e-041
-56.136002 270.01871 -29.735647 9.1476764e-041
-50.981583 269.71524 -29.70223 2.3509886e-038
-45.78252 269.08209 -29.632505 2.3509886e-038
-40.551109 268.07715 -29.521833 2.3509886e-038
-35.399841 267.39078 -29.446249 2.3509886e-038
-30.359034 267.4494 -29.452705 2.3509886e-038
-25.326754 267.62158 -29.471666 2.3509886e-038
-20.303095 267.99332 -29.512604 2.3509886e-038
-15.324276 269.39975 -29.667488 2.3509886e-038
-10.318897 271.50497 -29.899321 2.3509886e-038
-5.2271667 273.25079 -30.091579 2.3509886e-038
-0.069452196 274.63248 -30.243738 2.3509886e-038
5.1212702 274.98453 -30.282509 2.3509886e-038
10.291111 274.42532 -30.220926 2.3509886e-038
15.404439 273.23822 -30.090195 2.3509886e-038
20.490864 272.28943 -29.985708 2.3509886e-038
25.64879 272.48053 -30.006754 2.3509886e-038
30.849363 272.9852 -30.06233 2.3509886e-038
34.470139 273.64401 -30.13488 2.3509886e-038
-69.308701 272.10727 -35.102146 9.1476764e-041
-66.652878 271.33252 -35.002205 9.1476764e-041
-61.297123 270.30115 -34.869152 9.1476764e-041
-56.074001 269.72046 -34.79425 9.1476764e-041
-50.861031 269.07748 -34.7113 9.1476764e-041
-45.589436 267.94727 -34.565502 2.3509886e-038
-40.30563 266.45432 -34.37291 2.3509886e-038
-35.152699 265.52399 -34.252899 2.3509886e-038
-30.1593 265.68985 -34.274296 2.3509886e-038
-25.205019 266.33524 -34.357552 2.3509886e-038
-20.245955 267.23911 -34.474148 2.3509886e-038
-15.298547 268.94745 -34.694527 2.3509886e-038
-10.311622 271.31351 -34.999756 2.3509886e-038
-5.2340918 273.61279 -35.29636 2.3509886e-038
-0.069668978 275.48969 -35.538483 2.3509886e-038
5.1381822 275.89261 -35.590462 2.3509886e-038
10.328434 275.42059 -35.529572 2.3509886e-038
15.479987 274.57828 -35.42091 2.3509886e-038
20.625233 274.07495 -35.35598 2.3509886e-038
25.877609 274.91141 -35.463886 2.3509886e-038
31.242794 276.46664 -35.664509 2.3509886e-038
34.399269 277.71042 -35.824959 2.3509886e-038
-64.276886 273.02332 -40.374104 9.1476764e-041
-61.706768 272.10754 -40.238686 9.1476764e-041
-56.219501 270.42035 -39.989185 9.1476764e-041
-50.841274 268.97296 -39.775146 2.3509886e-038
-45.478226 267.29364 -39.526814 2.3509886e-038
-40.128868 265.28577 -39.229893 2.3509886e-038
-34.972065 264.15955 -39.063354 2.3509886e-038
-29.992689 264.22208 -39.072598 2.3509886e-038
-25.094481 265.16721 -39.21236 2.3509886e-038
-20.187704 266.47021 -39.405048 2.3509886e-038
-15.258657 268.24622 -39.667679 2.3509886e-038
-10.298945 270.97998 -40.071941 2.3509886e-038
-5.2409773 273.97275 -40.514507 2.3509886e-038
-0.069885761 276.34692 -40.865597 2.3509886e-038
5.1601243 277.07083 -40.972641 2.3509886e-038
10.377233 276.72189 -40.921043 2.3509886e-038
15.560205 276.00113 -40.814461 2.3509886e-038
20.75725 275.82925 -40.789043 2.3509886e-038
26.132807 277.6225 -41.054222 2.3509886e-038
31.833406 281.69296 -41.656155 2.3509886e-038
34.158798 283.92291 -41.985912 2.3509886e-038
-58.801758 274.22723 -45.728638 9.1476764e-041
-56.726433 272.8587 -45.500431 9.1476764e-041
-51.058365 270.12146 -45.04398 2.3509886e-038
-45.600975 268.01508 -44.692734 2.3509886e-038
-40.219128 265.88248 -44.337109 2.3509886e-038
-35.025387 264.56235 -44.116974 2.3509886e-038
-29.993256 264.22705 -44.061066 2.3509886e-038
-25.082228 265.03772 -44.196243 2.3509886e-038
-20.182123 266.39655 -44.422836 2.3509886e-038
-15.241029 267.93628 -44.679592 2.3509886e-038
-10.297285 270.93631 -45.179863 2.3509886e-038
-5.2516789 274.53217 -45.779484 2.3509886e-038
-0.07013534 277.33383 -46.246674 2.3509886e-038
5.1883464 278.58618 -46.455509 2.3509886e-038
10.447241 278.58871 -46.455936 2.3509886e-038
15.671431 277.974 -46.353428 2.3509886e-038
20.927698 278.09421 -46.37347 2.3509886e-038
26.436325 280.84692 -46.8325 2.3509886e-038
32.448017 287.13162 -47.880501 2.3509886e-038
33.264736 288.20898 -48.060162 2.3509886e-038
-52.41021 274.32001 -50.922375 2.3509886e-038
-51.78233 273.95157 -50.853981 2.3509886e-038
-46.072964 270.78915 -50.266941 2.3509886e-038
-40.568813 268.19418 -49.785229 2.3509886e-038
-35.330799 266.86923 -49.539284 2.3509886e-038
-30.214306 266.17444 -49.410301 2.3509886e-038
-25.212999 266.41956 -49.455807 2.3509886e-038
-20.259789 267.42169 -49.641834 2.3509886e-038
-15.283039 268.67484 -49.874454 2.3509886e-038
-10.318594 271.49698 -50.398335 2.3509886e-038
-5.2704916 275.51563 -51.144321 2.3509886e-038
-0.070533186 278.90701 -51.773865 2.3509886e-038
5.229353 280.78799 -52.123039 2.3509886e-038
10.556087 281.49127 -52.25359 2.3509886e-038
15.888005 281.81555 -52.313786 2.3509886e-038
21.281441 282.79486 -52.495575 2.3509886e-038
26.965157 286.465 -53.176865 2.3509886e-038
31.313087 291.47107 -54.106152 2.3509886e-038
-44.926483 274.28912 -56.094326 2.3509886e-038
-41.17664 272.2124 -55.669624 2.3509886e-038
-35.829308 270.63474 -55.346977 2.3509886e-038
-30.589046 269.47574 -55.109947 2.3509886e-038
-25.464298 269.07498 -55.027992 2.3509886e-038
-20.442017 269.82703 -55.181793 2.3509886e-038
-15.426394 271.19501 -55.461552 2.3509886e-038
-10.407817 273.84454 -56.003407 2.3509886e-038
-5.3166595 277.92905 -56.838718 2.3509886e-038
-0.071312092 281.98697 -57.668602 2.3509886e-038
5.3110957 285.17715 -58.321014 2.3509886e-038
10.775489 287.34186 -58.763718 2.3509886e-038
16.331293 289.67841 -59.241554 2.3509886e-038
22.029533 292.73578 -59.866817 2.3509886e-038
27.556511 297.04886 -60.748875 2.3509886e-038
-35.61657 276.37195 -61.737267 2.3509886e-038
-31.237772 275.1907 -61.473392 2.3509886e-038
-26.019789 274.94473 -61.418446 2.3509886e-038
-20.886852 275.6987 -61.586868 2.3509886e-038
-15.751358 276.90784 -61.856972 2.3509886e-038
-10.599393 278.88519 -62.298683 2.3509886e-038
-5.4013195 282.35464 -63.073711 2.3509886e-038
-0.072701573 287.48135 -64.218941 2.3509886e-038
5.4779334 294.13541 -65.705353 2.3509886e-038
11.231959 299.51422 -66.906891 2.3509886e-038
17.154444 304.27914 -67.971306 2.3509886e-038
22.312071 309.24307 -69.080177 2.3509886e-038
-18.437248 287.90094 -69.747299 2.3509886e-038
-16.380028 287.95981 -69.761551 2.3509886e-038
-10.926202 287.48401 -69.646294 2.3509886e-038
-5.5346336 289.32367 -70.091965 2.3509886e-038
-0.074797742 295.77017 -71.653702 2.3509886e-038
3.3097804 302.09241 -73.185341 2.3509886e-038
-96.044655 254.22952 4.3223391 9.1476764e-041
-94.729866 250.74928 -6.6523585 9.1476764e-041
-91.832893 255.86575 4.6285381 9.1476764e-041
-90.96106 253.43666 -11.169594 9.1476764e-041
-87.786278 258.16931 3.9921165 9.1476764e-041
-87.593819 257.60333 -15.163816 9.1476764e-041
-83.667992 260.52051 2.4277165 9.1476764e-041
-83.912544 261.28198 -18.992027 9.1476764e-041
-79.308517 262.36746 -0.12366945 9.1476764e-041
-80.144524 265.13315 -22.83107 9.1476764e-041
-75.136917 265.12335 -3.3328893 9.1476764e-041
-76.106575 268.54486 -27.130838 9.1476764e-041
-70.707291 267.29721 -6.6482458 2.3509886e-038
-71.711189 271.09225 -32.281361 9.1476764e-041
-66.329048 270.01425 -9.3651934 2.3509886e-038
-66.916557 272.40591 -37.598736 9.1476764e-041
-56.762409 250.30446 91.223434 3.5733111e-043
-58.363235 257.36362 59.9226 3.5733111e-043
-62.160931 274.11026 -10.701875 2.3509886e-038
-62.08606 273.78012 -42.672886 9.1476764e-041
-52.269814 251.42201 87.69239 3.5733111e-043
-54.191978 260.66779 43.54895 3.5733111e-043
-58.057266 279.26013 -9.4395409 2.3509886e-038
-56.968346 274.02234 -47.193855 9.1476764e-041
-48.318451 255.62608 76.483345 3.5733111e-043
-51.446812 272.17651 9.6245403 2.3509886e-038
-51.97086 274.94894 2.0873499 2.3509886e-038
-51.870087 274.41583 -51.355225 2.3509886e-038
-43.828426 257.59711 65.215523 3.5733111e-043
-46.707073 274.51608 -55.02528 2.3509886e-038
-39.60281 261.80807 52.576202 2.3418409e-038
-41.520859 274.48801 -58.181252 2.3509886e-038
-35.295681 266.60397 41.301407 3.5733111e-043
-36.552887 276.10025 -61.226875 2.3509886e-038
-28.602003 251.97076 106.79887 2.3418409e-038
-29.396307 258.96823 85.919968 2.3418409e-038
-30.464283 268.37662 38.202076 2.3509886e-038
-31.537075 277.82742 -63.818039 2.3509886e-038
-23.799126 251.47951 108.27718 2.3418409e-038
-26.655045 281.65732 -66.331467 2.3509886e-038
-19.162859 252.94266 100.14327 2.3418409e-038
-21.645012 285.70615 -68.540169 2.3509886e-038
-14.76417 259.55313 79.231636 2.3418409e-038
-16.434671 288.92047 -70.365524 2.3509886e-038
-10.069427 264.94101 48.55685 2.3509528e-038
-11.001945 289.47693 -71.191429 2.3509886e-038
-4.9970875 261.22339 47.076691 2.3509886e-038
-5.5667744 291.00381 -71.629128 2.3509886e-038
-0.062910981 248.76675 96.906212 2.3509528e-038
-0.075022832 296.66025 -72.384605 2.3509886e-038
4.6073775 247.39128 98.347832 2.3509528e-038
5.6982541 305.96548 -73.784927 2.3509886e-038
9.443984 251.83565 74.245621 2.3509528e-038
11.715382 312.40527 -74.421539 2.3509886e-038
14.812115 262.73178 35.249462 2.3509886e-038
17.619484 312.52783 -72.6744 2.3509886e-038
19.823078 263.41565 32.885921 2.3509886e-038
23.176458 307.97647 -68.098152 2.3509886e-038
24.68252 262.21533 34.037159 2.3418052e-038
27.896709 296.36136 -60.177036 2.3509886e-038
29.280428 259.10172 37.318768 2.3418052e-038
32.696114 289.32703 -50.256054 2.3509886e-038
33.604309 254.80177 42.079712 2.3418052e-038
34.631054 262.58698 12.106309 2.3418052e-038
37.845028 251.02684 47.634487 2.3418052e-038
39.331219 260.8848 24.321627 2.3418052e-038
42.415665 250.03693 53.978481 2.3418052e-038
42.949593 253.18437 31.569321 2.3418052e-038
46.855572 248.55185 60.453896 2.3418052e-038
47.13694 250.0444 39.271759 2.3418052e-038
51.198021 246.86713 64.860741 2.3418052e-038
51.438152 248.02498 47.31105 2.3418052e-038
55.634155 245.87752 62.439285 2.3418052e-038
55.80056 246.61296 58.667782 2.3418052e-038
