# .PCD v0.7 - Point Cloud Data file format
VERSION 0.7
FIELDS x y z rgb
SIZE 4 4 4 4
TYPE F F F F
COUNT 1 1 1 1
WIDTH 730
HEIGHT 1
VIEWPOINT 0 0 0 1 0 0 0
POINTS 730
DATA ascii
51.860291 244.69647 59.927448 2.3418052e-038
-90.966888 254.14116 -0 9.1476764e-041
-56.762131 251.08612 85.143204 3.5733111e-043
3.4952235 247.3768 93.205963 2.3509528e-038
-24.902218 251.78159 103.16633 2.3418409e-038
-29.599567 252.81963 105.67499 2.3418409e-038
-28.875759 252.52139 105.55033 2.3418409e-038
-23.994101 251.50046 105.1236 2.3418409e-038
-21.392784 251.41632 105.08842 2.3418409e-038
-30.648392 253.58478 101.19041 2.3418409e-038
-28.911379 252.83289 100.89039 2.3418409e-038
-24.044449 252.0282 100.56928 2.3418409e-038
-19.501129 252.03633 100.57253 2.3418409e-038
-30.796329 254.34375 96.674515 2.3418409e-038
-29.009832 253.69388 96.427498 2.3418409e-038
-24.145668 253.08916 96.197655 2.3418409e-038
-19.345642 253.02336 96.172646 2.3418409e-038
-18.284885 253.12567 96.211533 2.3418409e-038
-0.98476678 249.54184 94.849342 2.3509528e-038
-0.16780689 248.85895 94.589775 2.3509528e-038
4.5151591 247.11394 93.926514 2.3509528e-038
7.5187979 246.93945 93.860184 2.3509528e-038
-59.022766 250.92926 90.622612 3.5733111e-043
-57.108139 250.44662 90.448303 3.5733111e-043
-54.826946 250.36115 90.417435 3.5733111e-043
-30.749857 256.09045 92.486565 2.3418409e-038
-29.214626 255.48482 92.267838 2.3418409e-038
-24.297523 254.68088 91.977493 2.3418409e-038
-19.435688 254.20108 91.804222 2.3418409e-038
-17.292135 254.25076 91.822159 2.3418409e-038
-1.7228273 251.62691 90.874557 2.3418409e-038
-0.16864622 250.10368 90.324455 2.3509528e-038
4.5350637 248.20332 89.638145 2.3509528e-038
8.2614212 248.14619 89.617508 2.3509528e-038
-61.105759 251.32016 86.002289 3.5733111e-043
-56.948601 249.74696 85.463943 3.5733111e-043
-52.500885 251.10519 85.928734 3.5733111e-043
-51.207737 251.99533 86.23333 3.5733111e-043
-30.321419 257.69778 88.184731 2.3418409e-038
-29.42355 257.31189 88.052673 2.3418409e-038
-24.434809 256.11984 87.644753 2.3418409e-038
-19.535076 255.50098 87.432976 2.3418409e-038
-16.351334 256.05341 87.622025 2.3418409e-038
-1.8755448 253.37932 86.706947 2.3418409e-038
-0.1695983 251.51559 86.069176 2.3509528e-038
4.5508056 249.06488 85.23053 2.3509528e-038
8.5081186 249.1472 85.258705 2.3509528e-038
-61.489979 252.65131 81.671097 3.5733111e-043
-57.238434 251.01802 81.143127 3.5733111e-043
-52.747677 252.28557 81.552872 3.5733111e-043
-49.755409 253.86557 82.063614 3.5733111e-043
-29.736298 259.0614 83.743202 2.3418409e-038
-29.616194 258.99658 83.722252 2.3418409e-038
-24.527815 257.0947 83.10746 2.3418409e-038
-19.606728 256.43811 82.895203 2.3418409e-038
-15.319487 257.54507 83.253044 2.3418409e-038
-1.9643244 255.21898 82.501114 2.3418409e-038
-0.17076094 253.23984 81.861343 2.3418409e-038
4.5755882 250.42122 80.950218 2.3509528e-038
8.7958593 250.54591 80.990524 2.3509528e-038
-61.09243 253.55405 77.159103 3.5733111e-043
-57.543571 252.3562 76.794586 3.5733111e-043
-52.937267 253.19234 77.049034 3.5733111e-043
-48.598484 254.54115 77.459496 3.5733111e-043
-29.328211 260.65317 79.319443 2.3418409e-038
-24.653299 258.41 78.636826 2.3418409e-038
-19.702055 257.68488 78.416161 2.3418409e-038
-14.907325 259.20377 78.878372 2.3418409e-038
-14.343762 259.72415 79.036728 2.3418409e-038
-2.1874344 257.25394 78.285027 2.3418409e-038
-0.17173296 254.68132 77.502144 2.3418409e-038
4.5912018 251.27574 76.46579 2.3509528e-038
9.3372021 251.55861 76.551872 2.3509528e-038
-60.374355 254.01053 72.485558 3.5733111e-043
-57.825836 253.59407 72.366714 3.5733111e-043
-53.131981 254.12366 72.517845 3.5733111e-043
-48.452381 254.83363 72.720444 3.5733111e-043
-47.290028 255.27097 72.845245 3.5733111e-043
-29.215956 262.56796 74.927544 2.3418409e-038
-24.820791 260.16562 74.242004 2.3418409e-038
-19.82588 259.30441 73.996246 2.3418409e-038
-14.983278 260.52441 74.344391 2.3418409e-038
-13.537257 261.61584 74.655846 2.3418409e-038
-2.6784837 258.26691 73.700172 2.3418409e-038
-0.17183542 254.83328 72.720345 2.3509528e-038
4.5878491 251.09225 71.652786 2.3509528e-038
9.3573866 251.42432 71.747551 2.3509886e-038
10.108141 251.83958 71.866051 2.3509886e-038
-59.768173 254.60208 67.830696 3.5733111e-043
-58.00473 254.37859 67.771156 3.5733111e-043
-53.251328 254.69446 67.855316 3.5733111e-043
-48.52919 255.23761 68.000015 3.5733111e-043
-45.667145 257.03525 68.478943 3.5733111e-043
-29.085131 263.51575 70.205467 2.3509528e-038
-24.93877 261.40225 69.642395 2.3418409e-038
-19.898417 260.25314 69.336243 2.3418409e-038
-14.992959 260.69275 69.453369 2.3418409e-038
-12.990215 261.52441 69.674942 2.3418409e-038
-3.4611142 258.73175 68.930923 2.3418409e-038
-0.17170775 254.64395 67.841858 2.3418409e-038
4.5886607 251.13669 66.907455 2.3509886e-038
9.3322868 250.74991 66.804413 2.3509886e-038
10.707309 251.1727 66.917046 2.3509886e-038
-59.182693 255.75021 63.291161 3.5733111e-043
-58.267265 255.52994 63.236652 3.5733111e-043
-53.397789 255.39496 63.203255 3.5733111e-043
-48.638416 255.81207 63.306473 3.5733111e-043
-44.216915 258.29532 63.921013 3.5733111e-043
-43.633698 258.88705 64.067444 3.5733111e-043
-28.7262 264.66248 65.496704 2.3509528e-038
-25.052904 262.59857 64.985947 2.3418409e-038
-19.973288 261.23236 64.64785 2.3418409e-038
-15.047611 261.64304 64.749474 2.3418409e-038
-12.706889 262.36411 64.927925 2.3418409e-038
-4.1246228 258.55774 63.98595 2.3418409e-038
-0.17152305 254.37004 62.949612 2.3418409e-038
4.5996509 251.73816 62.298294 2.3509886e-038
9.3430614 251.03941 62.125374 2.3509886e-038
11.015566 251.22726 62.171856 2.3509886e-038
47.872761 247.68452 61.295128 2.3418052e-038
51.092575 245.95589 60.86734 2.3418052e-038
55.522869 245.38406 60.72583 2.3418052e-038
-58.324615 256.71863 58.667053 2.3509886e-038
-53.528427 256.01981 58.507355 3.5733111e-043
-48.705166 256.16315 58.540108 3.5733111e-043
-44.118263 257.71906 58.895672 3.5733111e-043
-41.45565 259.702 59.348831 3.5733111e-043
-28.148874 266.09766 60.810413 2.3509528e-038
-25.176741 263.89661 60.307415 2.3418409e-038
-20.03517 262.04175 59.883526 2.3418409e-038
-15.114039 262.79803 60.056358 2.3418409e-038
-12.284479 263.64835 60.250675 2.3418409e-038
-4.4660387 258.28192 59.024303 2.3418409e-038
-0.17136832 254.14055 58.077892 2.3509886e-038
4.6121702 252.42334 57.685463 2.3509886e-038
9.3795767 252.02054 57.593414 2.3509886e-038
11.164865 252.24513 57.644741 2.3509886e-038
44.937157 249.99675 57.130924 2.3418052e-038
46.830833 248.06467 56.689392 2.3418052e-038
51.12006 246.0882 56.237713 2.3418052e-038
55.026482 246.29271 56.284454 2.3418052e-038
-57.3564 257.94473 54.060253 2.3509886e-038
-53.717129 256.92233 53.845978 3.5733111e-043
-48.826805 256.80292 53.820953 3.5733111e-043
-44.18726 258.1221 54.097424 3.5733111e-043
-39.805264 261.46121 54.797241 3.5733111e-043
-39.800529 261.46753 54.798561 3.5733111e-043
-27.381046 266.72354 55.900124 2.3509528e-038
-25.282845 265.00879 55.540741 2.3418409e-038
-20.070261 262.5007 55.015099 2.3418409e-038
-15.143199 263.30505 55.183678 2.3418409e-038
-11.609013 264.50943 55.436089 2.3418409e-038
-4.6121974 258.46539 54.169373 2.3418409e-038
-0.17171162 254.6497 53.369678 2.3509886e-038
4.6350241 253.67412 53.165215 2.3509886e-038
9.4398708 253.64059 53.158192 2.3509886e-038
11.260796 254.06763 53.247688 2.3509886e-038
41.788761 249.90092 52.374428 2.3418052e-038
42.371479 249.48051 52.286316 2.3418052e-038
46.625996 246.97963 51.76218 2.3418052e-038
51.281555 246.86563 51.738289 2.3418052e-038
53.727745 247.96535 51.968769 2.3418052e-038
-56.317188 259.58044 49.485077 2.3509886e-038
-54.039993 258.46655 49.272732 2.3509886e-038
-49.002552 257.72723 49.13179 3.5733111e-043
-44.35675 259.11218 49.395809 3.5733111e-043
-39.915325 262.18414 49.981434 3.5733111e-043
-38.614662 263.81277 50.291912 3.5733111e-043
-26.72471 267.06137 50.911205 2.3509528e-038
-25.356327 265.77899 50.666737 2.3509528e-038
-20.088398 262.73792 50.087006 2.3509528e-038
-15.148521 263.39761 50.212765 2.3418409e-038
-10.704553 264.76569 50.473564 2.3418409e-038
-4.8079047 259.7966 49.526283 2.3509886e-038
-0.17277981 256.23383 48.847095 2.3509886e-038
4.6675301 255.45317 48.698277 2.3509886e-038
9.5329561 256.14172 48.829536 2.3509886e-038
11.421346 257.2562 49.041992 2.3509886e-038
38.511341 250.64075 47.780861 2.3418052e-038
42.082245 247.77753 47.235031 2.3418052e-038
46.446049 246.02644 46.901211 2.3418052e-038
51.373932 247.41518 47.165951 2.3418052e-038
-54.877327 260.06827 44.650845 2.3509886e-038
-54.297443 259.69791 44.587261 2.3509886e-038
-49.125118 258.37189 44.3596 3.5733111e-043
-44.449745 259.65543 44.579964 3.5733111e-043
-39.919991 262.21478 45.019379 3.5733111e-043
-37.206375 264.85474 45.47263 3.5733111e-043
-26.672968 267.84732 45.986423 3.5733111e-043
-25.427748 266.52759 45.759842 3.5733111e-043
-20.120354 263.15588 45.180954 2.3509886e-038
-15.142416 263.29144 45.204231 2.3509886e-038
-10.194064 264.32693 45.382011 2.3509886e-038
-9.4615498 264.26431 45.371262 2.3509886e-038
-5.5255027 262.57764 45.081676 2.3509886e-038
-5.1468005 262.32083 45.03759 2.3509886e-038
-0.17438638 258.61639 44.401573 2.3509886e-038
4.6997476 257.21646 44.161224 2.3509886e-038
9.6222162 258.54004 44.388466 2.3509886e-038
11.676027 260.53653 44.731239 2.3509886e-038
35.247589 253.77014 43.569527 2.3418052e-038
37.834129 250.73489 43.048409 2.3418052e-038
42.032497 247.48462 42.490376 2.3418052e-038
46.535339 246.49944 42.321228 2.3418052e-038
48.836254 247.07816 42.420589 2.3418052e-038
-53.189091 259.53067 39.641502 2.3509886e-038
-49.238575 258.9686 39.555649 3.5733111e-043
-44.549686 260.23923 39.749729 3.5733111e-043
-39.963627 262.5014 40.095261 3.5733111e-043
-35.534081 266.58099 40.718391 3.5733111e-043
-34.744392 267.55658 40.867409 3.5733111e-043
-28.390833 269.79736 41.209667 3.5733111e-043
-25.486469 267.1431 40.804249 3.5733111e-043
-20.170662 263.81384 40.295731 2.3509886e-038
-15.148505 263.39734 40.232109 2.3509886e-038
-10.181496 264.00104 40.324322 2.3509886e-038
-5.1709747 263.55298 40.255882 2.3509886e-038
-0.17566589 260.51392 39.791683 2.3509886e-038
4.7300863 258.87689 39.541641 2.3509886e-038
9.6705294 259.83817 39.688473 2.3509886e-038
12.347248 262.13504 40.039299 2.3509886e-038
31.64502 256.54404 39.185314 2.3418052e-038
33.564213 254.37646 38.854237 2.3418052e-038
37.771378 250.31903 38.234489 2.3418052e-038
42.179989 248.35304 37.9342 2.3418052e-038
46.670563 248.87975 38.014648 2.3418052e-038
-51.884563 260.46564 34.849564 2.3509886e-038
-49.454216 260.10275 34.80101 2.3509886e-038
-44.627068 260.69122 34.879749 3.5733111e-043
-39.904461 262.11276 35.069946 3.5733111e-043
-35.291748 264.76297 35.424534 3.5733111e-043
-30.615438 267.73508 35.822193 3.5733111e-043
-25.494081 267.2229 35.753666 3.5733111e-043
-20.277178 265.207 35.483944 2.3509886e-038
-15.202647 264.33875 35.367775 2.3509886e-038
-10.177026 263.88513 35.307083 2.3509886e-038
-5.1607008 263.02933 35.192577 2.3509886e-038
-0.17610386 261.16342 34.942924 2.3509886e-038
4.7469912 259.80206 34.76078 2.3509886e-038
9.6661215 259.71973 34.749763 2.3509886e-038
14.344812 262.21005 35.082962 2.3509886e-038
27.219902 260.87906 34.904881 2.3509886e-038
29.227369 258.64667 34.606194 2.3418052e-038
33.553596 254.29601 34.024086 2.3418052e-038
37.882298 251.05411 33.590328 2.3418052e-038
42.466942 250.04259 33.45499 2.3418052e-038
44.46291 250.73611 33.547783 2.3418052e-038
-50.864246 262.082 30.100439 2.3509886e-038
-49.782669 261.83023 30.071524 2.3509886e-038
-44.741421 261.35925 30.017427 2.3509886e-038
-39.868786 261.87845 30.077061 3.5733111e-043
-35.106514 263.37335 30.248751 3.5733111e-043
-30.351448 265.42645 30.484554 2.3509886e-038
-25.45871 266.85214 30.648294 2.3509886e-038
-20.372643 266.45557 30.602745 2.3509886e-038
-15.258905 265.31693 30.471973 2.3509886e-038
-10.184229 264.0719 30.328981 2.3509886e-038
-5.1566086 262.82074 30.185284 2.3509886e-038
-0.17637324 261.56293 30.040819 2.3509886e-038
4.7533488 260.15005 29.878551 2.3509886e-038
9.6493835 259.27002 29.777479 2.3509886e-038
14.599058 259.93909 29.854321 2.3509886e-038
19.61161 261.10754 29.98852 2.3509886e-038
24.496336 260.44638 29.912584 2.3509886e-038
29.174267 258.17676 29.651915 2.3418052e-038
33.739693 255.70641 29.368193 2.3418052e-038
38.272697 253.64137 29.131021 2.3418052e-038
42.13504 253.29092 29.090771 2.3418052e-038
-50.212341 264.68936 25.385124 2.3509886e-038
-45.014618 262.95514 25.218803 2.3509886e-038
-39.98991 262.67407 25.191847 2.3509886e-038
-35.103401 263.34998 25.256672 2.3509886e-038
-30.265268 264.67279 25.383535 2.3509886e-038
-25.408852 266.32953 25.542427 2.3509886e-038
-20.397427 266.77972 25.585604 2.3509886e-038
-15.278338 265.65485 25.477718 2.3509886e-038
-10.198104 264.43167 25.360413 2.3509886e-038
-5.1705709 263.53238 25.274162 2.3509886e-038
-0.17703086 262.53818 25.178814 2.3509886e-038
4.7709489 261.11328 25.042162 2.3509886e-038
9.6719389 259.87604 24.923504 2.3509886e-038
14.57864 259.57553 24.894682 2.3509886e-038
19.48815 259.46378 24.883965 2.3509886e-038
24.362715 259.02573 24.841953 2.3418052e-038
29.222544 258.604 24.801506 2.3418052e-038
34.089405 258.35678 24.777796 2.3418052e-038
39.026546 258.6373 24.804703 2.3418052e-038
40.060051 258.91385 24.831223 2.3418052e-038
-49.767433 267.14029 20.558958 2.3509886e-038
-45.354286 264.93933 20.389576 2.3509886e-038
-40.196136 264.02863 20.319489 2.3509886e-038
-35.194569 264.03394 20.319897 2.3509886e-038
-30.273163 264.74185 20.374374 2.3509886e-038
-25.392332 266.15637 20.483236 2.3509886e-038
-20.403181 266.85498 20.537001 2.3509886e-038
-15.288984 265.83994 20.458885 2.3509886e-038
-10.218454 264.95935 20.391115 2.3509886e-038
-5.1923633 264.64307 20.366776 2.3509886e-038
-0.17800881 263.98846 20.316397 2.3509886e-038
4.7992454 262.66193 20.214308 2.3509886e-038
9.7286978 261.40112 20.117275 2.3509886e-038
14.649848 260.84338 20.074354 2.3509886e-038
19.552567 260.32141 20.034182 2.3509886e-038
24.42535 259.69165 19.985716 2.3418052e-038
29.358522 259.80731 19.994617 2.3418052e-038
34.438335 261.00125 20.086502 2.3418052e-038
37.934223 263.18753 20.254757 2.3418052e-038
-49.552696 268.75769 15.591584 2.3509886e-038
-45.580669 266.26175 15.446786 2.3509886e-038
-40.306236 264.75186 15.359191 2.3509886e-038
-35.282455 264.69327 15.355792 2.3509886e-038
-30.344954 265.36966 15.395032 2.3509886e-038
-25.406708 266.30707 15.449414 2.3509886e-038
-20.402948 266.85193 15.481024 2.3509886e-038
-15.312684 266.25201 15.44622 2.3509886e-038
-10.242575 265.58481 15.407513 2.3509886e-038
-5.2082305 265.45181 15.399798 2.3509886e-038
-0.17872858 265.05591 15.376829 2.3509886e-038
4.8233061 263.97879 15.314342 2.3509886e-038
9.7909327 263.0733 15.261812 2.3509886e-038
14.752533 262.67175 15.238516 2.3509886e-038
19.669117 261.8732 15.192189 2.3509886e-038
24.50968 260.58826 15.117646 2.3509886e-038
29.401474 260.18741 15.094392 2.3418052e-038
34.576946 262.05176 15.202549 2.3418052e-038
35.740917 262.961 15.255298 2.3418052e-038
-49.688576 270.20074 10.556101 2.3509886e-038
-45.740673 267.19641 10.43873 2.3509886e-038
-40.378075 265.22372 10.361661 2.3509886e-038
-35.373978 265.37988 10.367762 2.3509886e-038
-30.437721 266.18091 10.399055 2.3509886e-038
-25.41799 266.42532 10.408605 2.3509886e-038
-20.394232 266.73795 10.420818 2.3509886e-038
-15.34992 266.89948 10.427129 2.3509886e-038
-10.274499 266.41257 10.408106 2.3509886e-038
-5.2179394 265.94662 10.389904 2.3509886e-038
-0.1790491 265.53125 10.373675 2.3509886e-038
4.8385601 264.81363 10.345639 2.3509886e-038
9.8436365 264.48938 10.332972 2.3509886e-038
14.844972 264.31763 10.326262 2.3509886e-038
19.765707 263.15915 10.281003 2.3509886e-038
24.567402 261.20193 10.204539 2.3509886e-038
29.39941 260.16916 10.164191 2.3509886e-038
34.224537 261.59341 10.219832 2.3418052e-038
-97.167923 256.99039 5.1710882 9.1476764e-041
-92.873436 257.51932 5.1817312 9.1476764e-041
-90.225311 258.82172 5.2079382 9.1476764e-041
-50.158176 272.04572 5.4740272 2.3509886e-038
-45.912792 268.20184 5.3966827 2.3509886e-038
-40.474026 265.85397 5.3494391 2.3509886e-038
-35.453644 265.97757 5.3519258 2.3509886e-038
-30.492283 266.65808 5.3656192 2.3509886e-038
-25.433113 266.58386 5.3641257 2.3509886e-038
-20.410048 266.94479 5.3713884 2.3509886e-038
-15.394548 267.67545 5.3860903 2.3509886e-038
-10.307969 267.28043 5.3781419 2.3509886e-038
-5.2255292 266.3335 5.3590879 2.3509886e-038
-0.17928648 265.88327 5.3500285 2.3509886e-038
4.8556309 265.74789 5.3473048 2.3509886e-038
9.8930244 265.81638 5.3486829 2.3509886e-038
14.924787 265.73877 5.3471208 2.3509886e-038
19.87467 264.60986 5.3244057 2.3509886e-038
24.698532 262.59613 5.2838855 2.3509886e-038
29.517685 261.21582 5.2561111 2.3509886e-038
33.632221 262.12878 5.2744818 2.3509886e-038
-98.88102 252.72754 0.29716009 9.1476764e-041
-95.702309 252.11859 0.29644409 9.1476764e-041
-91.503708 253.72133 0.29832861 9.1476764e-041
-87.823036 257.01749 0.30220428 9.1476764e-041
-84.027634 260.34518 0.30611703 9.1476764e-041
-80.603203 263.00192 0.30924082 9.1476764e-041
-51.329132 274.81058 0.3231256 2.3509886e-038
-46.044376 268.97052 0.31625879 2.3509886e-038
-40.508312 266.07916 0.31285912 2.3509886e-038
-35.454617 265.98483 0.31274819 2.3509886e-038
-30.492464 266.65964 0.31354165 2.3509886e-038
-25.454126 266.80411 0.31371149 2.3509886e-038
-20.437698 267.30646 0.31430215 2.3509886e-038
-15.42195 268.15192 0.31529626 2.3509886e-038
-10.332421 267.91446 0.31501707 2.3509886e-038
-5.238471 266.9931 0.31393373 2.3509886e-038
-0.17993876 266.85062 0.31376618 2.3509886e-038
4.8819265 267.18707 0.31416178 2.3509886e-038
9.9502211 267.35324 0.31435716 2.3509886e-038
15.013412 267.31674 0.31431425 2.3509886e-038
20.009071 266.39929 0.31323549 2.3509886e-038
24.879734 264.52271 0.31102899 2.3509886e-038
29.703979 262.86444 0.3090792 2.3509886e-038
33.549824 263.2674 0.309553 2.3509886e-038
-96.160492 250.05237 -4.4434543 9.1476764e-041
-94.865715 249.91467 -4.4410076 9.1476764e-041
-90.727097 251.56793 -4.470386 9.1476764e-041
-87.093483 254.88243 -4.529285 9.1476764e-041
-83.39016 258.37009 -4.5912604 9.1476764e-041
-79.527214 261.76733 -4.6516304 9.1476764e-041
-75.535271 265.1636 -4.7119823 9.1476764e-041
-73.277527 267.08978 -4.7462106 9.1476764e-041
-53.756351 278.4671 -4.9483867 2.3509886e-038
-52.663227 276.98044 -4.9219685 2.3509886e-038
-46.215763 269.97168 -4.7974224 2.3509886e-038
-40.652157 267.02402 -4.7450418 2.3509886e-038
-35.510567 266.4046 -4.734035 2.3509886e-038
-30.485533 266.59903 -4.7374897 2.3509886e-038
-25.464302 266.91077 -4.7430296 2.3509886e-038
-20.458555 267.57922 -4.7549086 2.3509886e-038
-15.436875 268.41144 -4.7696962 2.3509886e-038
-10.364585 268.74844 -4.7756853 2.3509886e-038
-5.2697864 268.58917 -4.7728548 2.3509886e-038
-0.1811651 268.66928 -4.7742786 2.3509886e-038
4.9159079 269.04688 -4.7809882 2.3509886e-038
10.01871 269.19348 -4.7835937 2.3509886e-038
15.103808 268.92627 -4.7788453 2.3509886e-038
20.104641 267.67169 -4.7565517 2.3509886e-038
24.975412 265.53995 -4.7186704 2.3509886e-038
29.816219 263.8577 -4.688776 2.3509886e-038
33.602207 264.09131 -4.6929274 2.3509886e-038
-92.085602 250.81125 -9.208786 9.1476764e-041
-90.680923 251.4399 -9.2318678 9.1476764e-041
-86.828033 254.10556 -9.3297405 9.1476764e-041
-83.030228 257.25488 -9.4453697 9.1476764e-041
-79.150673 260.52792 -9.5655432 9.1476764e-041
-75.137863 263.76852 -9.6845264 9.1476764e-041
-70.998703 266.99576 -9.8030167 9.1476764e-041
-66.888138 270.83392 -9.9439392 9.1476764e-041
-64.692429 273.418 -10.038816 2.3509886e-038
-58.904221 278.94122 -10.241607 2.3509886e-038
-58.336792 279.01761 -10.244411 2.3509886e-038
-52.368752 275.43167 -10.112749 2.3509886e-038
-46.34959 270.75345 -9.9409847 2.3509886e-038
-40.862766 268.40741 -9.854847 2.3509886e-038
-35.643139 267.39917 -9.8178282 2.3509886e-038
-30.527573 266.96667 -9.8019495 2.3509886e-038
-25.489653 267.17648 -9.8096523 2.3509886e-038
-20.485441 267.93088 -9.8373508 2.3509886e-038
-15.464045 268.88382 -9.8723392 2.3509886e-038
-10.40317 269.74893 -9.9041023 2.3509886e-038
-5.3006811 270.16382 -9.9193354 2.3509886e-038
-0.18232045 270.38266 -9.927371 2.3509886e-038
4.9494009 270.87991 -9.9456282 2.3509886e-038
10.083894 270.94489 -9.9480133 2.3509886e-038
15.168556 270.0791 -9.9162254 2.3509886e-038
20.148556 268.25641 -9.8493023 2.3509886e-038
25.021736 266.03247 -9.7676487 2.3509886e-038
29.902557 264.62173 -9.7158527 2.3509886e-038
33.710342 264.99701 -9.7296314 2.3509886e-038
-87.651093 255.44769 -14.218706 9.1476764e-041
-87.32827 255.56955 -14.225489 9.1476764e-041
-83.1353 257.58044 -14.337419 9.1476764e-041
-78.962891 259.90985 -14.467078 9.1476764e-041
-74.795891 262.56805 -14.615039 9.1476764e-041
-70.57888 265.41699 -14.773616 9.1476764e-041
-66.347137 268.64334 -14.953201 9.1476764e-041
-61.986347 271.83987 -15.131127 2.3509886e-038
-57.34306 274.26468 -15.266096 2.3509886e-038
-51.965145 273.3089 -15.212895 2.3509886e-038
-46.400932 271.05334 -15.087346 2.3509886e-038
-41.00964 269.37213 -14.993767 2.3509886e-038
-35.769215 268.345 -14.936595 2.3509886e-038
-30.623917 267.8092 -14.906773 2.3509886e-038
-25.540482 267.70926 -14.901209 2.3509886e-038
-20.495369 268.0607 -14.920771 2.3509886e-038
-15.471782 269.01834 -14.974075 2.3509886e-038
-10.420892 270.20844 -15.040318 2.3509886e-038
-5.3135037 270.81735 -15.07421 2.3509886e-038
-0.18283635 271.14777 -15.092602 2.3509886e-038
4.9664679 271.81403 -15.129687 2.3509886e-038
10.119242 271.89465 -15.134176 2.3509886e-038
15.202755 270.68802 -15.067012 2.3509886e-038
20.172421 268.57413 -14.949347 2.3509886e-038
25.066849 266.51208 -14.834573 2.3509886e-038
29.978252 265.2916 -14.766637 2.3509886e-038
33.795498 265.68576 -14.788577 2.3509886e-038
-82.59108 260.50531 -19.435724 9.1476764e-041
-79.31469 261.06778 -19.477688 9.1476764e-041
-74.809967 262.61746 -19.593307 9.1476764e-041
-70.426857 264.84528 -19.75952 9.1476764e-041
-66.129349 267.76154 -19.977095 9.1476764e-041
-61.585445 270.08176 -20.150202 9.1476764e-041
-56.743954 271.39926 -20.248497 9.1476764e-041
-51.599445 271.38553 -20.247473 2.3509886e-038
-46.310101 270.52277 -20.183105 2.3509886e-038
-41.017929 269.42657 -20.10132 2.3509886e-038
-35.828247 268.78787 -20.053665 2.3509886e-038
-30.713234 268.5903 -20.038927 2.3509886e-038
-25.588701 268.21466 -20.010902 2.3509886e-038
-20.498405 268.10043 -20.00238 2.3509886e-038
-15.469369 268.97638 -20.067732 2.3509886e-038
-10.433025 270.52307 -20.183126 2.3509886e-038
-5.3257298 271.44049 -20.251572 2.3509886e-038
-0.18339945 271.98282 -20.292034 2.3509886e-038
4.9796977 272.53806 -20.333462 2.3509886e-038
10.1415 272.49271 -20.330076 2.3509886e-038
15.231812 271.20538 -20.234034 2.3509886e-038
20.217468 269.17389 -20.082466 2.3509886e-038
25.164232 267.54749 -19.961124 2.3509886e-038
30.139257 266.71643 -19.89912 2.3509886e-038
33.97628 267.26556 -19.940092 2.3509886e-038
-77.867195 265.38232 -24.827507 9.1476764e-041
-75.507675 265.06674 -24.797981 9.1476764e-041
-70.734802 266.0033 -24.885603 9.1476764e-041
-66.226082 268.1532 -25.086731 9.1476764e-041
-61.494812 269.6843 -25.229971 9.1476764e-041
-56.507267 270.26721 -25.284506 9.1476764e-041
-51.382607 270.24506 -25.282431 2.3509886e-038
-46.1842 269.78732 -25.239609 2.3509886e-038
-40.939503 268.91144 -25.157669 2.3509886e-038
-35.770203 268.35242 -25.10537 2.3509886e-038
-30.688093 268.37045 -25.107056 2.3509886e-038
-25.577311 268.09528 -25.081314 2.3509886e-038
-20.487984 267.96414 -25.069046 2.3509886e-038
-15.465104 268.90225 -25.156807 2.3509886e-038
-10.439828 270.69946 -25.324944 2.3509886e-038
-5.3410716 272.22244 -25.467424 2.3509886e-038
-0.18427305 273.27838 -25.566214 2.3509886e-038
5.0001011 273.65472 -25.601421 2.3509886e-038
10.17008 273.26062 -25.56455 2.3509886e-038
15.274275 271.96146 -25.443008 2.3509886e-038
20.320372 270.54391 -25.310392 2.3509886e-038
25.371849 269.75488 -25.236574 2.3509886e-038
30.446636 269.43652 -25.206793 2.3509886e-038
34.161789 269.88492 -25.248739 2.3509886e-038
-73.436371 269.20691 -30.285669 9.1476764e-041
-71.565002 269.12537 -30.276497 9.1476764e-041
-66.593216 269.63974 -30.334362 9.1476764e-041
-61.542503 269.89343 -30.362904 9.1476764e-041
-56.422409 269.86133 -30.359295 9.1476764e-041
-51.257145 269.58521 -30.328228 9.1476764e-041
-46.043087 268.96298 -30.258228 2.3509886e-038
-40.779797 267.8624 -30.134415 2.3509886e-038
-35.591026 267.00818 -30.038315 2.3509886e-038
-30.537354 267.05222 -30.043266 2.3509886e-038
-25.490786 267.18835 -30.058582 2.3509886e-038
-20.453016 267.50681 -30.09441 2.3509886e-038
-15.454972 268.72607 -30.231577 2.3509886e-038
-10.440238 270.71008 -30.454777 2.3509886e-038
-5.3497009 272.66223 -30.674393 2.3509886e-038
-0.18489069 274.19434 -30.846752 2.3509886e-038
5.0181656 274.64343 -30.897276 2.3509886e-038
10.205586 274.21466 -30.849039 2.3509886e-038
15.333207 273.01077 -30.7136 2.3509886e-038
20.444284 272.1937 -30.621683 2.3509886e-038
25.615145 272.34161 -30.638323 2.3509886e-038
30.797264 272.5394 -30.660576 2.3509886e-038
34.096153 272.88669 -30.699644 2.3509886e-038
-69.068558 271.98453 -35.751152 9.1476764e-041
-66.999283 271.28397 -35.659069 9.1476764e-041
-61.610592 270.19202 -35.515537 9.1476764e-041
-56.366203 269.59253 -35.436733 9.1476764e-041
-51.13073 268.92032 -35.348377 2.3509886e-038
-45.854382 267.86066 -35.209091 2.3509886e-038
-40.549683 266.35092 -35.010643 2.3509886e-038
-35.378021 265.41022 -34.88699 2.3509886e-038
-30.369276 265.58237 -34.909618 2.3509886e-038
-25.386511 266.09537 -34.977047 2.3509886e-038
-20.398436 266.79294 -35.068741 2.3509886e-038
-15.43296 268.34332 -35.272533 2.3509886e-038
-10.440246 270.7103 -35.58366 2.3509886e-038
-5.359807 273.17734 -35.907944 2.3509886e-038
-0.18545409 275.02988 -36.151451 2.3509886e-038
5.033267 275.46994 -36.209293 2.3509886e-038
10.238646 275.10291 -36.161049 2.3509886e-038
15.395401 274.11813 -36.031605 2.3509886e-038
20.554161 273.65659 -35.970936 2.3509886e-038
25.811806 274.43253 -36.072933 2.3509886e-038
31.11611 275.36102 -36.194981 2.3509886e-038
33.716145 275.95074 -36.272491 2.3509886e-038
-64.144081 272.4614 -40.975853 9.1476764e-041
-61.985844 271.83768 -40.882053 9.1476764e-041
-56.50811 270.27124 -40.646473 9.1476764e-041
-51.094017 268.72723 -40.414268 2.3509886e-038
-45.738224 267.1821 -40.181896 2.3509886e-038
-40.383537 265.25958 -39.892765 2.3509886e-038
-35.20993 264.1492 -39.725769 2.3509886e-038
-30.214132 264.22562 -39.737263 2.3509886e-038
-25.280186 264.9809 -39.850849 2.3509886e-038
-20.340111 266.03009 -40.00864 2.3509886e-038
-15.402893 267.82053 -40.277908 2.3509886e-038
-10.440781 270.72418 -40.714592 2.3509886e-038
-5.3721671 273.80728 -41.178265 2.3509886e-038
-0.18617132 276.09354 -41.522099 2.3509886e-038
5.0551672 276.66852 -41.60857 2.3509886e-038
10.279233 276.19348 -41.537128 2.3509886e-038
15.459987 275.26807 -41.397957 2.3509886e-038
20.652914 274.97137 -41.353333 2.3509886e-038
25.999231 276.42523 -41.571983 2.3509886e-038
31.505209 278.80435 -41.929783 2.3509886e-038
33.097153 279.54446 -42.041088 2.3509886e-038
-59.237144 274.80026 -46.533955 2.3509886e-038
-57.115028 273.17407 -46.258575 2.3509886e-038
-51.334106 269.98996 -45.719387 2.3509886e-038
-45.871094 267.95828 -45.375347 2.3509886e-038
-40.462646 265.77924 -45.006355 2.3509886e-038
-35.241371 264.38507 -44.770271 2.3509886e-038
-30.198418 264.0882 -44.719997 2.3509886e-038
-25.256313 264.73065 -44.828793 2.3509886e-038
-20.323174 265.80859 -45.011322 2.3509886e-038
-15.383839 267.48923 -45.295921 2.3509886e-038
-10.441711 270.74829 -45.847801 2.3509886e-038
-5.3849711 274.45987 -46.476311 2.3509886e-038
-0.18692546 277.21194 -46.942337 2.3509886e-038
5.0828481 278.18347 -47.106853 2.3509886e-038
10.343078 277.90894 -47.060364 2.3509886e-038
15.575952 277.33289 -46.962818 2.3509886e-038
20.833935 277.38147 -46.97105 2.3509886e-038
26.318872 279.8237 -47.384605 2.3509886e-038
32.179352 284.77017 -48.222229 2.3509886e-038
32.271404 284.85291 -48.236237 2.3509886e-038
-52.894958 274.79617 -51.739513 2.3509886e-038
-52.164265 274.35617 -51.656662 2.3509886e-038
-46.388405 270.98019 -51.021023 2.3509886e-038
-40.801537 268.00522 -50.460892 2.3509886e-038
-35.515705 266.44315 -50.166775 2.3509886e-038
-30.395561 265.81223 -50.047981 2.3509886e-038
-25.369957 265.92188 -50.068626 2.3509886e-038
-20.38501 266.61734 -50.199574 2.3509886e-038
-15.415341 268.03699 -50.466873 2.3509886e-038
-10.460956 271.24728 -51.07132 2.3509886e-038
-5.4051199 275.48682 -51.869553 2.3509886e-038
-0.18801148 278.82251 -52.497604 2.3509886e-038
5.1253271 280.50833 -52.815018 2.3509886e-038
10.458547 281.01147 -52.909748 2.3509886e-038
15.80151 281.34897 -52.973297 2.3509886e-038
21.206146 282.33707 -53.159336 2.3509886e-038
26.924797 286.2659 -53.899071 2.3509886e-038
30.45303 290.58249 -54.711807 2.3509886e-038
-44.959431 275.25089 -57.040009 2.3509886e-038
-41.639771 273.51117 -56.679489 2.3509886e-038
-36.145264 271.16614 -56.193535 2.3509886e-038
-30.78618 269.22821 -55.791939 2.3509886e-038
-25.622341 268.56729 -55.654976 2.3509886e-038
-20.575195 269.10477 -55.766357 2.3509886e-038
-15.554516 270.45691 -56.046562 2.3509886e-038
-10.54887 273.52689 -56.682747 2.3509886e-038
-5.4513173 277.8414 -57.576839 2.3509886e-038
-0.19006968 281.87485 -58.412685 2.3509886e-038
5.2123628 285.27179 -59.116634 2.3509886e-038
10.698783 287.4664 -59.571423 2.3509886e-038
16.267515 289.6463 -60.023163 2.3509886e-038
21.989357 292.76465 -60.669376 2.3509886e-038
26.441675 296.3577 -61.41396 2.3509886e-038
-34.40126 278.0502 -62.88802 2.3509886e-038
-31.537317 275.79697 -62.378391 2.3509886e-038
-26.163557 274.2402 -62.026287 2.3509886e-038
-21.015869 274.86841 -62.168369 2.3509886e-038
-15.881108 276.13559 -62.454979 2.3509886e-038
-10.738739 278.45007 -62.978455 2.3509886e-038
-5.5341916 282.06531 -63.796131 2.3509886e-038
-0.19359754 287.10669 -64.936371 2.3509886e-038
5.3741412 294.12589 -66.523933 2.3509886e-038
11.157692 299.79684 -67.806564 2.3509886e-038
17.090811 304.30524 -68.826241 2.3509886e-038
20.227678 307.19519 -69.479881 2.3509886e-038
-17.465637 284.85568 -69.824104 2.3509886e-038
-16.389137 284.96902 -69.851891 2.3509886e-038
-11.013438 285.57288 -69.999908 2.3509886e-038
-5.6580415 288.37769 -70.687424 2.3509886e-038
-0.19876428 294.76898 -72.254066 2.3509886e-038
2.952549 300.53915 -73.668457 2.3509886e-038
-97.45713 256.74152 4.9652095 9.1476764e-041
-94.776054 249.67848 -6.0481129 9.1476764e-041
-93.061089 258.03961 5.7390699 9.1476764e-041
-90.855331 251.92351 -10.630074 9.1476764e-041
-88.697899 259.57782 4.655385 9.1476764e-041
-87.388191 255.7449 -14.503602 9.1476764e-041
-84.465607 261.70218 2.5802045 9.1476764e-041
-83.774277 259.56021 -18.277508 9.1476764e-041
-79.993195 263.30115 -0.094307363 9.1476764e-041
-79.938095 263.11975 -22.332081 9.1476764e-041
-75.715012 265.79462 -3.0562708 2.3509886e-038
-76.028404 266.89474 -26.987743 9.1476764e-041
-71.378433 268.42377 -6.101284 9.1476764e-041
-71.94883 270.56876 -32.266541 9.1476764e-041
-67.076271 271.59564 -8.8597946 9.1476764e-041
-67.164642 271.95349 -37.699482 9.1476764e-041
-57.186726 250.79124 91.245773 3.5733111e-043
-58.497448 256.5394 59.516098 2.3509886e-038
-62.722801 275.06958 -10.65577 2.3509886e-038
-62.370201 273.52328 -43.134041 9.1476764e-041
-52.427109 250.75233 88.231941 3.5733111e-043
-54.329865 259.85297 43.055618 2.3509886e-038
-58.389538 279.26987 -10.027579 2.3509886e-038
-57.406712 274.56915 -48.047749 2.3509886e-038
-48.416267 254.64371 76.735664 3.5733111e-043
-50.267815 264.38187 25.907822 2.3509886e-038
-52.688774 277.11481 -3.081845 2.3509886e-038
-52.283112 274.98123 -52.236671 2.3509886e-038
-44.253319 258.50797 65.3526 3.5733111e-043
-47.127541 275.29788 -55.770645 2.3509886e-038
-39.805099 261.46011 54.813782 3.5733111e-043
-42.125084 276.69894 -58.999702 2.3509886e-038
-35.545517 266.66681 41.812859 3.5733111e-043
-37.133373 278.57907 -61.893665 2.3509886e-038
-28.864933 252.42671 106.88686 2.3418409e-038
-29.649912 259.29144 83.017303 2.3418409e-038
-30.884157 270.08502 39.624508 3.5733111e-043
-31.722549 277.41687 -63.743866 2.3509886e-038
-23.985044 251.40553 108.14642 2.3418409e-038
-26.604601 278.8631 -65.852379 2.3509886e-038
-19.281816 252.18857 99.844902 2.3418409e-038
-21.580667 282.25543 -68.151649 2.3509886e-038
-14.857754 258.34186 81.308235 2.3418409e-038
-16.413597 285.39435 -70.187027 2.3509886e-038
-10.203534 264.57248 48.145317 2.3509886e-038
-11.072618 287.10742 -71.443993 2.3509886e-038
-5.1297736 261.45303 46.775059 2.3509886e-038
-5.6858697 289.79599 -72.128952 2.3509886e-038
-0.16747262 248.36322 96.482689 2.3509528e-038
-0.19929069 295.54965 -72.956253 2.3509886e-038
4.4984708 246.20059 97.938065 2.3509528e-038
5.566793 304.66971 -74.18528 2.3509886e-038
9.3632336 251.58144 76.392029 2.3509528e-038
11.543921 310.17447 -74.141235 2.3509886e-038
14.72953 262.26218 34.65683 2.3509886e-038
17.353922 308.98996 -71.618134 2.3509886e-038
19.72884 262.6683 32.000748 2.3509886e-038
22.825363 303.8952 -66.734207 2.3509886e-038
24.678083 262.37872 33.249001 2.3509886e-038
27.677021 294.26361 -59.511967 2.3509886e-038
29.256474 258.90424 36.685051 2.3509886e-038
32.216583 285.09964 -48.501221 2.3509886e-038
33.656471 255.07567 41.5783 2.3418052e-038
34.547451 261.82822 11.535593 2.3418052e-038
37.890594 251.1091 46.965961 2.3418052e-038
39.35593 260.82019 23.348053 2.3418052e-038
42.465889 250.03639 53.366741 2.3418052e-038
42.815868 252.09705 30.398581 2.3418052e-038
46.895077 248.40497 60.031937 2.3418052e-038
46.92548 248.56602 38.553658 2.3418052e-038
51.322388 247.06219 64.528542 2.3418052e-038
51.39777 247.42506 47.209629 2.3418052e-038
