# .PCD v0.7 - Point Cloud Data file format
VERSION 0.7
FIELDS x y z rgb
SIZE 4 4 4 4
TYPE F F F F
COUNT 1 1 1 1
WIDTH 739
HEIGHT 1
VIEWPOINT 0 0 0 1 0 0 0
POINTS 739
DATA ascii
-111.7416 260.72263 -15.963085 2.3418052e-038
-104.16544 291.01498 67.159302 9.1476764e-041
-28.538599 302.97577 79.908081 3.5733111e-043
18.389442 300.35196 39.608028 2.3509528e-038
-62.25462 300.41678 87.72242 2.3418409e-038
-66.572487 299.1431 90.730873 2.3418409e-038
-61.807316 298.42065 90.511765 2.3418409e-038
-57.77618 298.5174 90.5411 2.3418409e-038
-68.137741 301.54108 86.633446 2.3418409e-038
-67.224648 301.30045 86.564301 2.3418409e-038
-62.274597 300.67682 86.385139 2.3418409e-038
-57.62542 301.52313 86.628281 2.3418409e-038
-56.282166 302.11368 86.797951 2.3418409e-038
-68.393089 303.71829 82.399384 2.3418409e-038
-67.720146 303.52127 82.345932 2.3418409e-038
-62.743 302.93839 82.187798 2.3418409e-038
-58.187168 304.46243 82.601273 2.3418409e-038
-55.792007 306.3884 83.123795 2.3418409e-038
-32.888786 301.86371 81.896233 3.5733111e-043
-28.772011 302.50424 82.070007 3.5733111e-043
-25.411432 303.10345 82.232574 3.5733111e-043
-68.186584 305.71942 78.050697 2.3418409e-038
-63.166893 304.98505 77.863205 2.3418409e-038
-58.654343 306.90692 78.353859 2.3418409e-038
-55.575115 310.23743 79.204147 2.3418409e-038
-34.577003 303.45288 77.472038 3.5733111e-043
-33.724552 303.51572 77.488083 3.5733111e-043
-28.893471 303.78125 77.55587 3.5733111e-043
-24.618782 303.97446 77.605194 3.5733111e-043
-108.74795 292.30847 69.949837 9.1476764e-041
-107.07937 291.67599 69.798477 9.1476764e-041
-102.36658 291.54526 69.767197 9.1476764e-041
-99.723022 293.99667 70.353821 9.1476764e-041
-68.186607 308.15421 73.741745 2.3418409e-038
-63.563011 306.89758 73.441025 2.3418409e-038
-58.98447 308.63428 73.856621 2.3418409e-038
-55.248814 312.96759 74.893593 2.3418409e-038
-35.122601 304.59604 72.890266 3.5733111e-043
-33.856285 304.70126 72.915451 3.5733111e-043
-29.024511 305.15897 73.024979 3.5733111e-043
-24.587931 305.7001 73.154472 3.5733111e-043
-109.26814 293.82968 65.612518 9.1476764e-041
-107.54147 292.93469 65.412666 9.1476764e-041
-102.46304 291.81998 65.16375 9.1476764e-041
-98.646194 294.36346 65.731712 9.1476764e-041
-97.467712 296.66254 66.245094 9.1476764e-041
-68.487015 310.50403 69.335915 2.3418409e-038
-63.892773 308.48978 68.886131 2.3418409e-038
-59.204941 309.7879 69.176003 2.3418409e-038
-55.049297 314.36234 70.197487 2.3418409e-038
-54.715282 314.86777 70.310349 2.3418409e-038
-35.419144 304.59891 68.017296 3.5733111e-043
-33.870239 304.82684 68.068199 3.5733111e-043
-29.087849 305.82492 68.291069 3.5733111e-043
-24.674772 307.03546 68.561386 3.5733111e-043
-108.158 293.92612 60.931149 9.1476764e-041
-107.82973 293.71991 60.888401 9.1476764e-041
-102.43375 291.73657 60.477253 9.1476764e-041
-98.241928 293.1571 60.771729 9.1476764e-041
-95.180405 297.5455 61.68145 9.1476764e-041
-68.672882 311.61319 64.597694 2.3418409e-038
-64.116524 309.57007 64.174156 2.3418409e-038
-59.364548 310.62302 64.392433 2.3418409e-038
-55.060558 314.42667 65.180931 2.3418409e-038
-53.924606 315.69229 65.443298 2.3418409e-038
-36.013836 304.82205 63.189888 3.5733111e-043
-33.88327 304.94412 63.215195 3.5733111e-043
-29.101618 305.96967 63.427784 3.5733111e-043
-24.719372 307.59842 63.76543 3.5733111e-043
-106.38786 293.24686 56.098301 9.1476764e-041
-102.58028 292.1539 55.889214 9.1476764e-041
-98.412247 293.66534 56.178356 9.1476764e-041
-94.94178 297.51428 56.914661 9.1476764e-041
-93.398453 299.73209 57.338928 9.1476764e-041
-68.869316 312.6973 59.81918 2.3418409e-038
-64.369736 310.79266 59.454823 2.3418409e-038
-59.512497 311.39716 59.570465 2.3418409e-038
-54.946487 313.77524 60.025394 2.3418409e-038
-52.85294 315.02048 60.263603 2.3509886e-038
-36.879993 305.02823 58.352081 3.5733111e-043
-33.869095 304.81656 58.311588 3.5733111e-043
-29.095409 305.90439 58.519695 3.5733111e-043
-24.794868 308.53815 59.023533 3.5733111e-043
-104.75158 293.60971 51.469875 9.1476764e-041
-103.09636 293.62372 51.472328 9.1476764e-041
-99.091087 295.69104 51.834732 9.1476764e-041
-95.433594 299.05545 52.424515 9.1476764e-041
-91.830635 302.95499 53.108109 9.1476764e-041
-91.786102 303.01886 53.119301 9.1476764e-041
-68.883316 313.44806 54.947544 2.3418409e-038
-64.5933 311.87207 54.671272 2.3418409e-038
-59.631725 312.02103 54.697384 2.3418409e-038
-54.880802 313.40015 54.939144 2.3418409e-038
-51.756069 314.38535 55.111851 2.3509886e-038
-37.805462 305.09647 53.483509 3.5733111e-043
-33.838566 304.54181 53.386272 3.5733111e-043
-29.07275 305.66614 53.583374 3.5733111e-043
-24.809246 308.71707 54.118202 3.5733111e-043
-104.00246 297.06113 47.321846 9.1476764e-041
-100.05 298.55246 47.559414 9.1476764e-041
-96.059639 301.01727 47.952065 9.1476764e-041
-92.184105 304.12112 48.446507 9.1476764e-041
-90.100906 306.8674 48.883987 9.1476764e-041
-68.617462 314.41626 50.086521 2.3418409e-038
-64.825272 312.9921 49.85965 2.3418409e-038
-59.721981 312.49329 49.78019 2.3418409e-038
-54.855431 313.25528 49.901573 2.3418409e-038
-50.83419 314.13971 50.042469 3.5733111e-043
-38.851448 305.78644 48.711788 3.5733111e-043
-33.84531 304.60251 48.523186 3.5733111e-043
-29.06506 305.5853 48.679749 3.5733111e-043
-24.770481 308.13934 49.086609 3.5733111e-043
-103.29449 301.1348 43.152538 9.1476764e-041
-101.01855 301.44266 43.196655 9.1476764e-041
-96.554771 302.56882 43.358036 9.1476764e-041
-92.380554 304.76923 43.673351 9.1476764e-041
-88.703957 308.948 44.272171 9.1476764e-041
-88.222588 309.7626 44.388901 9.1476764e-041
-68.254631 316.21619 45.313702 2.3418409e-038
-65.150276 314.56128 45.07655 2.3418409e-038
-59.82103 313.01157 44.854477 2.3418409e-038
-54.867977 313.3269 44.899666 2.3418409e-038
-50.323456 314.35379 45.046818 3.5733111e-043
-39.95805 307.50684 44.065651 3.5733111e-043
-39.00626 306.86209 43.973259 3.5733111e-043
-33.924221 305.31268 43.751232 3.5733111e-043
-29.123022 306.1947 43.877621 3.5733111e-043
-24.847395 308.41537 44.195847 2.3509886e-038
15.137014 299.64252 42.938694 2.3509528e-038
19.566193 301.52814 43.208904 2.3509528e-038
23.404957 305.11459 43.722843 2.3509528e-038
-102.12883 304.28043 38.734734 9.1476764e-041
-101.95554 304.23865 38.729416 9.1476764e-041
-96.925179 303.72955 38.664608 9.1476764e-041
-92.470978 305.06754 38.834934 9.1476764e-041
-88.659019 308.79147 39.308987 9.1476764e-041
-86.439629 312.11557 39.732143 9.1476764e-041
-68.213814 319.28848 40.645252 2.3418409e-038
-65.657295 317.00931 40.355114 2.3418409e-038
-59.937492 313.62094 39.923775 2.3418409e-038
-54.889759 313.45129 39.90218 2.3418409e-038
-50.133038 314.76266 40.069115 3.5733111e-043
-40.848324 309.46985 39.395344 3.5733111e-043
-39.189861 308.30646 39.247246 3.5733111e-043
-34.072506 306.64725 39.03603 3.5733111e-043
-29.265352 307.69113 39.168915 3.5733111e-043
-25.212914 310.22986 39.492092 3.5733111e-043
9.9930687 299.16605 38.083675 2.3509528e-038
14.615143 298.94037 38.054947 2.3509528e-038
19.492161 300.38724 38.239132 2.3509528e-038
22.485146 302.28616 38.480865 2.3509528e-038
-100.2583 305.64969 34.018559 9.1476764e-041
-97.241882 304.72198 33.915302 9.1476764e-041
-92.607101 305.51663 34.00375 9.1476764e-041
-88.735825 309.05899 34.39801 9.1476764e-041
-85.24575 314.42557 34.995304 9.1476764e-041
-84.865036 315.24359 35.086353 9.1476764e-041
-68.518593 322.61227 35.906479 2.3418409e-038
-66.229462 319.77185 35.590343 2.3418409e-038
-60.085468 314.39523 34.991928 2.3418409e-038
-54.906094 313.54459 34.897251 3.5733111e-043
-50.102356 314.88364 35.046291 3.5733111e-043
-49.928226 314.91574 35.049862 3.5733111e-043
-41.714592 311.17065 34.633038 3.5733111e-043
-39.360905 309.65207 34.464016 3.5733111e-043
-34.253513 308.27625 34.31089 3.5733111e-043
-29.446991 309.60086 34.458321 3.5733111e-043
-25.923668 312.20691 34.748367 3.5733111e-043
5.830874 301.21686 33.525188 2.3509528e-038
9.8565168 299.68549 33.354744 2.3509528e-038
14.679413 300.25497 33.418129 2.3509528e-038
19.566435 301.53186 33.560246 2.3509528e-038
20.613029 302.03259 33.615978 2.3509528e-038
-97.876503 305.75378 29.137997 9.1476764e-041
-97.545624 305.6738 29.130373 9.1476764e-041
-92.857735 306.34348 29.194191 9.1476764e-041
-88.899292 309.62833 29.507236 9.1476764e-041
-85.350494 314.81189 30.001221 9.1476764e-041
-83.207726 319.48889 30.446936 2.3509886e-038
-69.012688 324.1738 30.893402 2.3509886e-038
-66.509232 321.12265 30.602631 2.3418409e-038
-60.343719 315.74652 30.090292 2.3509886e-038
-55.066998 314.46344 29.968016 2.3509886e-038
-50.191929 315.44659 30.061708 3.5733111e-043
-49.187851 315.56561 30.073051 3.5733111e-043
-43.39814 313.34384 29.86132 3.5733111e-043
-39.529049 310.97482 29.635555 3.5733111e-043
-34.409058 309.67615 29.511791 3.5733111e-043
-29.588829 311.09213 29.646734 3.5733111e-043
-26.680902 313.22702 29.850187 2.3509886e-038
1.6032935 304.14063 28.984264 2.3509528e-038
5.0902686 301.39099 28.722227 2.3509528e-038
9.9119682 301.37149 28.720367 2.3509528e-038
14.856936 303.88605 28.960003 2.3509528e-038
18.316736 305.55591 29.119137 2.3509528e-038
-96.353233 308.44229 24.459042 9.1476764e-041
-93.592361 308.76706 24.484795 9.1476764e-041
-89.228607 310.7753 24.644047 9.1476764e-041
-85.254288 314.45706 24.936005 9.1476764e-041
-81.44767 319.25797 25.316711 2.3509886e-038
-79.778145 321.42352 25.488436 2.3509886e-038
-70.617996 324.4968 25.732143 2.3509886e-038
-66.533325 321.23898 25.473803 2.3509886e-038
-60.669556 317.45145 25.173456 2.3509886e-038
-55.355309 316.10986 25.06707 2.3509886e-038
-50.362389 316.51791 25.099428 2.3509886e-038
-45.134499 315.37531 25.00882 2.3509886e-038
-39.69075 312.24698 24.76075 3.5733111e-043
-34.510925 310.59293 24.629583 2.3509886e-038
-29.647736 311.71146 24.718283 2.3509886e-038
-26.942501 313.43219 24.854734 2.3509528e-038
-2.9836349 305.55862 24.23037 2.3509528e-038
0.26963091 303.3089 24.051971 2.3509528e-038
5.0938544 301.60333 23.916721 2.3509528e-038
9.9765244 303.33426 24.053984 2.3509528e-038
15.104285 308.94534 24.498934 2.3509528e-038
15.377291 309.32513 24.529049 2.3509528e-038
-95.882973 313.79807 19.862898 9.1476764e-041
-95.047043 313.56616 19.848219 9.1476764e-041
-89.870895 313.01233 19.813164 9.1476764e-041
-85.199554 314.25519 19.891832 9.1476764e-041
-80.781303 316.64594 20.043165 2.3509886e-038
-76.362587 319.35471 20.214624 2.3509886e-038
-71.604813 320.93234 20.314486 2.3509886e-038
-66.26059 319.92218 20.250544 2.3509886e-038
-60.866592 318.48242 20.15941 2.3509886e-038
-55.617424 317.60669 20.103977 2.3509886e-038
-50.474739 317.22403 20.079756 2.3509886e-038
-45.217564 315.95569 19.999472 2.3509886e-038
-39.837212 313.39917 19.837648 2.3509886e-038
-34.594818 311.34796 19.707809 2.3509886e-038
-29.627548 311.49921 19.717384 2.3509528e-038
-26.006268 312.93625 19.808346 2.3509528e-038
-8.1636248 308.10489 19.502529 2.3509528e-038
-4.6246333 306.0376 19.371674 2.3509528e-038
0.27022132 303.97308 19.240992 2.3509528e-038
5.1227121 303.31198 19.199146 2.3509528e-038
10.046779 305.47034 19.335768 2.3509528e-038
11.748373 307.3313 19.453564 2.3509528e-038
-95.30426 318.13361 15.047102 2.3509886e-038
-90.646034 315.7121 14.93257 2.3509886e-038
-85.351379 314.81516 14.890147 2.3509886e-038
-80.542305 315.70911 14.932429 2.3509886e-038
-75.822456 317.09586 14.998018 2.3509886e-038
-70.97821 318.1239 15.046644 2.3509886e-038
-66.019463 318.75793 15.076632 2.3509886e-038
-60.967503 319.01044 15.088576 2.3509886e-038
-55.799011 318.64362 15.071226 2.3509886e-038
-50.556717 317.73923 15.02845 2.3509886e-038
-45.289803 316.46048 14.967968 2.3509886e-038
-39.987267 314.57965 14.879007 2.3509886e-038
-34.712746 312.40927 14.776354 2.3509886e-038
-29.618546 311.40454 14.728832 2.3509528e-038
-24.66115 311.72266 14.743878 2.3509528e-038
-22.179504 311.95181 14.754716 2.3509528e-038
-15.260821 310.85678 14.702924 2.3509528e-038
-14.63308 310.60263 14.690903 2.3509528e-038
-9.5991354 308.5387 14.593283 2.3509528e-038
-4.6425529 307.22345 14.531074 2.3509528e-038
0.27259538 306.64368 14.503652 2.3509528e-038
5.1790919 306.65015 14.503959 2.3509528e-038
8.0195436 307.34018 14.536595 2.3509528e-038
-94.407448 320.51617 10.031442 2.3509886e-038
-91.351692 318.16983 9.9580078 2.3509886e-038
-85.635201 315.86203 9.8857775 2.3509886e-038
-80.636147 316.07697 9.8925047 2.3509886e-038
-75.858871 317.24811 9.9291601 2.3509886e-038
-71.014114 318.28485 9.961607 2.3509886e-038
-66.116821 319.22803 9.9911261 2.3509886e-038
-61.123055 319.82437 10.00979 2.3509886e-038
-55.960743 319.56723 10.001743 2.3509886e-038
-50.69545 318.61111 9.971818 2.3509886e-038
-45.433598 317.46521 9.935955 2.3509886e-038
-40.161953 315.95392 9.8886538 2.3509886e-038
-34.878086 313.89731 9.8242874 2.3509886e-038
-29.705963 312.32367 9.7750349 2.3509528e-038
-24.663086 311.74713 9.7569904 2.3509528e-038
-19.637579 311.15353 9.7384129 2.3509528e-038
-14.602151 309.94614 9.7006245 2.3509528e-038
-9.6063766 308.77142 9.6638584 2.3509528e-038
-4.6632652 308.59415 9.6583099 2.3509528e-038
0.27523461 309.61255 9.6901836 2.3509528e-038
4.3143697 311.14459 9.7381325 2.3509886e-038
-93.636765 321.78778 4.9225445 2.3509886e-038
-91.956184 320.27521 4.899406 2.3509886e-038
-85.969475 317.095 4.8507566 2.3509886e-038
-80.891159 317.07657 4.8504748 2.3509886e-038
-76.162323 318.51718 4.8725123 2.3509886e-038
-71.360573 319.83765 4.8927126 2.3509886e-038
-66.410568 320.6463 4.9050827 2.3509886e-038
-61.321003 320.86011 4.9083533 2.3509886e-038
-56.1087 320.41214 4.9015002 2.3509886e-038
-50.850807 319.58752 4.888886 2.3509886e-038
-45.6035 318.65244 4.8745813 2.3509886e-038
-40.332932 317.29901 4.8538775 2.3509886e-038
-35.047092 315.41833 4.8251076 2.3509886e-038
-29.858856 313.93115 4.8023572 2.3509886e-038
-24.773476 313.14249 4.7902932 2.3509528e-038
-19.692492 312.02362 4.7731771 2.3509528e-038
-14.622586 310.37991 4.748033 2.3509528e-038
-9.6220999 309.27682 4.7311583 2.3509528e-038
-4.6800113 309.7023 4.7376671 2.3509528e-038
0.27753305 312.19806 4.775846 2.3509886e-038
0.88992041 312.70956 4.7836709 2.3509886e-038
-92.96312 322.42245 -0.22659835 2.3509886e-038
-92.433472 321.93759 -0.22625759 2.3509886e-038
-86.303383 318.3266 -0.22371978 2.3509886e-038
-81.123802 317.98846 -0.22348215 2.3509886e-038
-76.34951 319.30002 -0.2244039 2.3509886e-038
-71.525581 320.57724 -0.22530152 2.3509886e-038
-66.539108 321.26691 -0.22578624 2.3509886e-038
-61.407238 321.31134 -0.22581747 2.3509886e-038
-56.169449 320.75906 -0.22542933 2.3509886e-038
-50.924564 320.05109 -0.22493175 2.3509886e-038
-45.702045 319.341 -0.22443271 2.3509886e-038
-40.445042 318.18094 -0.22361742 2.3509886e-038
-35.167675 316.50357 -0.22243857 2.3509886e-038
-29.979565 315.20023 -0.22152258 2.3509886e-038
-24.868767 314.34695 -0.2209229 2.3509886e-038
-19.748228 312.90674 -0.21991071 2.3509528e-038
-14.652728 311.01971 -0.21858451 2.3509528e-038
-9.6472692 310.08585 -0.21792817 2.3509528e-038
-4.6989288 310.95419 -0.21853845 2.3509886e-038
-1.7860501 312.95486 -0.21994455 2.3509886e-038
-92.155266 322.6474 -5.3891959 2.3509886e-038
-86.52951 319.16064 -5.3309565 2.3509886e-038
-81.207718 318.31741 -5.3168716 2.3509886e-038
-76.287498 319.04068 -5.3289528 2.3509886e-038
-71.397232 320.00195 -5.3450089 2.3509886e-038
-66.437416 320.77594 -5.3579364 2.3509886e-038
-61.360073 321.06458 -5.3627577 2.3509886e-038
-56.16552 320.7366 -5.3572798 2.3509886e-038
-50.94294 320.16656 -5.3477583 2.3509886e-038
-45.735619 319.57562 -5.3378873 2.3509886e-038
-40.499542 318.60971 -5.321754 2.3509886e-038
-35.243973 317.19025 -5.2980452 2.3509886e-038
-30.057159 316.01608 -5.2784328 2.3509886e-038
-24.914728 314.92798 -5.2602577 2.3509886e-038
-19.779709 313.40555 -5.2348285 2.3509886e-038
-14.699802 312.01892 -5.211668 2.3509886e-038
-9.7022762 311.85388 -5.2089114 2.3509886e-038
-4.7310524 313.07999 -5.2293906 2.3509886e-038
-3.7133636 313.74359 -5.2404752 2.3509886e-038
-92.071274 324.03247 -10.596943 2.3509886e-038
-86.724396 319.87949 -10.461125 2.3509886e-038
-81.120308 317.97476 -10.398836 2.3509886e-038
-76.0783 318.1658 -10.405084 2.3509886e-038
-71.201637 319.12534 -10.436463 2.3509886e-038
-66.310486 320.16309 -10.470401 2.3509886e-038
-61.294102 320.71936 -10.488593 2.3509886e-038
-56.159748 320.70364 -10.48808 2.3509886e-038
-50.969769 320.33517 -10.476029 2.3509886e-038
-45.75676 319.72333 -10.45602 2.3509886e-038
-40.5196 318.76752 -10.424761 2.3509886e-038
-35.291599 317.61887 -10.387197 2.3509886e-038
-30.118219 316.65805 -10.355774 2.3509886e-038
-24.955969 315.44925 -10.316242 2.3509886e-038
-19.819513 314.03625 -10.270033 2.3509886e-038
-14.765559 313.41467 -10.249705 2.3509886e-038
-9.7859936 314.54477 -10.286664 2.3509886e-038
-5.0404005 317.13892 -10.371501 2.3509886e-038
-118.29135 261.82526 -12.75184 2.3418052e-038
-116.64635 260.88437 -12.706016 2.3418052e-038
-112.06478 259.93951 -12.659997 2.3418052e-038
-108.74772 261.96796 -12.75879 2.3418052e-038
-105.70852 264.85522 -12.89941 2.3418052e-038
-104.35809 266.3078 -12.970155 2.3418052e-038
-93.068626 325.6488 -15.860278 2.3509886e-038
-86.659065 319.63852 -15.567555 2.3509886e-038
-80.823433 316.81113 -15.42985 2.3509886e-038
-75.777847 316.90924 -15.434629 2.3509886e-038
-70.985069 318.15466 -15.495285 2.3509886e-038
-66.168388 319.47699 -15.559689 2.3509886e-038
-61.220024 320.33176 -15.601317 2.3509886e-038
-56.152718 320.66348 -15.617474 2.3509886e-038
-50.984821 320.42978 -15.606091 2.3509886e-038
-45.742188 319.62149 -15.566727 2.3509886e-038
-40.495308 318.57639 -15.515825 2.3509886e-038
-35.309029 317.77573 -15.47683 2.3509886e-038
-30.163765 317.1369 -15.445718 2.3509886e-038
-25.001373 316.02316 -15.391475 2.3509886e-038
-19.865713 314.76828 -15.330357 2.3509886e-038
-14.81366 314.43567 -15.314157 2.3509886e-038
-9.8358011 316.14569 -15.397442 2.3509886e-038
-5.7594237 319.2467 -15.548472 2.3509886e-038
-121.11897 263.96671 -17.079679 2.3418052e-038
-116.90561 261.4642 -16.917757 2.3418052e-038
-112.29929 260.48346 -16.8543 2.3418052e-038
-108.70854 261.87357 -16.944244 2.3418052e-038
-105.37556 264.021 -17.083193 2.3418052e-038
-102.47539 267.47748 -17.306841 2.3418052e-038
-100.3035 273.21902 -17.678339 2.3418052e-038
-99.525032 277.42316 -17.950363 2.3509886e-038
-94.400764 321.90976 -20.828821 2.3509886e-038
-92.036407 320.55463 -20.741137 2.3509886e-038
-85.710648 316.14029 -20.455513 2.3509886e-038
-80.198135 314.36008 -20.340326 2.3509886e-038
-75.35717 315.14996 -20.391434 2.3509886e-038
-70.677498 316.77612 -20.496655 2.3509886e-038
-65.93911 318.36996 -20.599781 2.3509886e-038
-61.081657 319.60776 -20.679873 2.3509886e-038
-56.094025 320.32834 -20.726496 2.3509886e-038
-50.966049 320.31183 -20.725428 2.3509886e-038
-45.72879 319.52789 -20.674706 2.3509886e-038
-40.486752 318.50909 -20.608784 2.3509886e-038
-35.321358 317.88672 -20.568514 2.3509886e-038
-30.191893 317.43265 -20.539133 2.3509886e-038
-25.026339 316.33871 -20.468353 2.3509886e-038
-19.875702 314.92654 -20.376978 2.3509886e-038
-14.806334 314.28018 -20.335157 2.3509886e-038
-9.8184118 315.58673 -20.419697 2.3509886e-038
-6.0075197 318.2099 -20.589424 2.3509886e-038
-117.61136 263.21997 -21.242958 2.3418052e-038
-113.48521 263.23428 -21.244112 2.3418052e-038
-109.74932 264.38077 -21.336639 2.3418052e-038
-106.07955 265.78485 -21.449953 2.3418052e-038
-102.88611 268.54953 -21.673075 2.3418052e-038
-100.27406 273.13882 -22.043449 2.3418052e-038
-98.021996 279.17166 -22.530327 2.3418052e-038
-95.994408 286.45044 -23.117752 2.3418052e-038
-94.435669 295.92831 -23.882656 2.3418052e-038
-92.974426 306.72845 -24.754272 2.3509886e-038
-89.125961 310.41782 -25.052021 2.3509886e-038
-84.111336 310.2413 -25.037777 2.3509886e-038
-79.301956 310.84723 -25.086676 2.3509886e-038
-74.781006 312.74042 -25.239464 2.3509886e-038
-70.238586 314.80893 -25.406401 2.3509886e-038
-65.59491 316.7081 -25.559671 2.3509886e-038
-60.85413 318.41724 -25.697605 2.3509886e-038
-55.968391 319.6109 -25.79394 2.3509886e-038
-50.925526 320.05713 -25.829954 2.3509886e-038
-45.751396 319.68585 -25.79999 2.3509886e-038
-40.529564 318.84589 -25.732203 2.3509886e-038
-35.352524 318.16718 -25.677427 2.3509886e-038
-30.212963 317.65417 -25.636024 2.3509886e-038
-25.026054 316.33514 -25.529575 2.3509886e-038
-19.849222 314.50699 -25.382032 2.3509886e-038
-14.764222 313.38629 -25.291588 2.3509886e-038
-9.7675238 313.95111 -25.337173 2.3509886e-038
-6.0276051 315.63925 -25.473412 2.3509886e-038
-113.51059 268.5881 -25.973673 2.3418052e-038
-111.50204 268.60297 -25.975111 2.3418052e-038
-107.53374 269.42838 -26.054932 2.3418052e-038
-104.04495 271.57428 -26.262451 2.3418052e-038
-100.74168 274.4126 -26.536928 2.3418052e-038
-97.701851 278.25989 -26.908978 2.3418052e-038
-94.996841 283.47366 -27.413174 2.3418052e-038
-92.526291 289.94501 -28.038982 2.3418052e-038
-90.196304 297.56326 -28.775702 2.3418052e-038
-86.778954 302.24338 -29.228291 2.3509886e-038
-82.581497 304.59857 -29.456047 2.3509886e-038
-78.29435 306.89761 -29.678375 2.3509886e-038
-74.051315 309.68878 -29.948292 2.3509886e-038
-69.6819 312.31384 -30.20215 2.3509886e-038
-65.168846 314.65091 -30.428154 2.3509886e-038
-60.576656 316.96533 -30.65197 2.3509886e-038
-55.819374 318.75992 -30.825512 2.3509886e-038
-50.884964 319.80219 -30.926306 2.3509886e-038
-45.786179 319.92889 -30.938559 2.3509886e-038
-40.586819 319.29633 -30.877388 2.3509886e-038
-35.394733 318.54703 -30.804926 2.3509886e-038
-30.233225 317.86719 -30.739183 2.3509886e-038
-25.021225 316.27411 -30.585123 2.3509886e-038
-19.830975 314.21783 -30.386272 2.3509886e-038
-14.739243 312.85608 -30.254585 2.3509886e-038
-9.7334995 312.85748 -30.254723 2.3509886e-038
-5.9976425 313.83759 -30.349503 2.3509886e-038
-108.62422 274.42053 -30.928501 2.3418052e-038
-105.8369 276.25156 -31.134869 2.3418052e-038
-102.14508 278.23535 -31.35845 2.3418052e-038
-98.515312 280.57666 -31.622328 2.3418052e-038
-95.12471 283.85522 -31.99184 2.3418052e-038
-91.717216 287.40964 -32.392433 2.3418052e-038
-88.456947 291.82501 -32.890076 2.3418052e-038
-84.949242 295.87067 -33.346035 2.3418052e-038
-81.107094 299.16031 -33.716793 2.3509886e-038
-77.140694 302.37552 -34.079163 2.3509886e-038
-73.117126 305.78192 -34.463081 2.3509886e-038
-68.94397 309.00644 -34.826504 2.3509886e-038
-64.628822 312.04361 -35.168804 2.3509886e-038
-60.243771 315.22354 -35.527195 2.3509886e-038
-55.657391 317.8349 -35.82151 2.3509886e-038
-50.837204 319.50201 -36.009399 2.3509886e-038
-45.804089 320.05402 -36.071613 2.3509886e-038
-40.630505 319.64001 -36.024956 2.3509886e-038
-35.430019 318.86462 -35.937561 2.3509886e-038
-30.244276 317.9834 -35.838242 2.3509886e-038
-25.019962 316.25812 -35.643803 2.3509886e-038
-19.836687 314.30835 -35.424049 2.3509886e-038
-14.747374 313.02866 -35.279823 2.3509886e-038
-9.734622 312.89355 -35.264595 2.3509886e-038
-5.9960866 313.70074 -35.355568 2.3509886e-038
-105.81998 284.21594 -36.580029 2.3418052e-038
-104.47704 284.5874 -36.627842 2.3418052e-038
-100.49073 286.20276 -36.835743 2.3418052e-038
-96.375832 287.58862 -37.014107 2.3418052e-038
-92.087372 288.56958 -37.140362 2.3418052e-038
-87.907654 290.01288 -37.326122 2.3418052e-038
-83.82328 291.94904 -37.575317 2.3418052e-038
-79.823334 294.42523 -37.894012 2.3509886e-038
-75.867584 297.38522 -38.274982 2.3509886e-038
-71.903603 300.70685 -38.702492 2.3509886e-038
-67.883331 304.25269 -39.158859 2.3509886e-038
-63.807079 308.07602 -39.650944 2.3509886e-038
-59.714363 312.45343 -40.214333 2.3509886e-038
-55.391132 316.31442 -40.711266 2.3509886e-038
-50.72514 318.79773 -41.03088 2.3509886e-038
-45.772488 319.83322 -41.164154 2.3509886e-038
-40.646057 319.76236 -41.155029 2.3509886e-038
-35.450081 319.0452 -41.062729 2.3509886e-038
-30.242014 317.95959 -40.923008 2.3509886e-038
-25.013861 316.181 -40.694096 2.3509886e-038
-19.853127 314.56885 -40.486599 2.3509886e-038
-14.78261 313.77661 -40.384636 2.3509886e-038
-9.7716799 314.08469 -40.424286 2.3509886e-038
-6.0485611 315.26077 -40.575653 2.3509886e-038
-103.59584 295.05148 -42.695526 2.3418052e-038
-98.490334 293.89838 -42.528664 2.3418052e-038
-93.567909 293.20905 -42.428913 2.3418052e-038
-88.589676 292.26288 -42.292 2.3418052e-038
-83.708138 291.548 -42.188557 2.3418052e-038
-79.203423 292.13867 -42.274025 2.3509886e-038
-74.992851 293.95642 -42.537064 2.3509886e-038
-70.935036 296.65622 -42.927738 2.3509886e-038
-66.958366 300.10699 -43.427086 2.3509886e-038
-63.005978 304.2081 -44.020538 2.3509886e-038
-59.101326 309.24573 -44.749508 2.3509886e-038
-55.008881 314.13156 -45.456512 2.3509886e-038
-50.526775 317.55106 -45.951332 2.3509886e-038
-45.687321 319.23813 -46.195461 2.3509886e-038
-40.620316 319.55984 -46.242016 2.3509886e-038
-35.440308 318.95721 -46.154812 2.3509886e-038
-30.232389 317.85843 -45.995811 2.3509886e-038
-25.02277 316.29364 -45.769379 2.3509886e-038
-19.885912 315.08832 -45.594963 2.3509886e-038
-14.83653 314.92111 -45.570766 2.3509886e-038
-9.8282871 315.90417 -45.71302 2.3509886e-038
-6.2414207 317.52386 -45.947399 2.3509886e-038
-100.53123 303.09686 -48.70937 2.3509886e-038
-96.256775 301.63504 -48.474445 2.3509886e-038
-90.338341 298.03183 -47.895393 2.3509886e-038
-84.516945 294.36499 -47.30611 2.3509886e-038
-79.349045 292.67578 -47.034649 2.3509886e-038
-74.737801 292.95667 -47.079788 2.3509886e-038
-70.482506 294.7637 -47.37019 2.3509886e-038
-66.432762 297.75122 -47.850296 2.3509886e-038
-62.444431 301.4968 -48.452232 2.3509886e-038
-58.559685 306.41162 -49.242073 2.3509886e-038
-54.601837 311.8071 -50.109154 2.3509886e-038
-50.298176 316.11435 -50.801353 2.3509886e-038
-45.59177 318.57047 -51.196064 2.3509886e-038
-40.589165 319.31479 -51.315681 2.3509886e-038
-35.43515 318.91083 -51.250767 2.3509886e-038
-30.252363 318.06842 -51.115383 2.3509886e-038
-25.074661 316.94955 -50.935574 2.3509886e-038
-19.950727 316.1153 -50.801506 2.3509886e-038
-14.914541 316.577 -50.875706 2.3509886e-038
-9.9047699 318.36252 -51.162643 2.3509886e-038
-6.779716 320.24774 -51.465611 2.3509886e-038
-97.387154 311.50253 -55.044346 2.3509886e-038
-93.119362 307.2066 -54.285229 2.3509886e-038
-86.4049 300.94058 -53.177982 2.3509886e-038
-80.443573 296.71292 -52.430935 2.3509886e-038
-75.165054 294.63141 -52.063118 2.3509886e-038
-70.514755 294.89856 -52.110325 2.3509886e-038
-66.277824 297.05682 -52.491703 2.3509886e-038
-62.150757 300.07889 -53.025719 2.3509886e-038
-58.187222 304.46271 -53.800362 2.3509886e-038
-54.272701 309.92755 -54.766037 2.3509886e-038
-50.107574 314.91647 -55.647606 2.3509886e-038
-45.545021 318.2438 -56.235565 2.3509886e-038
-40.626938 319.61197 -56.477325 2.3509886e-038
-35.499741 319.4921 -56.45615 2.3509886e-038
-30.327423 318.85757 -56.344025 2.3509886e-038
-25.169186 318.14435 -56.217991 2.3509886e-038
-20.04977 317.68463 -56.136753 2.3509886e-038
-15.013713 318.68198 -56.312996 2.3509886e-038
-9.9949732 321.26184 -56.768871 2.3509886e-038
-7.9531746 322.99457 -57.075054 2.3509886e-038
-92.506432 315.6105 -60.820103 2.3509886e-038
-89.73954 312.55484 -60.231258 2.3509886e-038
-82.688538 304.99338 -58.77412 2.3509886e-038
-76.346809 299.26364 -57.669968 2.3509886e-038
-71.037132 297.08322 -57.249786 2.3509886e-038
-66.477066 297.94983 -57.416782 2.3509886e-038
-62.159248 300.11987 -57.834965 2.3509886e-038
-58.066284 303.8299 -58.549911 2.3509886e-038
-54.099724 308.93976 -59.534611 2.3509886e-038
-49.998001 314.22778 -60.553646 2.3509886e-038
-45.552727 318.29767 -61.337936 2.3509886e-038
-40.719185 320.33765 -61.731056 2.3509886e-038
-35.615707 320.5358 -61.769245 2.3509886e-038
-30.435661 319.99557 -61.665138 2.3509886e-038
-25.293791 319.71939 -61.611916 2.3509886e-038
-20.193981 319.96964 -61.660133 2.3509886e-038
-15.148478 321.54254 -61.963242 2.3509886e-038
-10.102117 324.70569 -62.572807 2.3509886e-038
-9.6887951 325.14215 -62.65691 2.3509886e-038
-87.024193 317.91531 -66.350998 2.3509886e-038
-85.658897 315.94943 -65.940697 2.3509886e-038
-78.209419 306.56473 -63.982048 2.3509886e-038
-72.253716 302.17108 -63.065067 2.3509886e-038
-67.234848 301.34619 -62.892906 2.3509886e-038
-62.597961 302.2381 -63.07906 2.3509886e-038
-58.28334 304.96564 -63.648312 2.3509886e-038
-54.169025 309.33551 -64.560333 2.3509886e-038
-50.03389 314.45337 -65.628464 2.3509886e-038
-45.620125 318.76859 -66.529076 2.3509886e-038
-40.820438 321.13422 -67.022797 2.3509886e-038
-35.738514 321.64102 -67.128571 2.3509886e-038
-30.569691 321.40475 -67.079262 2.3509886e-038
-25.459641 321.81577 -67.165039 2.3509886e-038
-20.396227 323.17416 -67.44854 2.3509886e-038
-15.342541 325.66171 -67.96772 2.3509886e-038
-11.678054 328.13275 -68.483437 2.3509886e-038
-78.953979 314.65958 -70.706116 2.3509886e-038
-74.499779 311.5643 -70.01059 2.3509886e-038
-68.871674 308.68243 -69.363014 2.3509886e-038
-63.620358 307.17447 -69.02417 2.3509886e-038
-58.938236 308.39236 -69.297836 2.3509886e-038
-54.599644 311.79459 -70.062332 2.3509886e-038
-50.333817 316.33832 -71.083344 2.3509886e-038
-45.866367 320.4892 -72.016075 2.3509886e-038
-41.055058 322.97995 -72.57576 2.3509886e-038
-35.974377 323.76376 -72.751884 2.3509886e-038
-30.811426 323.94629 -72.792908 2.3509886e-038
-25.707809 324.9527 -73.019051 2.3509886e-038
-20.644459 327.10733 -73.503212 2.3509886e-038
-15.574358 330.58231 -74.284065 2.3509886e-038
-13.787249 332.18958 -74.645218 2.3509886e-038
-70.019875 318.7486 -76.725044 2.3509886e-038
-65.357948 315.56396 -75.958481 2.3509886e-038
-60.232151 315.16275 -75.8619 2.3509886e-038
-55.514091 317.01657 -76.308128 2.3509886e-038
-50.977314 320.3826 -77.118355 2.3509886e-038
-46.42083 324.36349 -78.076584 2.3509886e-038
-41.602531 327.28696 -78.780289 2.3509886e-038
-36.486523 328.37299 -79.041695 2.3509886e-038
-31.273912 328.80881 -79.146606 2.3509886e-038
-26.121004 330.17554 -79.475586 2.3509886e-038
-20.99608 332.67871 -80.078117 2.3509886e-038
-16.206102 336.15002 -80.913689 2.3509886e-038
-63.78928 326.14005 -83.722527 2.3509886e-038
-62.282513 325.8912 -83.658646 2.3509886e-038
-56.941959 325.17053 -83.47364 2.3509886e-038
-51.952103 326.50894 -83.817223 2.3509886e-038
-47.344044 330.81439 -84.922462 2.3509886e-038
-42.617332 335.27039 -86.066345 2.3509886e-038
-37.461906 337.15128 -86.549194 2.3509886e-038
-32.14827 338.00165 -86.767479 2.3509886e-038
-26.888149 339.87244 -87.247726 2.3509886e-038
-21.647486 343.00009 -88.050621 2.3509886e-038
-20.066936 344.18781 -88.355515 2.3509886e-038
-52.192013 335.0986 -91.383926 2.3509886e-038
-48.769852 340.77716 -92.932518 2.3509886e-038
-44.238327 348.02274 -94.90844 2.3509886e-038
-38.907028 350.15717 -95.490517 2.3509886e-038
-33.368237 350.82819 -95.673508 2.3509886e-038
-28.432264 352.48672 -96.125801 2.3509886e-038
-116.64426 260.8797 -12.25351 2.3418052e-038
-117.67351 263.18167 -21.164646 2.3418052e-038
-112.14678 260.12973 -11.658769 2.3418052e-038
-114.99965 266.7471 -24.470766 2.3418052e-038
-108.92035 262.38382 -11.782158 2.3418052e-038
-112.06106 269.94965 -27.27738 2.3418052e-038
-105.82448 265.14578 -12.446437 2.3418052e-038
-109.1177 273.39703 -30.254963 2.3418052e-038
-102.64137 267.91071 -13.848737 2.3418052e-038
-107.01965 279.33875 -33.834221 2.3418052e-038
-106.94033 291.29724 72.556458 9.1476764e-041
-107.8714 293.8334 60.082336 9.1476764e-041
-100.34554 273.33356 -16.315355 2.3509886e-038
-105.26355 286.7298 -37.989746 2.3418052e-038
-102.35822 291.52145 72.817665 9.1476764e-041
-104.07776 296.41879 47.920944 9.1476764e-041
-98.654892 280.97418 -19.461052 2.3509886e-038
-103.5967 295.04871 -42.693642 2.3418052e-038
-98.899071 295.11807 69.031563 9.1476764e-041
-102.02589 304.44861 38.416462 9.1476764e-041
-96.408066 287.68481 -22.142225 2.3418052e-038
-101.00842 301.41245 -47.564728 2.3509886e-038
-94.988861 297.6618 61.261051 9.1476764e-041
-97.615669 305.89331 28.532099 9.1476764e-041
-94.662392 296.63879 -23.555531 2.3509886e-038
-98.751068 309.45126 -53.015663 2.3509886e-038
-91.823418 302.93118 53.21899 9.1476764e-041
-95.718124 315.78006 18.003376 9.1476764e-041
-94.527214 311.8512 -23.141293 2.3509886e-038
-94.988846 313.37415 -57.819614 2.3509886e-038
-88.742874 309.08356 45.670292 9.1476764e-041
-92.584465 322.46347 -2.4656816 2.3509886e-038
-93.474571 325.56363 -17.389582 2.3509886e-038
-91.079521 317.22189 -62.704235 2.3509886e-038
-85.230667 314.36993 36.194931 9.1476764e-041
-86.03788 317.34732 -66.882004 2.3509886e-038
-81.870079 320.91373 28.013037 2.3509886e-038
-80.231339 314.4902 -69.877983 2.3509886e-038
-76.980583 321.93924 23.434374 2.3509886e-038
-75.795952 316.98499 -73.298347 2.3509886e-038
-66.792625 299.36411 90.350456 2.3418409e-038
-68.194679 305.64816 78.201378 2.3418409e-038
-72.234123 323.7529 23.622305 2.3509886e-038
-71.082329 318.59058 -76.115189 2.3509886e-038
-61.609474 297.46545 93.150299 2.3418409e-038
-66.454498 320.8584 -79.724335 2.3509886e-038
-57.221943 299.41193 89.487869 2.3418409e-038
-62.725521 328.20923 -85.231155 2.3509886e-038
-54.997906 314.06888 72.513809 2.3418409e-038
-57.997662 331.19916 -88.582657 2.3509886e-038
-50.089058 314.80008 38.501404 3.5733111e-043
-53.118484 333.83945 -90.824791 2.3509886e-038
-45.045933 314.75644 27.980196 3.5733111e-043
-49.044273 342.69467 -94.22007 2.3509886e-038
-38.872536 305.81006 48.624523 3.5733111e-043
-44.833862 352.70779 -97.831909 2.3509886e-038
-33.575378 302.17316 80.69323 3.5733111e-043
-39.495327 355.45175 -98.948334 2.3509886e-038
-28.747641 302.24799 84.95282 3.5733111e-043
-33.710587 354.42761 -98.097198 2.3509886e-038
-24.717926 312.44031 17.121067 2.3509528e-038
-27.859068 352.14508 -95.780441 2.3509886e-038
-19.663618 311.5661 13.896301 2.3509528e-038
-21.91251 347.19934 -90.878288 2.3509886e-038
-14.638852 310.72519 14.975568 2.3509528e-038
-15.803087 335.43732 -79.974838 2.3509886e-038
-9.6103144 308.89801 18.33909 2.3509528e-038
-10.131986 325.66577 -63.953957 2.3509886e-038
-4.6284499 306.29022 22.663061 2.3509528e-038
-4.7790279 316.25476 -9.1330051 2.3509886e-038
0.27085695 304.68811 27.584122 2.3509528e-038
0.27805972 312.79053 3.7401617 2.3509886e-038
5.0962138 301.74304 32.724865 2.3509528e-038
5.2387381 310.18176 10.964223 2.3509528e-038
9.8405619 299.20038 37.918163 2.3509528e-038
10.090935 306.81293 17.23959 2.3509528e-038
14.640957 299.46835 42.512157 2.3509528e-038
15.123744 309.34335 24.153683 2.3509528e-038
19.631886 302.54047 45.680511 2.3509528e-038
19.670759 303.13953 31.613335 2.3509528e-038
