# .PCD v0.7 - Point Cloud Data file format
VERSION 0.7
FIELDS x y z rgb
SIZE 4 4 4 4
TYPE F F F F
COUNT 1 1 1 1
WIDTH 685
HEIGHT 1
VIEWPOINT 0 0 0 1 0 0 0
POINTS 685
DATA ascii
0 0 0 2.3418052e-038
-110.80957 301.63928 71.031776 9.1476764e-041
-44.193329 284.34659 74.994736 3.5733111e-043
5.5403686 294.09247 45.708042 2.3509528e-038
-70.464317 305.3363 92.035034 2.3418409e-038
-74.929916 305.53812 94.685715 2.3418409e-038
-71.606346 304.54288 94.377289 2.3418409e-038
-66.725586 304.22171 94.277763 2.3418409e-038
-66.643547 304.23587 94.28215 2.3418409e-038
-76.449432 307.85339 90.540619 2.3418409e-038
-72.0448 306.40759 90.115402 2.3418409e-038
-67.10714 305.96133 89.984154 2.3418409e-038
-64.854622 305.43475 89.829285 2.3418409e-038
-76.946411 310.03021 86.283829 2.3418409e-038
-72.492744 308.31271 85.805832 2.3418409e-038
-67.466087 307.59787 85.606888 2.3418409e-038
-63.100048 304.9209 84.86187 2.3418409e-038
-47.076435 284.31 79.125687 3.5733111e-043
-44.4016 284.34995 79.136803 3.5733111e-043
-41.032227 285.91217 79.571579 3.5733111e-043
-76.80117 311.74869 81.837944 2.3418409e-038
-72.834068 309.76437 81.317047 2.3418409e-038
-67.733826 308.81854 81.068748 2.3418409e-038
-61.999527 304.61072 79.964149 2.3418409e-038
-61.607201 304.05185 79.817429 2.3418409e-038
-48.456501 284.21393 74.609726 3.5733111e-043
-44.254349 283.40695 74.397881 3.5733111e-043
-40.195362 286.38141 75.178719 3.5733111e-043
-38.877098 288.11435 75.633636 3.5733111e-043
-115.58733 301.8511 74.471901 9.1476764e-041
-113.56238 300.99951 74.26181 9.1476764e-041
-108.34928 299.73044 73.9487 9.1476764e-041
-106.239 299.69925 73.94101 9.1476764e-041
-76.127304 312.16678 77.01696 2.3509886e-038
-73.064537 310.7446 76.666077 2.3418409e-038
-68.000038 310.03235 76.490356 2.3418409e-038
-62.485271 306.99725 75.741547 2.3418409e-038
-60.712116 304.71005 75.177261 2.3418409e-038
-48.726555 284.59131 70.213615 3.5733111e-043
-44.118309 282.53574 69.706467 3.5733111e-043
-40.207764 286.46979 70.677063 3.5733111e-043
-37.941628 290.62643 71.702583 3.5733111e-043
-116.67162 304.02899 70.207024 9.1476764e-041
-114.36063 303.1153 69.99604 9.1476764e-041
-109.09959 301.80606 69.693703 9.1476764e-041
-104.40371 302.01208 69.741272 9.1476764e-041
-103.42185 302.40521 69.832054 9.1476764e-041
-75.57959 312.19958 72.093796 2.3509886e-038
-73.213318 311.37735 71.903923 2.3418409e-038
-68.193375 310.91379 71.796883 2.3418409e-038
-62.994934 309.50128 71.470703 2.3418409e-038
-60.273003 306.91141 70.872635 2.3418409e-038
-48.66103 286.05789 66.057098 3.5733111e-043
-44.230267 283.25272 65.409317 3.5733111e-043
-40.3591 287.548 66.401199 3.5733111e-043
-37.491863 293.91837 67.872253 3.5733111e-043
-116.70438 306.71664 65.983017 9.1476764e-041
-115.50589 306.15085 65.861298 9.1476764e-041
-109.97318 304.22272 65.446503 9.1476764e-041
-105.06396 303.92203 65.381821 9.1476764e-041
-101.41943 305.26669 65.671089 9.1476764e-041
-75.532936 313.22443 67.383011 2.3509886e-038
-73.477501 312.50089 67.227364 2.3418409e-038
-68.400826 311.85962 67.089409 2.3418409e-038
-63.449142 311.73285 67.062141 2.3418409e-038
-59.738235 309.285 66.535538 2.3418409e-038
-48.299622 287.49863 61.848701 3.5733111e-043
-44.512558 285.06052 61.3242 3.5733111e-043
-40.636993 289.52795 62.285263 3.5733111e-043
-37.148232 297.80286 64.065422 3.5733111e-043
-116.04877 309.26639 61.646591 9.1476764e-041
-110.88158 306.73563 61.142132 9.1476764e-041
-105.71326 305.80026 60.955681 9.1476764e-041
-101.16533 306.65582 61.126221 9.1476764e-041
-99.306229 307.99219 61.392601 9.1476764e-041
-75.779411 315.24933 62.83918 2.3509886e-038
-73.928795 314.42029 62.673927 2.3418409e-038
-68.712456 313.28046 62.446724 2.3418409e-038
-63.816525 313.53784 62.498024 2.3418409e-038
-58.604221 310.03857 61.80051 2.3418409e-038
-48.021839 290.00171 57.806534 3.5733111e-043
-45.05547 288.53738 57.514641 3.5733111e-043
-41.061535 292.55267 58.315022 3.5733111e-043
-37.358799 299.92407 59.78437 3.5733111e-043
-36.811607 301.43137 60.08482 3.5733111e-043
-114.68098 310.81781 57.046413 9.1476764e-041
-111.70476 309.01282 56.715134 9.1476764e-041
-106.30753 307.51935 56.441025 9.1476764e-041
-101.60709 307.9949 56.528309 9.1476764e-041
-97.450584 310.25 56.942204 9.1476764e-041
-97.016403 310.76794 57.037262 9.1476764e-041
-75.810028 317.52551 58.277523 2.3509886e-038
-74.486252 316.79114 58.142738 2.3509886e-038
-69.090813 315.00549 57.815002 2.3418409e-038
-64.09816 314.92154 57.799595 2.3418409e-038
-58.467918 311.42743 57.158302 2.3418409e-038
-57.303936 309.62949 56.828316 2.3418409e-038
-48.317982 294.63141 54.075623 3.5733111e-043
-45.834793 293.5282 53.873138 3.5733111e-043
-41.551441 296.04312 54.334721 3.5733111e-043
-37.571533 301.63199 55.360477 3.5733111e-043
-36.350819 303.94052 55.78418 3.5733111e-043
-112.62462 311.11752 52.187252 9.1476764e-041
-112.4203 310.99228 52.166241 9.1476764e-041
-106.86803 309.14072 51.855659 9.1476764e-041
-102.11038 309.52048 51.919365 9.1476764e-041
-97.702286 311.05136 52.176155 9.1476764e-041
-94.65168 313.10956 52.521397 9.1476764e-041
-75.396133 319.31918 53.563011 2.3509886e-038
-75.0242 319.07907 53.522732 2.3509886e-038
-69.450729 316.64642 53.114677 2.3418409e-038
-64.337067 316.09534 53.022236 2.3418409e-038
-58.845238 313.43723 52.576363 2.3418409e-038
-56.605103 310.48126 52.080524 2.3418409e-038
-49.03413 299.98169 50.319313 2.3418409e-038
-46.612213 298.50684 50.071918 2.3418409e-038
-41.959904 298.95334 50.146816 3.5733111e-043
-37.708508 302.7316 50.780586 3.5733111e-043
-35.70594 305.45221 51.236942 3.5733111e-043
3.2149885 294.00555 49.316868 2.3509528e-038
5.1666512 293.6246 49.252968 2.3509528e-038
8.9890041 294.19839 49.349216 2.3509528e-038
-110.6225 312.04663 47.414249 2.3509886e-038
-107.53325 311.065 47.265099 9.1476764e-041
-102.62313 311.07474 47.266575 9.1476764e-041
-98.005318 312.01611 47.409615 9.1476764e-041
-93.519012 313.49799 47.634781 9.1476764e-041
-92.384232 314.18851 47.739704 9.1476764e-041
-74.706108 320.38882 48.681816 2.3509886e-038
-69.776375 318.13113 48.338772 2.3418409e-038
-64.585197 317.31442 48.214676 2.3418409e-038
-59.238029 315.52942 47.943447 2.3418409e-038
-56.644463 312.95587 47.552406 2.3418409e-038
-49.842369 305.12805 46.362999 2.3418409e-038
-47.324509 303.06839 46.050045 2.3418409e-038
-42.312073 301.46243 45.806026 3.5733111e-043
-37.803268 303.4924 46.114471 3.5733111e-043
-35.052979 306.40601 46.557186 3.5733111e-043
-0.68349338 295.44153 44.891174 2.3509528e-038
0.53141141 295.07675 44.835751 2.3509528e-038
5.1803069 294.40067 44.733017 2.3509528e-038
9.6423025 295.69336 44.92944 2.3509528e-038
-108.91706 314.15814 42.772907 2.3509886e-038
-108.54326 313.98669 42.749565 2.3509886e-038
-103.20855 312.84927 42.594704 9.1476764e-041
-98.30928 312.98383 42.613022 9.1476764e-041
-93.66951 314.0025 42.751717 9.1476764e-041
-90.831917 315.92142 43.012981 9.1476764e-041
-73.943672 321.34338 43.751186 2.3509886e-038
-70.087715 319.55066 43.507103 2.3509886e-038
-64.829552 318.51498 43.366093 2.3418409e-038
-59.643467 317.68896 43.253635 2.3418409e-038
-57.027546 316.05194 43.03075 2.3418409e-038
-50.70713 310.0759 42.21711 2.3418409e-038
-48.007008 307.43915 41.858112 2.3418409e-038
-42.704002 304.25482 41.424564 3.5733111e-043
-37.974331 304.86572 41.507736 3.5733111e-043
-34.637119 307.66983 41.889519 3.5733111e-043
-3.4591994 296.95169 40.430233 2.3509528e-038
0.5334326 296.19907 40.327763 2.3509528e-038
5.2117643 296.18845 40.326317 2.3509528e-038
8.9073648 297.56216 40.513348 2.3509528e-038
-107.37951 316.60266 38.104908 2.3509886e-038
-103.97554 315.17422 37.932987 9.1476764e-041
-98.685791 314.18253 37.813633 9.1476764e-041
-94.00618 315.1311 37.927799 9.1476764e-041
-89.910561 318.25284 38.303516 9.1476764e-041
-89.710663 318.47559 38.330322 9.1476764e-041
-73.45932 323.12555 38.889973 2.3509886e-038
-70.491028 321.3895 38.681034 2.3509886e-038
-65.070633 319.6994 38.477623 2.3509886e-038
-59.936054 319.24744 38.423222 2.3509886e-038
-57.075207 318.34732 38.314892 2.3418409e-038
-51.760258 314.44287 37.844967 2.3418409e-038
-48.593719 311.19647 37.454243 3.5733111e-043
-43.09248 307.02264 36.9519 3.5733111e-043
-38.175999 306.48477 36.887165 3.5733111e-043
-34.445675 308.42004 37.120087 3.5733111e-043
-6.1788874 299.37085 36.030968 2.3509528e-038
-4.1821327 298.84479 35.967648 2.3509528e-038
0.53814816 298.81744 35.964359 2.3509528e-038
5.2692842 299.45734 36.041374 2.3509528e-038
7.4189634 300.17258 36.127457 2.3509528e-038
-106.05515 319.14148 33.369572 2.3509886e-038
-105.04092 318.40363 33.292423 2.3509886e-038
-99.181145 315.75955 33.015957 9.1476764e-041
-94.400101 316.4516 33.088318 9.1476764e-041
-90.304543 319.6474 33.42247 9.1476764e-041
-88.255692 321.8728 33.655159 9.1476764e-041
-73.864136 326.48621 34.137539 2.3509886e-038
-71.133575 324.31903 33.910938 2.3509886e-038
-65.417564 321.40393 33.606133 2.3509886e-038
-60.202908 320.66882 33.52927 2.3509886e-038
-55.088684 319.80371 33.438816 2.3509886e-038
-54.871159 319.69638 33.427593 2.3509886e-038
-49.137405 314.67828 32.902897 3.5733111e-043
-43.499012 309.91907 32.405273 3.5733111e-043
-38.434231 308.55786 32.262943 3.5733111e-043
-34.493645 309.75964 32.388607 3.5733111e-043
-9.3439121 301.16446 31.489887 2.3509528e-038
-8.9665766 300.99771 31.472452 2.3509528e-038
-4.2018142 300.25116 31.394392 2.3509528e-038
0.54309702 301.56543 31.531815 2.3509528e-038
5.1433311 303.95209 31.781364 2.3509528e-038
-104.28172 320.39157 28.439625 2.3509886e-038
-99.766663 317.62366 28.19393 9.1476764e-041
-94.742538 317.59955 28.19179 9.1476764e-041
-90.491432 320.30893 28.432289 9.1476764e-041
-86.579102 324.60944 28.814026 9.1476764e-041
-85.436348 326.7117 29.000635 9.1476764e-041
-75.870201 329.97824 29.290586 2.3509886e-038
-71.65078 326.67715 28.997566 2.3509886e-038
-65.808662 323.32547 28.700052 2.3509886e-038
-60.492455 322.21109 28.601135 2.3509886e-038
-55.3535 321.92288 28.57555 2.3509886e-038
-49.626705 317.81177 28.210627 2.3509886e-038
-43.953651 313.15823 27.797558 3.5733111e-043
-38.788815 311.40454 27.641891 3.5733111e-043
-34.582672 312.89688 27.774359 3.5733111e-043
-13.066084 303.86328 26.97249 2.3509528e-038
-8.9924421 301.866 26.795198 2.3509528e-038
-4.2189789 301.47769 26.760731 2.3509528e-038
0.54726958 303.88232 26.974178 2.3509528e-038
2.3802176 305.72366 27.137627 2.3509528e-038
-102.14154 320.52039 23.388369 2.3509886e-038
-100.34323 319.45926 23.31094 2.3509886e-038
-95.069588 318.69589 23.255236 2.3509886e-038
-90.519112 320.40692 23.380089 9.1476764e-041
-86.204811 323.20612 23.584347 9.1476764e-041
-82.006844 326.82135 23.84815 2.3509886e-038
-77.15155 328.12671 23.943401 2.3509886e-038
-71.636879 326.61374 23.833 2.3509886e-038
-66.055214 324.53677 23.681444 2.3509886e-038
-60.711922 323.38007 23.59704 2.3509886e-038
-55.491283 322.72418 23.549181 2.3509886e-038
-49.944405 319.84634 23.339182 2.3509886e-038
-44.377159 316.17563 23.071331 2.3509886e-038
-39.184811 314.58368 22.955168 2.3509886e-038
-34.450409 316.73996 23.112509 2.3509886e-038
-33.942623 317.186 23.14506 2.3509886e-038
-17.473076 310.18674 22.634323 2.3509528e-038
-14.011705 307.37686 22.429285 2.3509528e-038
-9.0800657 304.80743 22.241793 2.3509528e-038
-4.2553673 304.07791 22.188562 2.3509528e-038
-0.21648854 306.05014 22.332476 2.3509528e-038
-99.936684 319.29752 18.255762 2.3509886e-038
-95.338318 319.59674 18.272869 2.3509886e-038
-90.565102 320.5697 18.328497 2.3509886e-038
-85.906548 322.08786 18.415298 2.3509886e-038
-81.271332 323.89014 18.518343 2.3509886e-038
-76.459595 325.18381 18.59231 2.3509886e-038
-71.388786 325.48264 18.609396 2.3509886e-038
-66.13974 324.95206 18.579058 2.3509886e-038
-60.843582 324.08136 18.529278 2.3509886e-038
-55.536575 322.98758 18.466742 2.3509886e-038
-50.096931 320.82312 18.342989 2.3509886e-038
-44.661015 318.19806 18.1929 2.3509886e-038
-39.501637 317.12723 18.131676 2.3509886e-038
-34.616707 318.26895 18.196953 2.3509886e-038
-29.830458 318.94534 18.235626 2.3509886e-038
-24.315929 315.96698 18.065338 2.3509528e-038
-19.19993 312.80453 17.884529 2.3509528e-038
-14.159633 310.62198 17.759741 2.3509528e-038
-9.206604 309.05518 17.670158 2.3509528e-038
-4.3140373 308.27036 17.625288 2.3509528e-038
-2.5764325 308.7641 17.653515 2.3509528e-038
-97.372849 313.48856 12.972014 2.3509886e-038
-94.886215 318.08118 13.162055 2.3509886e-038
-90.51239 320.38309 13.257308 2.3509886e-038
-85.809105 321.7225 13.312732 2.3509886e-038
-81.070084 323.08807 13.369239 2.3509886e-038
-76.252823 324.30441 13.419569 2.3509886e-038
-71.295097 325.05545 13.450647 2.3509886e-038
-66.1894 325.19604 13.456466 2.3509886e-038
-60.975636 324.78473 13.439445 2.3509886e-038
-55.680908 323.827 13.399816 2.3509886e-038
-50.259354 321.86325 13.318557 2.3509886e-038
-44.863449 319.64032 13.226571 2.3509886e-038
-39.667759 318.46088 13.177768 2.3509886e-038
-34.610252 318.20959 13.167369 2.3509886e-038
-29.513052 317.44568 13.135758 2.3509528e-038
-24.367928 315.74814 13.065516 2.3509528e-038
-19.294573 314.34647 13.007515 2.3509528e-038
-14.306034 313.83359 12.986292 2.3509528e-038
-9.3481541 313.80682 12.985185 2.3509528e-038
-4.826437 313.91623 12.989712 2.3509528e-038
-91.866341 291.27786 7.452158 2.3509886e-038
-91.913353 292.62131 7.4865294 2.3509886e-038
-91.976585 308.32739 7.88836 2.3509886e-038
-89.681717 317.44281 8.1215715 2.3509886e-038
-85.638161 321.08157 8.2146664 2.3509886e-038
-81.060287 323.04907 8.2650032 2.3509886e-038
-76.34269 324.68658 8.3068991 2.3509886e-038
-71.445419 325.74084 8.3338709 2.3509886e-038
-66.358932 326.02896 8.3412428 2.3509886e-038
-61.168182 325.8103 8.3356485 2.3509886e-038
-55.909668 325.15741 8.318944 2.3509886e-038
-50.504505 323.43326 8.2748327 2.3509886e-038
-45.118423 321.45697 8.2242708 2.3509886e-038
-39.860336 320.00696 8.1871738 2.3509886e-038
-34.681194 318.86182 8.1578751 2.3509886e-038
-29.529995 317.6279 8.1263075 2.3509886e-038
-24.433865 316.60248 8.1000719 2.3509528e-038
-19.399038 316.0484 8.0858965 2.3509528e-038
-14.439259 316.75616 8.1040039 2.3509528e-038
-9.5004253 318.9184 8.1593237 2.3509528e-038
-6.9919667 320.73914 8.2059069 2.3509528e-038
-87.614571 266.85666 2.6122973 2.3509886e-038
-86.176056 274.35568 2.6857061 2.3509886e-038
-87.021774 291.71771 2.8556654 2.3509886e-038
-87.140495 308.44775 3.019438 2.3509886e-038
-84.769699 317.82547 3.111238 2.3509886e-038
-80.835411 322.15286 3.1535993 2.3509886e-038
-76.328606 324.62671 3.1778164 2.3509886e-038
-71.531456 326.13309 3.1925623 2.3509886e-038
-66.483551 326.64124 3.1975367 2.3509886e-038
-61.309742 326.56433 3.196784 2.3509886e-038
-56.067192 326.07352 3.1919794 2.3509886e-038
-50.713879 324.77408 3.1792588 2.3509886e-038
-45.372898 323.27002 3.1645353 2.3509886e-038
-40.091671 321.86417 3.1507733 2.3509886e-038
-34.848343 320.39859 3.1364267 2.3509886e-038
-29.652266 318.94308 3.1221783 2.3509886e-038
-24.527296 317.81314 3.1111174 2.3509528e-038
-19.475206 317.28937 3.1059899 2.3509528e-038
-14.518852 318.50223 3.1178629 2.3509528e-038
-9.6106329 322.61795 3.1581523 2.3509528e-038
-8.7942972 323.92972 3.1709933 2.3509528e-038
-87.824692 265.4899 -1.5945539 2.3509886e-038
-87.550491 265.38605 -1.59393 2.3509886e-038
-83.946777 267.25842 -1.6051759 2.3509886e-038
-82.812088 277.60583 -1.6673232 2.3509886e-038
-83.338341 294.98941 -1.7717303 2.3509886e-038
-82.90094 310.81897 -1.866804 2.3509886e-038
-80.186691 319.56754 -1.9193485 2.3509886e-038
-76.042572 323.41019 -1.9424279 2.3509886e-038
-71.349373 325.30292 -1.9537958 2.3509886e-038
-66.397842 326.22015 -1.9593048 2.3509886e-038
-61.300526 326.51526 -1.9610771 2.3509886e-038
-56.085846 326.18204 -1.9590757 2.3509886e-038
-50.808815 325.38205 -1.954271 2.3509886e-038
-45.530823 324.39517 -1.9483439 2.3509886e-038
-40.260006 323.21558 -1.9412589 2.3509886e-038
-35.003235 321.82269 -1.9328933 2.3509886e-038
-29.784042 320.36047 -1.924111 2.3509886e-038
-24.616739 318.97208 -1.9157722 2.3509886e-038
-19.531118 318.20026 -1.9111365 2.3509886e-038
-14.551916 319.22754 -1.9173065 2.3509528e-038
-9.9808578 323.32425 -1.9419118 2.3509886e-038
-89.035912 271.45004 -5.9179645 2.3509886e-038
-84.840462 270.10361 -5.8886104 2.3509886e-038
-81.297264 272.52777 -5.9414606 2.3509886e-038
-80.050522 283.35162 -6.1774349 2.3509886e-038
-80.464539 301.68423 -6.5771089 2.3509886e-038
-79.10569 315.25943 -6.8730659 2.3509886e-038
-75.577347 321.43161 -7.007628 2.3509886e-038
-71.034851 323.8689 -7.0607638 2.3509886e-038
-66.195305 325.22507 -7.0903296 2.3509886e-038
-61.184513 325.89731 -7.1049857 2.3509886e-038
-56.02412 325.82303 -7.1033664 2.3509886e-038
-50.823689 325.47729 -7.095829 2.3509886e-038
-45.587349 324.79794 -7.081018 2.3509886e-038
-40.335178 323.81906 -7.0596776 2.3509886e-038
-35.111893 322.82172 -7.0379333 2.3509886e-038
-29.911413 321.7305 -7.0141439 2.3509886e-038
-24.714008 320.23245 -6.9814844 2.3509886e-038
-19.595772 319.2536 -6.960144 2.3509886e-038
-14.578742 319.81601 -6.9724054 2.3509886e-038
-10.572937 322.28146 -7.0261555 2.3509886e-038
-90.307121 278.65796 -10.476571 2.3509886e-038
-86.871712 276.57043 -10.398088 2.3509886e-038
-81.704002 273.89127 -10.297359 2.3509886e-038
-78.591309 278.18652 -10.458847 2.3509886e-038
-78.409424 293.979 -11.052588 2.3509886e-038
-77.841278 310.2204 -11.663209 2.3509886e-038
-75.074432 319.29269 -12.004295 2.3509886e-038
-70.805832 322.82477 -12.137089 2.3509886e-038
-66.065598 324.58777 -12.203371 2.3509886e-038
-61.082943 325.35629 -12.232266 2.3509886e-038
-55.964092 325.47394 -12.236689 2.3509886e-038
-50.803307 325.3468 -12.231909 2.3509886e-038
-45.579208 324.73993 -12.209092 2.3509886e-038
-40.35865 324.00751 -12.181556 2.3509886e-038
-35.193707 323.57391 -12.165255 2.3509886e-038
-30.019932 322.89774 -12.139832 2.3509886e-038
-24.799662 321.34232 -12.081354 2.3509886e-038
-19.651827 320.16684 -12.03716 2.3509886e-038
-14.602193 320.33047 -12.043312 2.3509886e-038
-10.798186 321.91104 -12.102736 2.3509886e-038
-91.036156 283.5892 -15.141313 2.3509886e-038
-88.512909 281.79547 -15.045543 2.3509886e-038
-82.782814 277.50769 -14.81661 2.3509886e-038
-78.691833 278.54233 -14.871852 2.3509886e-038
-77.495171 290.55121 -15.513026 2.3509886e-038
-76.964607 306.72656 -16.376656 2.3509886e-038
-74.647224 317.47577 -16.950573 2.3509886e-038
-70.636932 322.05472 -17.195051 2.3509886e-038
-65.990723 324.21991 -17.310656 2.3509886e-038
-61.042355 325.14008 -17.359785 2.3509886e-038
-55.948231 325.38168 -17.372684 2.3509886e-038
-50.766193 325.1091 -17.35813 2.3509886e-038
-45.524345 324.34906 -17.317551 2.3509886e-038
-40.34227 323.87604 -17.292295 2.3509886e-038
-35.21508 323.77045 -17.286657 2.3509886e-038
-30.021618 322.91586 -17.24103 2.3509886e-038
-24.780695 321.09653 -17.143894 2.3509886e-038
-19.638893 319.95609 -17.083002 2.3509886e-038
-14.602951 320.34711 -17.103878 2.3509886e-038
-10.869981 322.30231 -17.208271 2.3509886e-038
-92.165062 288.57147 -19.965384 2.3509886e-038
-90.107742 286.87286 -19.847862 2.3509886e-038
-84.108559 281.95193 -19.507399 2.3509886e-038
-79.499489 281.40118 -19.469294 2.3509886e-038
-77.424561 290.28647 -20.08404 2.3509886e-038
-76.454369 304.69315 -21.080791 2.3509886e-038
-74.151199 315.36618 -21.819229 2.3509886e-038
-70.28669 320.45786 -22.171505 2.3509886e-038
-65.778778 323.17862 -22.359747 2.3509886e-038
-60.943844 324.61539 -22.459152 2.3509886e-038
-55.895409 325.07449 -22.490917 2.3509886e-038
-50.716564 324.79129 -22.471321 2.3509886e-038
-45.495735 324.1452 -22.426622 2.3509886e-038
-40.342426 323.87729 -22.408085 2.3509886e-038
-35.204124 323.66971 -22.393724 2.3509886e-038
-29.968077 322.34 -22.301723 2.3509886e-038
-24.712164 320.20856 -22.154257 2.3509886e-038
-19.590574 319.16888 -22.082327 2.3509886e-038
-14.598973 320.25983 -22.157804 2.3509886e-038
-10.902934 323.16852 -22.359049 2.3509886e-038
-94.049294 294.94318 -25.064905 2.3509886e-038
-92.00396 292.90976 -24.892101 2.3509886e-038
-85.525536 286.70193 -24.364548 2.3509886e-038
-80.407806 284.61633 -24.187305 2.3509886e-038
-77.568901 290.82767 -24.715158 2.3509886e-038
-75.897675 302.47452 -25.704935 2.3509886e-038
-73.353851 311.97504 -26.512308 2.3509886e-038
-69.629753 317.46265 -26.978659 2.3509886e-038
-65.366478 321.15292 -27.292267 2.3509886e-038
-60.742474 323.54282 -27.495363 2.3509886e-038
-55.805878 324.5538 -27.581278 2.3509886e-038
-50.68906 324.61514 -27.586494 2.3509886e-038
-45.514015 324.27542 -27.557623 2.3509886e-038
-40.361179 324.02783 -27.536583 2.3509886e-038
-35.182434 323.47031 -27.489201 2.3509886e-038
-29.917339 321.79425 -27.346766 2.3509886e-038
-24.66555 319.60455 -27.160683 2.3509886e-038
-19.566927 318.78363 -27.090918 2.3509886e-038
-14.61462 320.60309 -27.245541 2.3509886e-038
-10.941803 324.31229 -27.560755 2.3509886e-038
-95.60453 300.13373 -30.246679 2.3509886e-038
-93.55323 297.84213 -30.015739 2.3509886e-038
-86.655937 290.49133 -29.274944 2.3509886e-038
-81.144531 287.22409 -28.945677 2.3509886e-038
-77.621651 291.02542 -29.328768 2.3509886e-038
-75.133698 299.42987 -30.175743 2.3509886e-038
-72.197021 307.05499 -30.944183 2.3509886e-038
-68.574387 312.65091 -31.508125 2.3509886e-038
-64.647125 317.61868 -32.008762 2.3509886e-038
-60.394314 321.68832 -32.418892 2.3509886e-038
-55.687088 323.86295 -32.638042 2.3509886e-038
-50.668644 324.48441 -32.700672 2.3509886e-038
-45.52301 324.33954 -32.686073 2.3509886e-038
-40.351059 323.94656 -32.646473 2.3509886e-038
-35.141109 323.09033 -32.560184 2.3509886e-038
-29.879833 321.39081 -32.388912 2.3509886e-038
-24.660614 319.54059 -32.20245 2.3509886e-038
-19.591993 319.19202 -32.167324 2.3509886e-038
-14.652614 321.43655 -32.39352 2.3509886e-038
-10.978241 325.32855 -32.785744 2.3509886e-038
-96.111092 302.84244 -35.303131 2.3509886e-038
-94.543205 300.9939 -35.087639 2.3509886e-038
-87.458351 293.18121 -34.176895 2.3509886e-038
-81.756264 289.3894 -33.734875 2.3509886e-038
-77.660576 291.17139 -33.942604 2.3509886e-038
-74.375877 296.40973 -34.553253 2.3509886e-038
-70.946671 301.73724 -35.174294 2.3509886e-038
-67.274231 306.72311 -35.755512 2.3509886e-038
-63.621044 312.57742 -36.437962 2.3509886e-038
-59.819942 318.62897 -37.143406 2.3509886e-038
-55.462101 322.55447 -37.601013 2.3509886e-038
-50.59108 323.9877 -37.768089 2.3509886e-038
-45.47913 324.02689 -37.772655 2.3509886e-038
-40.299137 323.52972 -37.714703 2.3509886e-038
-35.082653 322.55289 -37.600826 2.3509886e-038
-29.847683 321.04501 -37.425049 2.3509886e-038
-24.67662 319.74802 -37.273857 2.3509886e-038
-19.642786 320.01953 -37.305508 2.3509886e-038
-14.694145 322.34766 -37.576904 2.3509886e-038
-11.01296 325.80099 -37.979465 2.3509886e-038
-95.878914 305.20798 -40.3997 2.3509886e-038
-95.858978 305.18286 -40.396378 2.3509886e-038
-88.474686 296.58823 -39.25872 2.3509886e-038
-82.506439 292.04477 -38.657314 2.3509886e-038
-77.868996 291.95279 -38.645142 2.3509886e-038
-73.896767 294.50034 -38.982349 2.3509886e-038
-70.021507 297.80255 -39.41946 2.3509886e-038
-66.206696 301.85593 -39.955997 2.3509886e-038
-62.620872 307.66348 -40.724728 2.3509886e-038
-59.086124 314.72031 -41.658825 2.3509886e-038
-55.080605 320.33578 -42.402134 2.3509886e-038
-50.427807 322.94205 -42.74712 2.3509886e-038
-45.399048 323.45633 -42.815193 2.3509886e-038
-40.23597 323.02261 -42.757782 2.3509886e-038
-35.027718 322.04776 -42.628746 2.3509886e-038
-29.824728 320.7981 -42.463329 2.3509886e-038
-24.699566 320.04529 -42.363686 2.3509886e-038
-19.695147 320.87259 -42.47319 2.3509886e-038
-14.735465 323.25409 -42.788425 2.3509886e-038
-11.17325 326.1051 -43.165806 2.3509886e-038
-94.515663 307.254 -45.523685 2.3509886e-038
-90.098534 302.03174 -44.749939 2.3509886e-038
-83.664467 296.1438 -43.877563 2.3509886e-038
-78.365494 293.81433 -43.532425 2.3509886e-038
-73.801079 294.11896 -43.57756 2.3509886e-038
-69.611992 296.06082 -43.865273 2.3509886e-038
-65.686829 299.48572 -44.372711 2.3509886e-038
-62.029888 304.75989 -45.154152 2.3509886e-038
-58.488907 311.53925 -46.158596 2.3509886e-038
-54.673115 317.96591 -47.110794 2.3509886e-038
-50.232128 321.68893 -47.662407 2.3509886e-038
-45.308598 322.81189 -47.828789 2.3509886e-038
-40.167961 322.47662 -47.779118 2.3509886e-038
-34.981594 321.62375 -47.652752 2.3509886e-038
-29.830259 320.8576 -47.539238 2.3509886e-038
-24.751823 320.72244 -47.519211 2.3509886e-038
-19.764896 322.00897 -47.709827 2.3509886e-038
-14.806106 324.80374 -48.123909 2.3509886e-038
-11.725762 327.3291 -48.498074 2.3509886e-038
-92.480171 310.47083 -50.904243 2.3509886e-038
-85.566536 302.87646 -49.659088 2.3509886e-038
-79.328194 297.42374 -48.765072 2.3509886e-038
-74.102905 295.32184 -48.420444 2.3509886e-038
-69.630768 296.14069 -48.554703 2.3509886e-038
-65.579094 298.99451 -49.022606 2.3509886e-038
-61.775452 303.50983 -49.762932 2.3509886e-038
-58.112457 309.53409 -50.75066 2.3509886e-038
-54.361492 316.15359 -51.835979 2.3509886e-038
-50.086395 320.75565 -52.590523 2.3509886e-038
-45.256042 322.43744 -52.866268 2.3509886e-038
-40.138805 322.24255 -52.834316 2.3509886e-038
-34.993111 321.72964 -52.750217 2.3509886e-038
-29.90201 321.62933 -52.733776 2.3509886e-038
-24.844139 321.91864 -52.781204 2.3509886e-038
-19.849489 323.38712 -53.021976 2.3509886e-038
-14.89467 326.74661 -53.572792 2.3509886e-038
-12.834475 328.88455 -53.923325 2.3509886e-038
-90.07515 315.16861 -56.65263 2.3509886e-038
-88.408707 312.93677 -56.25145 2.3509886e-038
-80.945534 303.48761 -54.552933 2.3509886e-038
-74.857414 298.3288 -53.625618 2.3509886e-038
-69.983711 297.64178 -53.502125 2.3509886e-038
-65.75 299.77374 -53.885353 2.3509886e-038
-61.777981 303.52222 -54.559155 2.3509886e-038
-57.975086 308.8024 -55.508282 2.3509886e-038
-54.201389 315.22247 -56.662315 2.3509886e-038
-50.034763 320.42502 -57.597488 2.3509886e-038
-45.301926 322.76437 -58.017994 2.3509886e-038
-40.220039 322.89471 -58.041428 2.3509886e-038
-35.09259 322.64423 -57.996399 2.3509886e-038
-30.020979 322.909 -58.043995 2.3509886e-038
-24.964556 323.47894 -58.146439 2.3509886e-038
-19.975159 325.43457 -58.497974 2.3509886e-038
-15.036423 329.85623 -59.292786 2.3509886e-038
-14.504187 330.59351 -59.425308 2.3509886e-038
-85.826515 315.67963 -61.730736 2.3509886e-038
-83.11306 311.61429 -60.935757 2.3509886e-038
-76.142197 303.44904 -59.339054 2.3509886e-038
-70.783051 301.04135 -58.868237 2.3509886e-038
-66.286705 302.22073 -59.098862 2.3509886e-038
-62.112015 305.16339 -59.674294 2.3509886e-038
-58.134293 309.65039 -60.551723 2.3509886e-038
-54.246078 315.48239 -61.692158 2.3509886e-038
-50.090412 320.78137 -62.728374 2.3509886e-038
-45.423027 323.62717 -63.284866 2.3509886e-038
-40.374123 324.13171 -63.383526 2.3509886e-038
-35.236824 323.97034 -63.351967 2.3509886e-038
-30.15638 324.36539 -63.429214 2.3509886e-038
-25.124723 325.55432 -63.661709 2.3509886e-038
-20.185627 328.86349 -64.308823 2.3509886e-038
-16.332661 333.72296 -65.259079 2.3509886e-038
-79.501663 312.02823 -65.945244 2.3509886e-038
-77.926079 310.55832 -65.63459 2.3509886e-038
-72.394363 307.89432 -65.071579 2.3509886e-038
-67.546471 307.96436 -65.086372 2.3509886e-038
-62.956154 309.31073 -65.370926 2.3509886e-038
-58.666748 312.48651 -66.042107 2.3509886e-038
-54.582153 317.43689 -67.088333 2.3509886e-038
-50.330692 322.32013 -68.120384 2.3509886e-038
-45.647896 325.22931 -68.735222 2.3509886e-038
-40.603172 325.97058 -68.891884 2.3509886e-038
-35.45565 325.98224 -68.894341 2.3509886e-038
-30.380943 326.78082 -69.063118 2.3509886e-038
-25.397425 329.08786 -69.55069 2.3509886e-038
-20.507219 334.10287 -70.610588 2.3509886e-038
-18.141674 337.82693 -71.397644 2.3509886e-038
-74.383202 319.87463 -72.656044 2.3509886e-038
-69.770988 318.10663 -72.254456 2.3509886e-038
-64.42318 316.51843 -71.893715 2.3509886e-038
-59.643673 317.69006 -72.159843 2.3509886e-038
-55.305 321.64081 -73.057213 2.3509886e-038
-50.901108 325.97308 -74.041237 2.3509886e-038
-46.150864 328.81281 -74.686249 2.3509886e-038
-41.084129 329.83182 -74.917702 2.3509886e-038
-35.932171 330.36343 -75.038452 2.3509886e-038
-30.889574 332.25171 -75.467354 2.3509886e-038
-25.959614 336.37244 -76.403336 2.3509886e-038
-21.067772 343.23538 -77.962181 2.3509886e-038
-20.351982 344.50311 -78.25013 2.3509886e-038
-68.186569 327.05133 -79.451988 2.3509886e-038
-66.343422 325.95276 -79.185104 2.3509886e-038
-61.067429 325.27365 -79.020126 2.3509886e-038
-56.418026 328.11392 -79.710121 2.3509886e-038
-51.839794 331.9845 -80.650421 2.3509886e-038
-47.061054 335.2977 -81.455307 2.3509886e-038
-42.00507 337.22528 -81.923584 2.3509886e-038
-36.839512 338.70557 -82.283195 2.3509886e-038
-31.818636 342.24481 -83.142998 2.3509886e-038
-26.954964 349.26968 -84.849579 2.3509886e-038
-23.812441 355.27173 -86.307686 2.3509886e-038
-58.531368 335.28033 -86.746933 2.3509886e-038
-57.719776 335.68457 -86.851517 2.3509886e-038
-52.950459 339.09723 -87.734474 2.3509886e-038
-48.266117 343.88345 -88.972809 2.3509886e-038
-43.34869 348.01215 -90.041023 2.3509886e-038
-38.147675 350.73291 -90.744972 2.3509886e-038
-33.000126 354.95303 -91.83683 2.3509886e-038
-30.252367 359.35074 -92.974655 2.3509886e-038
-113.27473 300.23712 76.401268 9.1476764e-041
-116.36296 308.42255 63.250027 9.1476764e-041
-108.13313 299.13251 75.554764 9.1476764e-041
-112.47125 311.13321 51.839798 9.1476764e-041
-104.21207 301.45773 71.233124 9.1476764e-041
-108.703 314.44876 42.175301 2.3509886e-038
-100.95117 306.00665 64.660614 9.1476764e-041
-105.49823 319.78986 31.626236 2.3509886e-038
-87.556374 265.4039 1.6001788 2.3509886e-038
-88.28791 267.62134 -3.4819274 2.3509886e-038
-97.429237 310.18207 57.839218 9.1476764e-041
-100.4588 319.82718 19.479145 2.3509886e-038
-92.925667 295.84421 8.2590227 2.3509886e-038
-95.872917 305.22726 -40.442589 2.3509886e-038
-93.537735 313.56076 50.3414 9.1476764e-041
-92.565376 310.30118 -50.689919 2.3509886e-038
-89.859253 318.07123 38.921753 9.1476764e-041
-89.244179 315.89407 -57.999432 2.3509886e-038
-86.624985 324.78146 30.563469 9.1476764e-041
-83.861794 314.42148 -63.116817 2.3509886e-038
-82.657707 329.41525 26.945608 2.3509886e-038
-78.347092 312.23618 -66.923744 2.3509886e-038
-71.468155 303.95511 97.880142 2.3418409e-038
-75.181503 319.74808 51.912605 2.3509886e-038
-77.71331 330.51587 27.372421 2.3509886e-038
-74.893791 318.52441 -71.793388 2.3509886e-038
-66.717224 304.18356 94.414566 2.3418409e-038
-71.324005 325.18726 -76.752609 2.3509886e-038
-61.9076 304.15909 80.958412 2.3418409e-038
-66.703011 327.71951 -80.555893 2.3509886e-038
-58.184849 309.91968 60.278942 2.3418409e-038
-62.191593 331.26147 -84.04821 2.3509886e-038
-54.985569 319.78305 33.378502 2.3509886e-038
-57.797138 336.13449 -87.270622 2.3509886e-038
-44.444431 284.62424 81.225853 3.5733111e-043
-53.301655 341.34631 -89.929741 2.3509886e-038
-40.223106 286.5791 78.53447 3.5733111e-043
-48.858032 348.10068 -92.387558 2.3509886e-038
-37.127125 298.06418 63.809307 3.5733111e-043
-44.083698 353.91299 -94.134499 2.3509886e-038
-34.331104 315.6431 24.833321 3.5733111e-043
-38.754711 356.31409 -94.522369 2.3509886e-038
-29.64554 318.87073 18.137428 2.3509886e-038
-33.268433 357.83896 -93.850052 2.3509886e-038
-24.388153 316.01016 18.033937 2.3509528e-038
-27.760719 359.7103 -91.439156 2.3509886e-038
-19.160622 312.16412 21.203039 2.3509528e-038
-21.375614 348.2507 -81.029297 2.3509886e-038
-13.901473 304.95868 26.066999 2.3509528e-038
-15.107027 331.40509 -61.292351 2.3509886e-038
-8.967082 301.01468 31.986437 2.3509528e-038
-9.6437082 323.72827 -0.21971081 2.3509886e-038
-4.1640015 297.54916 39.25779 2.3509528e-038
-4.3749685 312.62433 13.94588 2.3509528e-038
0.53127378 295.00034 46.565025 2.3509528e-038
0.55067712 305.77441 23.809118 2.3509528e-038
5.1657195 293.57166 50.517159 2.3509528e-038
5.3436141 303.68155 32.111794 2.3509528e-038
