# .PCD v0.7 - Point Cloud Data file format
VERSION 0.7
FIELDS x y z rgb
SIZE 4 4 4 4
TYPE F F F F
COUNT 1 1 1 1
WIDTH 560
HEIGHT 1
VIEWPOINT 0 0 0 1 0 0 0
POINTS 560
DATA ascii
0 0 0 3.5733111e-043
-115.85663 307.49362 75.306801 9.1476764e-041
0 0 0 3.5733111e-043
-65.106552 269.43851 5.1618853 2.3509528e-038
-76.586563 318.85092 97.610336 2.3418409e-038
-80.187469 318.04361 101.89607 2.3418409e-038
-76.499809 318.01517 101.88695 2.3418409e-038
-75.30423 318.10727 101.91647 2.3418409e-038
-83.101723 320.51993 97.749809 2.3418409e-038
-81.958435 320.19357 97.650276 2.3418409e-038
-76.790207 319.22232 97.35408 2.3418409e-038
-71.687157 318.40762 97.105614 2.3418409e-038
-70.981552 318.32892 97.081619 2.3418409e-038
-82.91674 322.55618 93.399818 2.3418409e-038
-82.51432 322.3653 93.344528 2.3418409e-038
-76.994514 320.07166 92.680389 2.3418409e-038
-71.520035 317.66534 91.983612 2.3418409e-038
-68.299454 316.93857 91.77317 2.3418409e-038
-81.50618 322.20972 88.333817 2.3418409e-038
-76.814423 319.323 87.542419 2.3418409e-038
-71.16452 316.08627 86.655075 2.3418409e-038
-66.343498 315.36655 86.457756 2.3418409e-038
-120.24446 305.9967 79.173225 9.1476764e-041
-115.99728 305.85519 79.136604 9.1476764e-041
-111.85011 305.4783 79.039093 9.1476764e-041
-79.454834 319.05685 82.552391 2.3418409e-038
-76.228806 316.88855 81.991356 2.3418409e-038
-70.800209 314.46811 81.365105 2.3418409e-038
-66.166023 315.47977 81.626846 2.3418409e-038
-65.195557 316.25381 81.827126 2.3418409e-038
-121.67809 308.80002 75.139534 9.1476764e-041
-116.81459 308.01022 74.947357 9.1476764e-041
-111.56598 306.6311 74.611786 9.1476764e-041
-108.13564 306.31 74.533646 9.1476764e-041
-77.466866 315.15997 76.687088 2.3418409e-038
-75.561378 314.11404 76.432587 2.3418409e-038
-70.608627 313.61719 76.311684 2.3418409e-038
-66.408569 316.63623 77.046303 2.3418409e-038
-64.479073 318.91174 77.599998 2.3418409e-038
-122.07449 312.49756 71.223251 9.1476764e-041
-117.8243 310.67255 70.807297 9.1476764e-041
-112.21384 308.41171 70.292015 9.1476764e-041
-107.253 307.81528 70.156082 9.1476764e-041
-105.69264 308.42749 70.295616 9.1476764e-041
-75.646019 311.28534 70.946968 2.3418409e-038
-74.833992 311.09021 70.902489 2.3418409e-038
-70.296715 312.23178 71.162682 2.3418409e-038
-66.206459 315.67258 71.946892 2.3418409e-038
-63.032337 318.69543 72.635841 2.3418409e-038
-121.04723 314.38248 66.807816 9.1476764e-041
-118.635 312.81018 66.473694 9.1476764e-041
-112.85324 310.16907 65.912445 9.1476764e-041
-107.92869 309.75449 65.824348 9.1476764e-041
-103.89574 311.97888 66.297043 9.1476764e-041
-103.84191 312.05396 66.312988 9.1476764e-041
-73.263329 303.61353 64.519363 2.3418409e-038
-73.060242 303.71664 64.541275 2.3418409e-038
-69.031548 306.61237 65.156631 2.3418409e-038
-64.867737 309.28955 65.72554 2.3418409e-038
-60.362812 310.63589 66.011642 2.3418409e-038
-59.594547 310.93872 66.075996 2.3418409e-038
-118.25313 313.16205 61.722237 9.1476764e-041
-113.29607 311.38617 61.372223 9.1476764e-041
-108.54607 311.52637 61.399857 9.1476764e-041
-104.38101 313.43607 61.776241 9.1476764e-041
-102.01351 316.15186 62.311508 9.1476764e-041
-70.745964 293.19122 57.786114 2.3509886e-038
-70.559593 293.32123 57.811737 2.3509886e-038
-66.67849 296.16098 58.371433 2.3509886e-038
-62.591969 298.43866 58.820351 2.3418409e-038
-58.380524 300.43475 59.213764 2.3418409e-038
-55.029949 302.56522 59.633667 2.3418409e-038
-115.70818 313.26877 56.915398 9.1476764e-041
-113.91234 313.07993 56.881084 9.1476764e-041
-109.25622 313.56451 56.969128 9.1476764e-041
-104.89817 314.98901 57.227932 9.1476764e-041
-100.89857 317.6803 57.716896 9.1476764e-041
-99.65963 318.84497 57.928493 9.1476764e-041
-69.949615 290.69876 52.814827 2.3509886e-038
-69.931206 290.70898 52.816681 2.3509886e-038
-65.920593 292.79468 53.195614 2.3509886e-038
-61.808945 294.7052 53.542725 2.3509886e-038
-57.820393 297.55222 54.059978 2.3509886e-038
-53.850372 300.99332 54.685165 2.3509886e-038
-51.050949 303.94968 55.222282 2.3418409e-038
-114.5621 316.77985 52.671318 9.1476764e-041
-110.34983 316.70316 52.658569 9.1476764e-041
-105.63883 317.21307 52.743347 9.1476764e-041
-101.24478 318.77036 53.002277 9.1476764e-041
-97.119362 320.64069 53.313263 9.1476764e-041
-72.167755 303.17816 50.409748 2.3509886e-038
-68.431274 303.9462 50.537453 2.3509886e-038
-63.618103 303.3313 50.435211 2.3509886e-038
-58.767517 302.42627 50.284733 2.3509886e-038
-54.14761 302.65472 50.322716 2.3509886e-038
-49.784847 304.49899 50.629368 2.3509886e-038
-47.681747 305.918 50.865307 2.3509886e-038
-113.97922 321.44507 48.49313 9.1476764e-041
-111.72065 320.63739 48.371281 9.1476764e-041
-106.46365 319.68985 48.228333 9.1476764e-041
-101.6643 320.09119 48.288879 9.1476764e-041
-97.010017 321.01358 48.428028 9.1476764e-041
-94.581528 321.5434 48.507957 9.1476764e-041
-75.322693 321.43362 48.491398 2.3509886e-038
-71.888321 319.30112 48.169693 2.3509886e-038
-65.515411 312.37766 47.125221 2.3509886e-038
-59.191711 304.60925 45.953278 2.3509886e-038
-53.91832 301.37314 45.465076 2.3509886e-038
-49.43327 302.34863 45.612244 2.3509886e-038
-44.916912 303.31583 45.758152 2.3509886e-038
-44.877396 303.31967 45.758732 2.3509886e-038
-112.58991 323.90289 43.87215 9.1476764e-041
-107.09344 321.58096 43.557652 9.1476764e-041
-101.9597 321.02127 43.481838 9.1476764e-041
-97.201401 321.64688 43.566578 9.1476764e-041
-92.842499 323.73236 43.849052 9.1476764e-041
-92.764061 323.78949 43.856789 9.1476764e-041
-76.269226 329.71469 44.659351 2.3509886e-038
-73.282249 325.4924 44.087452 2.3509886e-038
-65.059059 310.20175 42.016354 2.3509886e-038
-57.52993 296.05746 40.100529 2.3509886e-038
-52.177147 291.64093 39.502319 2.3509886e-038
-48.114956 294.28546 39.860512 2.3509886e-038
-43.859547 296.17563 40.116539 2.3509886e-038
-42.40728 296.6188 40.176567 2.3509886e-038
-110.08127 323.92136 38.882607 9.1476764e-041
-107.50665 322.82178 38.750614 9.1476764e-041
-102.23173 321.87775 38.637299 9.1476764e-041
-97.50013 322.63538 38.728241 9.1476764e-041
-93.404709 325.69272 39.095234 9.1476764e-041
-91.643494 328.0578 39.379135 9.1476764e-041
-76.73819 332.28488 39.886539 2.3509886e-038
-73.659859 327.16962 39.272522 2.3509886e-038
-64.504036 307.55542 36.918083 2.3509886e-038
-56.326786 289.86591 34.794689 2.3509886e-038
-50.765514 283.7507 34.060635 2.3509886e-038
-46.814907 286.33398 34.370724 2.3509886e-038
-42.894741 289.66046 34.770027 2.3509886e-038
-40.311127 292.07507 35.059868 2.3509886e-038
-107.43466 324.17639 33.917248 9.1476764e-041
-102.6137 323.08041 33.802582 9.1476764e-041
-97.87558 323.87778 33.886005 9.1476764e-041
-93.744629 326.87799 34.199905 9.1476764e-041
-89.848495 331.08423 34.639984 9.1476764e-041
-89.481407 331.49295 34.682751 9.1476764e-041
-78.646759 334.56659 35.004333 2.3509886e-038
-74.104401 329.1441 34.436996 2.3509886e-038
-65.844887 313.94861 32.847157 2.3509886e-038
-57.865765 297.78574 31.156101 2.3509886e-038
-51.73061 289.14505 30.252062 2.3509886e-038
-47.077072 287.93744 30.125713 2.3509886e-038
-42.835499 289.26041 30.264132 2.3509886e-038
-38.700287 291.69238 30.518578 2.3509886e-038
-38.355511 292.03067 30.553972 2.3509886e-038
-105.24841 325.37701 29.028385 9.1476764e-041
-103.19704 324.91705 28.98735 9.1476764e-041
-98.243591 325.09555 29.003275 9.1476764e-041
-93.741898 326.86844 29.161442 9.1476764e-041
-89.27446 328.96893 29.348837 9.1476764e-041
-84.699112 330.90076 29.521185 2.3509886e-038
-79.881889 332.07471 29.625917 2.3509886e-038
-74.424973 330.56799 29.491495 2.3509886e-038
-67.994423 324.1976 28.923162 2.3509886e-038
-61.065125 314.25012 28.035702 2.3509886e-038
-54.614941 305.26682 27.234262 2.3509886e-038
-48.889053 299.02005 26.676958 2.3509886e-038
-43.686859 295.00949 26.319159 2.3509886e-038
-38.928402 293.41171 26.176613 2.3509886e-038
-36.118912 293.89435 26.219671 2.3509886e-038
-103.66792 327.03006 24.135906 2.3509886e-038
-98.495438 325.92892 24.05464 9.1476764e-041
-93.341743 325.47314 24.021002 9.1476764e-041
-87.800095 323.53604 23.878036 2.3509886e-038
-82.50576 322.33185 23.789164 2.3509886e-038
-78.036781 324.40442 23.942125 2.3509886e-038
-73.838562 327.96335 24.204786 2.3509886e-038
-68.907753 328.55234 24.248255 2.3509886e-038
-63.287163 325.68503 24.036638 2.3509886e-038
-57.187317 319.64496 23.59086 2.3509886e-038
-50.886051 311.23428 22.970127 2.3509886e-038
-44.876945 303.04593 22.365797 2.3509886e-038
-39.568871 298.23907 22.011036 2.3509886e-038
-34.846825 297.16629 21.93186 2.3509886e-038
-33.89476 297.47717 21.954807 2.3509886e-038
-102.18227 327.33047 19.113497 2.3509886e-038
-98.509727 325.97623 19.03442 2.3509886e-038
-92.619141 322.95352 18.857916 2.3509886e-038
-85.216209 314.01465 18.335958 2.3509886e-038
-78.453804 306.50171 17.897263 2.3509886e-038
-74.308784 308.90689 18.037704 2.3509886e-038
-71.765892 318.75732 18.612894 2.3509886e-038
-68.443611 326.33929 19.05562 2.3509886e-038
-63.822418 328.43954 19.178257 2.3509886e-038
-58.258919 325.63464 19.014473 2.3509886e-038
-52.178238 319.1377 18.635103 2.3509886e-038
-46.080177 311.17114 18.16992 2.3509886e-038
-40.470631 305.03583 17.811666 2.3509886e-038
-35.462891 302.41995 17.65892 2.3509886e-038
-31.867727 303.09528 17.698355 2.3509886e-038
-100.44196 326.09744 14.015916 2.3509886e-038
-98.260155 325.15036 13.97521 2.3509886e-038
-91.705841 319.76892 13.743912 2.3509886e-038
-82.369438 303.52454 13.045715 2.3509886e-038
-73.885101 288.6528 12.406517 2.3509886e-038
-69.545326 289.10489 12.425948 2.3509886e-038
-68.300049 303.36331 13.038786 2.3509886e-038
-67.009384 319.50089 13.732391 2.3509886e-038
-63.620388 327.39987 14.071896 2.3509886e-038
-58.60083 327.54575 14.078164 2.3509886e-038
-52.88348 323.45117 13.902177 2.3509886e-038
-47.001488 317.39258 13.641775 2.3509886e-038
-41.317101 311.41586 13.38489 2.3509886e-038
-36.099583 307.84955 13.231608 2.3509886e-038
-31.291235 307.22128 13.204604 2.3509886e-038
-29.542379 307.84238 13.231298 2.3509886e-038
-98.524834 324.4534 8.9450102 2.3509886e-038
-97.916992 324.0148 8.9329185 2.3509886e-038
-90.48275 315.50412 8.6982841 2.3509886e-038
-80.264481 295.76794 8.1541672 2.3509886e-038
-71.337364 278.69937 7.6835957 2.3509528e-038
-66.783508 277.62381 7.6539426 2.3509528e-038
-65.684944 291.74805 8.0433416 2.3509528e-038
-65.613991 312.84772 8.6250477 2.3509886e-038
-63.251556 325.5018 8.9739141 2.3509886e-038
-58.72398 328.23404 9.0492401 2.3509886e-038
-53.283379 325.89706 8.9848118 2.3509886e-038
-47.610302 321.50378 8.8636913 2.3509886e-038
-41.94902 316.17877 8.7168827 2.3509886e-038
-36.584209 311.98233 8.6011896 2.3509886e-038
-31.574507 310.00247 8.5466061 2.3509886e-038
-26.948132 310.66284 8.5648117 2.3509886e-038
-95.603378 320.00946 3.8907366 2.3509886e-038
-88.670738 309.18582 3.7591407 2.3509886e-038
-78.695526 289.98645 3.5257108 2.3509886e-038
-70.775642 276.50485 3.3617988 2.3509528e-038
-66.469749 276.31949 3.3595452 2.3509528e-038
-64.951591 288.49075 3.5075257 2.3509528e-038
-64.981903 309.83389 3.7670197 2.3509886e-038
-62.999317 324.20374 3.941731 2.3509886e-038
-58.753605 328.39966 3.9927461 2.3509886e-038
-53.489967 327.16061 3.9776814 2.3509886e-038
-47.96212 323.87958 3.9377897 2.3509886e-038
-42.344963 319.16306 3.8804457 2.3509886e-038
-36.884773 314.54547 3.8243043 2.3509886e-038
-31.750195 311.72742 3.7900417 2.3509886e-038
-26.928715 311.52661 3.7876003 2.3509886e-038
-24.598154 312.61258 3.8008039 2.3509886e-038
-91.233513 310.10071 -1.0087866 2.3509886e-038
-86.424004 301.35168 -0.98032528 2.3509886e-038
-77.399223 285.20969 -0.92781377 2.3509528e-038
-70.990288 277.34341 -0.90222412 2.3509528e-038
-67.269592 279.64447 -0.90970957 2.3509528e-038
-65.592583 291.3378 -0.94774908 2.3509528e-038
-65.220612 310.97205 -1.0116211 2.3509886e-038
-63.010262 324.26007 -1.0548483 2.3509886e-038
-58.734093 328.29059 -1.0679599 2.3509886e-038
-53.549324 327.52368 -1.0654652 2.3509886e-038
-48.136887 325.05975 -1.0574497 2.3509886e-038
-42.588005 320.99493 -1.0442265 2.3509886e-038
-37.088451 316.28238 -1.0288962 2.3509886e-038
-31.877647 312.97876 -1.0181491 2.3509886e-038
-26.978518 312.10272 -1.0152993 2.3509886e-038
-22.792923 313.28244 -1.019137 2.3509886e-038
-87.21402 299.29666 -5.5861859 2.3509886e-038
-84.435081 294.41653 -5.4951019 2.3509528e-038
-76.873032 283.27075 -5.2870727 2.3509528e-038
-71.751236 280.31625 -5.2319288 2.3509528e-038
-68.590561 285.1358 -5.3218827 2.3509528e-038
-66.99688 297.57513 -5.5540552 2.3509528e-038
-66.046692 314.9108 -5.8776145 2.3509886e-038
-63.238987 325.43713 -6.0740814 2.3509886e-038
-58.719368 328.20828 -6.1258035 2.3509886e-038
-53.549458 327.52448 -6.1130414 2.3509886e-038
-48.226795 325.66687 -6.0783701 2.3509886e-038
-42.771832 322.38049 -6.0170317 2.3509886e-038
-37.292233 318.0202 -5.9356494 2.3509886e-038
-32.030712 314.4816 -5.8696032 2.3509886e-038
-27.043301 312.85217 -5.8391914 2.3509886e-038
-22.237251 313.06903 -5.8432384 2.3509886e-038
-21.537567 313.40985 -5.8496003 2.3509886e-038
-85.647636 293.57626 -10.003806 2.3509528e-038
-83.248199 290.27798 -9.8914146 2.3509528e-038
-77.216064 284.53479 -9.6957111 2.3509528e-038
-72.967155 285.06659 -9.7138329 2.3509528e-038
-70.302025 292.25052 -9.9586296 2.3509528e-038
-68.79982 305.58316 -10.412949 2.3509528e-038
-67.052414 319.70609 -10.894197 2.3509886e-038
-63.504406 326.80301 -11.136029 2.3509886e-038
-58.715229 328.18515 -11.183125 2.3509886e-038
-53.540543 327.46997 -11.158756 2.3509886e-038
-48.25378 325.84912 -11.103525 2.3509886e-038
-42.860737 323.05057 -11.008162 2.3509886e-038
-37.438934 319.27124 -10.879378 2.3509886e-038
-32.171879 315.86755 -10.763395 2.3509886e-038
-27.131485 313.87234 -10.695408 2.3509886e-038
-22.277538 313.6362 -10.687362 2.3509886e-038
-20.499699 314.47568 -10.715967 2.3509886e-038
-86.44516 292.50546 -14.475203 2.3509886e-038
-82.949852 289.2377 -14.313491 2.3509528e-038
-77.98114 287.354 -14.220271 2.3509528e-038
-74.376289 290.57178 -14.37951 2.3509528e-038
-72.05365 299.5321 -14.82293 2.3509528e-038
-70.354752 312.48956 -15.464154 2.3509528e-038
-67.735123 322.96124 -15.982366 2.3509886e-038
-63.631229 327.45566 -16.204782 2.3509886e-038
-58.702805 328.11569 -16.237444 2.3509886e-038
-53.502182 327.23535 -16.193878 2.3509886e-038
-48.187508 325.40158 -16.10313 2.3509886e-038
-42.819847 322.74237 -15.971534 2.3509886e-038
-37.455807 319.41516 -15.80688 2.3509886e-038
-32.223045 316.36993 -15.65618 2.3509886e-038
-27.178724 314.41882 -15.559628 2.3509886e-038
-22.311073 314.10834 -15.544263 2.3509886e-038
-19.420734 315.42947 -15.609642 2.3509886e-038
-88.158714 292.12094 -18.958132 2.3509886e-038
-83.053001 289.59735 -18.794355 2.3509528e-038
-78.773468 290.27368 -18.838247 2.3509528e-038
-75.578384 295.2681 -19.162376 2.3509528e-038
-73.240799 304.46719 -19.759382 2.3509528e-038
-71.001076 315.36032 -20.466326 2.3509528e-038
-67.775635 323.15442 -20.972149 2.3509886e-038
-63.494438 326.75168 -21.205606 2.3509886e-038
-58.599289 327.53711 -21.256578 2.3509886e-038
-53.412781 326.68854 -21.201508 2.3509886e-038
-48.101299 324.81943 -21.080206 2.3509886e-038
-42.769138 322.36017 -20.920605 2.3509886e-038
-37.436569 319.2511 -20.718832 2.3509886e-038
-32.237438 316.5112 -20.541018 2.3509886e-038
-27.21081 314.79001 -20.429316 2.3509886e-038
-22.331905 314.40161 -20.40411 2.3509886e-038
-18.344223 315.83734 -20.497284 2.3509886e-038
-89.503128 291.13266 -23.380722 2.3509886e-038
-87.867706 290.76096 -23.350872 2.3509886e-038
-83.324356 290.54355 -23.333414 2.3509886e-038
-79.387474 292.53622 -23.493443 2.3509528e-038
-76.20179 297.70358 -23.908432 2.3509528e-038
-73.460274 305.37958 -24.524887 2.3509528e-038
-70.578491 313.48337 -25.175697 2.3509528e-038
-67.135429 320.10193 -25.70723 2.3509886e-038
-63.043369 324.43048 -26.054853 2.3509886e-038
-58.367146 326.23956 -26.200142 2.3509886e-038
-53.292133 325.95062 -26.176937 2.3509886e-038
-48.05035 324.47537 -26.058462 2.3509886e-038
-42.768551 322.35574 -25.888235 2.3509886e-038
-37.445572 319.32785 -25.645065 2.3509886e-038
-32.272568 316.85611 -25.446562 2.3509886e-038
-27.273914 315.52005 -25.339262 2.3509886e-038
-22.385059 315.14996 -25.309542 2.3509886e-038
-17.636414 316.3689 -25.407433 2.3509886e-038
-90.449875 292.01355 -27.951773 2.3509886e-038
-88.19548 291.84558 -27.935696 2.3509886e-038
-83.816605 292.25995 -27.975359 2.3509886e-038
-79.80706 294.08237 -28.149803 2.3509528e-038
-76.260559 297.9332 -28.518404 2.3509528e-038
-72.950928 303.26218 -29.0285 2.3509528e-038
-69.580521 309.05072 -29.582582 2.3509528e-038
-66.109665 315.21106 -30.172256 2.3509886e-038
-62.360458 320.91608 -30.718348 2.3509886e-038
-58.039478 324.40808 -31.052603 2.3509886e-038
-53.16613 325.17993 -31.126484 2.3509886e-038
-48.012562 324.22018 -31.034616 2.3509886e-038
-42.766747 322.34216 -30.854851 2.3509886e-038
-37.456177 319.41827 -30.574976 2.3509886e-038
-32.321907 317.34055 -30.376093 2.3509886e-038
-27.364103 316.56339 -30.301702 2.3509886e-038
-22.481306 316.50497 -30.296112 2.3509886e-038
-17.670099 317.70135 -30.410631 2.3509886e-038
-17.578285 317.75363 -30.415634 2.3509886e-038
-90.45903 294.33032 -32.709541 2.3509886e-038
-88.920723 294.24545 -32.700111 2.3509886e-038
-84.447556 294.46002 -32.723957 2.3509886e-038
-80.180283 295.45767 -32.834824 2.3509886e-038
-76.200745 297.69952 -33.083969 2.3509528e-038
-72.418037 301.04691 -33.455971 2.3509528e-038
-68.724174 305.24719 -33.922756 2.3509528e-038
-65.187416 310.81378 -34.541382 2.3509886e-038
-61.659752 317.31015 -35.26334 2.3509886e-038
-57.665398 322.31717 -35.819778 2.3509886e-038
-53.023514 324.30765 -36.040985 2.3509886e-038
-47.9604 323.86795 -35.992119 2.3509886e-038
-42.747185 322.1947 -35.806168 2.3509886e-038
-37.472961 319.56146 -35.513531 2.3509886e-038
-32.383022 317.94058 -35.333401 2.3509886e-038
-27.459784 317.67029 -35.30336 2.3509886e-038
-22.596569 318.12772 -35.354198 2.3509886e-038
-18.208389 319.77185 -35.536911 2.3509886e-038
-89.876152 298.69498 -37.797867 2.3509886e-038
-85.367119 297.66647 -37.667717 2.3509886e-038
-80.638054 297.1445 -37.601669 2.3509886e-038
-76.241257 297.85779 -37.691929 2.3509886e-038
-72.145317 299.91324 -37.95203 2.3509886e-038
-68.250099 303.14148 -38.360542 2.3509886e-038
-64.592537 307.97742 -38.9725 2.3509886e-038
-61.126526 314.56607 -39.806252 2.3509886e-038
-57.324924 320.41412 -40.546284 2.3509886e-038
-52.862587 323.32339 -40.914436 2.3509886e-038
-47.894859 323.42535 -40.927334 2.3509886e-038
-42.738518 322.12939 -40.76334 2.3509886e-038
-37.532249 320.06702 -40.502357 2.3509886e-038
-32.481922 318.91162 -40.356152 2.3509886e-038
-27.576872 319.02484 -40.37048 2.3509886e-038
-22.733871 320.06073 -40.501564 2.3509886e-038
-19.106606 322.18497 -40.770374 2.3509886e-038
-88.476555 302.75378 -42.97731 2.3509886e-038
-86.443169 301.41855 -42.787769 2.3509886e-038
-81.177826 299.13351 -42.463394 2.3509886e-038
-76.460175 298.71304 -42.403709 2.3509886e-038
-72.169792 300.01498 -42.588524 2.3509886e-038
-68.15062 302.69962 -42.969624 2.3509886e-038
-64.37291 306.93021 -43.570175 2.3509886e-038
-60.844845 313.11652 -44.448349 2.3509886e-038
-57.096401 319.13681 -45.302956 2.3509886e-038
-52.736465 322.552 -45.787758 2.3509886e-038
-47.835457 323.02423 -45.854797 2.3509886e-038
-42.725525 322.03146 -45.713867 2.3509886e-038
-37.59967 320.642 -45.516624 2.3509886e-038
-32.604939 320.11942 -45.442444 2.3509886e-038
-27.739332 320.9043 -45.55386 2.3509886e-038
-22.946552 323.05496 -45.859158 2.3509886e-038
-19.816629 326.41092 -46.335552 2.3509886e-038
-86.331871 304.50735 -47.919086 2.3509886e-038
-81.925308 301.88797 -47.506886 2.3509886e-038
-76.970093 300.7052 -47.320759 2.3509886e-038
-72.5299 301.5119 -47.447708 2.3509886e-038
-68.414856 303.87329 -47.819309 2.3509886e-038
-64.519569 307.62946 -48.4104 2.3509886e-038
-60.829617 313.03815 -49.261543 2.3509886e-038
-57.01778 318.69736 -50.152111 2.3509886e-038
-52.693359 322.28833 -50.717209 2.3509886e-038
-47.829838 322.98627 -50.827042 2.3509886e-038
-42.746658 322.19073 -50.701851 2.3509886e-038
-37.689701 321.40973 -50.578949 2.3509886e-038
-32.772194 321.76151 -50.634304 2.3509886e-038
-27.999912 323.91879 -50.973789 2.3509886e-038
-23.35033 328.73962 -51.732422 2.3509886e-038
-20.204178 335.70645 -52.828762 2.3509886e-038
-84.349197 307.40286 -53.112209 2.3509886e-038
-83.227936 306.68802 -52.988701 2.3509886e-038
-78.005104 304.74878 -52.653645 2.3509886e-038
-73.320923 304.80029 -52.662548 2.3509886e-038
-69.027313 306.59357 -52.972385 2.3509886e-038
-64.970596 309.77997 -53.522923 2.3509886e-038
-61.05983 314.22284 -54.290546 2.3509886e-038
-57.115059 319.24112 -55.157589 2.3509886e-038
-52.774258 322.78314 -55.769573 2.3509886e-038
-47.929237 323.6575 -55.920647 2.3509886e-038
-42.870937 323.12747 -55.829067 2.3509886e-038
-37.862206 322.8808 -55.786449 2.3509886e-038
-33.010002 324.09634 -55.996468 2.3509886e-038
-28.33526 327.79831 -56.636082 2.3509886e-038
-23.854053 335.83133 -58.024002 2.3509886e-038
-20.519461 347.75897 -60.084831 2.3509886e-038
-82.166 313.24326 -58.948784 2.3509886e-038
-79.923302 312.24271 -58.76049 2.3509886e-038
-74.768738 310.81894 -58.492554 2.3509886e-038
-70.04747 311.12476 -58.550102 2.3509886e-038
-65.692612 313.22253 -58.944881 2.3509886e-038
-61.534496 316.66556 -59.592819 2.3509886e-038
-57.436516 321.03787 -60.415638 2.3509886e-038
-53.033108 324.36633 -61.042015 2.3509886e-038
-48.172962 325.30334 -61.218349 2.3509886e-038
-43.131866 325.09415 -61.178978 2.3509886e-038
-38.148392 325.32135 -61.221737 2.3509886e-038
-33.31255 327.06677 -61.550209 2.3509886e-038
-28.667194 331.63831 -62.410519 2.3509886e-038
-24.234739 341.19086 -64.208191 2.3509886e-038
-21.188845 353.09741 -66.448875 2.3509886e-038
-79.77169 322.7027 -65.702209 2.3509886e-038
-77.2435 321.10669 -65.377258 2.3509886e-038
-71.725151 318.57639 -64.862091 2.3509886e-038
-66.801865 318.51147 -64.848869 2.3509886e-038
-62.314495 320.67953 -65.290291 2.3509886e-038
-58.036175 324.38962 -66.045654 2.3509886e-038
-53.532578 327.42123 -66.662903 2.3509886e-038
-48.62294 328.34195 -66.850357 2.3509886e-038
-43.565117 328.35962 -66.853958 2.3509886e-038
-38.578377 328.98816 -66.981926 2.3509886e-038
-33.738956 331.25333 -67.443108 2.3509886e-038
-29.111515 336.77847 -68.568031 2.3509886e-038
-24.656885 347.13406 -70.676422 2.3509886e-038
-22.636419 354.31232 -72.137917 2.3509886e-038
-75.549393 329.95084 -72.262894 2.3509886e-038
-73.975151 328.57004 -71.96048 2.3509886e-038
-68.287979 325.59726 -71.30941 2.3509886e-038
-63.408649 326.31021 -71.465553 2.3509886e-038
-58.945076 329.46985 -72.157555 2.3509886e-038
-54.355133 332.45224 -72.810722 2.3509886e-038
-49.40173 333.60101 -73.062317 2.3509886e-038
-44.311478 333.98511 -73.146439 2.3509886e-038
-39.33419 335.43356 -73.463669 2.3509886e-038
-34.570293 339.4155 -74.335754 2.3509886e-038
-30.015089 347.23151 -76.047546 2.3509886e-038
-25.491322 358.88174 -78.599083 2.3509886e-038
-25.357288 359.28085 -78.686493 2.3509886e-038
-67.563232 333.10727 -78.087791 2.3509886e-038
-64.818268 333.56433 -78.194946 2.3509886e-038
-60.250217 336.76486 -78.945221 2.3509886e-038
-55.596233 340.04318 -79.71373 2.3509886e-038
-50.547054 341.33517 -80.016602 2.3509886e-038
-45.377968 342.0235 -80.177956 2.3509886e-038
-40.440498 344.86798 -80.844765 2.3509886e-038
-35.826378 351.74786 -82.457573 2.3509886e-038
-31.285793 361.93173 -84.844894 2.3509886e-038
-29.49391 366.28802 -85.866112 2.3509886e-038
-55.60955 351.03186 -87.699577 2.3509886e-038
-51.964973 350.9101 -87.669159 2.3509886e-038
-46.572556 351.02734 -87.698448 2.3509886e-038
-41.65007 355.18295 -88.736656 2.3509886e-038
-37.170876 364.94833 -91.176376 2.3509886e-038
-36.725033 366.12115 -91.469383 2.3509886e-038
-115.77705 305.27448 81.313507 9.1476764e-041
-118.88806 313.47742 62.79649 9.1476764e-041
-111.18713 305.58984 78.364601 9.1476764e-041
-114.77708 315.45663 53.906296 9.1476764e-041
-106.98424 307.04395 72.670372 9.1476764e-041
-112.81783 323.78632 44.416348 9.1476764e-041
-103.88254 311.93924 66.409538 9.1476764e-041
-107.91895 324.05981 34.85828 9.1476764e-041
-100.87098 317.59341 60.154984 9.1476764e-041
-103.824 326.89102 24.680714 9.1476764e-041
-96.923744 320.72809 52.960899 9.1476764e-041
-97.793373 323.60574 7.4162245 2.3509886e-038
-88.252121 292.03302 -19.249285 2.3509886e-038
-90.023293 297.89398 -36.965897 2.3509886e-038
-92.816284 323.64093 44.044506 9.1476764e-041
-87.149094 303.88 -46.020607 2.3509886e-038
-89.873909 331.17789 35.218403 9.1476764e-041
-83.743553 308.58801 -54.617786 2.3509886e-038
-81.54258 318.56888 100.93596 2.3418409e-038
-82.620049 322.77832 92.068718 2.3418409e-038
-85.13649 332.6095 31.410742 2.3509886e-038
-81.165024 317.09384 -61.824589 2.3509886e-038
-76.469269 317.88821 102.48427 2.3418409e-038
-70.000656 290.99768 52.635735 2.3509886e-038
-80.434906 334.3736 32.595848 2.3509886e-038
-78.493309 326.30225 -68.401062 2.3509886e-038
-71.702972 318.47787 98.135918 2.3418409e-038
-74.408699 330.49573 -73.300621 2.3509886e-038
-66.128891 315.3027 85.766525 2.3418409e-038
-69.589493 331.80292 -76.693695 2.3509886e-038
-61.172291 314.80161 68.782669 2.3418409e-038
-65.206535 335.56241 -79.819389 2.3509886e-038
-54.069115 302.21597 58.512592 2.3418409e-038
-61.251423 342.36105 -83.290298 2.3509886e-038
-49.832649 304.79138 53.85342 2.3509886e-038
-57.131527 349.43347 -86.744339 2.3509886e-038
-44.936176 303.44589 45.885479 2.3509886e-038
-52.292904 353.12457 -89.277122 2.3509886e-038
-38.719975 291.84076 31.365891 2.3509886e-038
-47.090744 354.93301 -90.667542 2.3509886e-038
-34.69146 295.84137 23.542404 2.3509886e-038
-42.076252 358.81732 -91.428513 2.3509886e-038
-31.078766 305.13522 16.090345 2.3509886e-038
-37.230015 365.52896 -91.577904 2.3509886e-038
-26.86129 310.74658 8.3963051 2.3509886e-038
-31.825066 368.17035 -88.642426 2.3509886e-038
-22.253569 313.29877 -2.9003026 2.3509886e-038
-25.546839 359.66336 -79.071152 2.3509886e-038
-17.600033 316.44162 -25.75275 2.3509886e-038
-17.706337 318.35291 -32.026318 2.3509886e-038
