# .PCD v0.7 - Point Cloud Data file format
VERSION 0.7
FIELDS x y z rgb
SIZE 4 4 4 4
TYPE F F F F
COUNT 1 1 1 1
WIDTH 647
HEIGHT 1
VIEWPOINT 0 0 0 1 0 0 0
POINTS 647
DATA ascii
0 0 0 2.3418052e-038
-91.496613 277.53143 24.834793 9.1476764e-041
-39.597172 300.26959 79.194344 3.5733111e-043
13.968833 296.59604 43.303383 2.3509528e-038
-71.365829 291.40179 82.345184 2.3418409e-038
-75.694656 290.88992 85.151756 2.3418409e-038
-71.603539 289.8428 84.845238 2.3418409e-038
-67.09417 290.47446 85.030136 2.3418409e-038
-66.59919 290.73517 85.106453 2.3418409e-038
-77.03685 293.22589 81.125961 2.3418409e-038
-72.117828 291.92462 80.765945 2.3418409e-038
-67.5186 292.31198 80.873108 2.3418409e-038
-64.832237 293.65274 81.244057 2.3418409e-038
-42.938381 301.48776 83.411751 3.5733111e-043
-40.365456 299.8624 82.962059 3.5733111e-043
-35.900024 298.29483 82.528374 3.5733111e-043
-77.320534 295.5387 77.019096 2.3418409e-038
-72.725021 294.38245 76.717773 2.3418409e-038
-68.026321 294.51007 76.751022 2.3418409e-038
-63.786247 296.56134 77.285599 2.3418409e-038
-44.894619 303.92664 79.20504 3.5733111e-043
-40.503471 300.88766 78.413071 3.5733111e-043
-35.504566 299.48526 78.047592 3.5733111e-043
-33.976349 299.69318 78.101768 3.5733111e-043
-76.972473 298.05328 72.887276 2.3418409e-038
-73.376839 297.02097 72.634834 2.3418409e-038
-68.566536 296.84888 72.592743 2.3418409e-038
-64.096436 298.23395 72.931458 2.3418409e-038
-62.917576 299.11435 73.146759 2.3418409e-038
-45.506737 305.6019 74.733253 3.5733111e-043
-40.683933 302.22827 73.908249 3.5733111e-043
-35.737362 301.44891 73.717659 3.5733111e-043
-33.24942 302.75342 74.036674 3.5733111e-043
-76.124588 300.71732 68.708839 2.3418409e-038
-74.09053 299.90988 68.524345 2.3418409e-038
-69.063263 298.99936 68.316307 2.3418409e-038
-64.408791 299.68732 68.473495 2.3418409e-038
-61.881737 301.15884 68.809715 2.3418409e-038
-45.889141 307.62793 70.287788 3.5733111e-043
-40.884731 303.71994 69.394882 3.5733111e-043
-35.903309 302.84869 69.195816 3.5733111e-043
-32.692417 304.92422 69.670036 3.5733111e-043
-75.234695 303.04205 64.372734 2.3418409e-038
-74.811783 302.82944 64.327576 2.3418409e-038
-69.565018 301.17166 63.975422 2.3418409e-038
-64.790436 301.46307 64.037323 2.3418409e-038
-60.653561 303.80862 64.535576 2.3418409e-038
-46.232891 309.67255 65.781189 2.3418409e-038
-41.076443 305.1441 64.819252 3.5733111e-043
-35.995373 303.62527 64.496628 3.5733111e-043
-32.315823 305.45953 64.886253 3.5733111e-043
-74.419296 304.70538 59.832088 2.3418409e-038
-70.070686 303.36084 59.568073 2.3418409e-038
-65.248283 303.59338 59.613739 2.3418409e-038
-60.817669 305.83371 60.053642 2.3418409e-038
-59.390984 307.45047 60.371117 2.3418409e-038
-46.621727 310.99948 61.067997 2.3418409e-038
-41.18718 305.96674 60.079769 3.5733111e-043
-36.026325 303.88635 59.671265 3.5733111e-043
-32.102577 304.79395 59.84948 3.5733111e-043
-73.795326 306.63034 55.285183 2.3418409e-038
-70.639435 305.82315 55.139641 2.3418409e-038
-65.748978 305.92303 55.157654 2.3418409e-038
-61.22295 307.87173 55.509003 2.3418409e-038
-58.290222 311.49579 56.162415 2.3418409e-038
-47.262943 311.95856 56.245853 2.3418409e-038
-46.948994 311.59192 56.179752 2.3418409e-038
-41.216137 306.18185 55.204315 3.5733111e-043
-36.003307 303.6922 54.755436 3.5733111e-043
-31.916168 303.67331 54.752029 3.5733111e-043
-73.424622 309.28818 50.796803 2.3509886e-038
-71.289818 308.63889 50.69017 2.3418409e-038
-66.249123 308.25018 50.626328 2.3418409e-038
-61.570957 309.62177 50.851589 2.3418409e-038
-57.383503 313.91876 51.55732 2.3418409e-038
-57.228951 314.13449 51.592747 2.3418409e-038
-48.106564 312.70987 51.358776 2.3418409e-038
-46.922012 311.41284 51.145756 2.3418409e-038
-41.196507 306.03601 50.26268 3.5733111e-043
-35.950851 303.24973 49.805061 3.5733111e-043
-31.695534 302.94345 49.754757 3.5733111e-043
-73.026894 311.72101 46.189709 2.3509886e-038
-71.894241 311.25571 46.120762 2.3509886e-038
-66.664688 310.18378 45.961929 2.3418409e-038
-61.803623 310.79175 46.052021 2.3418409e-038
-57.348953 313.72977 46.487362 2.3418409e-038
-56.214397 314.6947 46.630341 2.3418409e-038
-48.814102 312.97836 46.376019 2.3418409e-038
-46.880077 311.13452 46.102806 2.3418409e-038
-41.184093 305.94382 45.333668 3.5733111e-043
-35.937477 303.1369 44.917751 3.5733111e-043
-31.559975 303.36099 44.950954 3.5733111e-043
7.9743814 298.19098 44.184879 2.3509528e-038
12.487831 296.89532 43.992897 2.3509528e-038
17.32678 298.10657 44.172371 2.3509528e-038
18.184319 298.68271 44.257744 2.3509528e-038
-72.457115 313.5575 41.425686 2.3509886e-038
-72.421867 313.53998 41.42337 2.3509886e-038
-66.9814 311.65741 41.174652 2.3418409e-038
-61.947926 311.51743 41.156158 2.3418409e-038
-57.360229 313.79144 41.456593 2.3418409e-038
-55.572296 315.02234 41.619213 2.3418409e-038
-49.147053 313.59946 41.431229 2.3418409e-038
-46.972763 311.74966 41.186844 2.3418409e-038
-41.288292 306.71783 40.52206 3.5733111e-043
-36.052094 304.10373 40.176697 3.5733111e-043
-31.68819 304.94965 40.288456 3.5733111e-043
3.9031203 299.78397 39.605995 2.3509528e-038
7.7413163 297.74265 39.3363 2.3509528e-038
12.491774 296.98904 39.236744 2.3509528e-038
16.577305 298.56567 39.445038 2.3509528e-038
-72.038284 316.20078 36.696289 2.3509886e-038
-67.416946 313.68396 36.404205 2.3418409e-038
-62.131397 312.44003 36.259846 2.3418409e-038
-57.463974 314.35898 36.482544 2.3418409e-038
-55.081593 316.10379 36.685036 2.3418409e-038
-49.355213 315.14645 36.573933 2.3418409e-038
-47.240749 313.52823 36.386131 2.3418409e-038
-41.543701 308.6152 35.815956 3.5733111e-043
-36.299446 306.19016 35.534523 3.5733111e-043
-31.993963 307.14749 35.645626 3.5733111e-043
0.30204481 300.31958 34.853218 2.3509528e-038
2.9736266 299.19595 34.722816 2.3509528e-038
7.7537227 298.21979 34.609531 2.3509528e-038
12.575212 298.97278 34.696918 2.3509528e-038
14.418816 300.11566 34.829552 2.3509528e-038
-96.056717 273.98746 27.396671 9.1476764e-041
-93.822563 273.20804 27.318739 9.1476764e-041
-90.802925 277.38846 27.736746 9.1476764e-041
-89.584328 287.78601 28.776423 9.1476764e-041
-88.05999 298.27927 29.825668 9.1476764e-041
-86.847382 301.94104 30.191818 9.1476764e-041
-71.96463 320.12164 32.009743 9.1476764e-041
-68.20652 317.35776 31.733372 9.1476764e-041
-62.537781 314.48361 31.44598 2.3509886e-038
-57.632923 315.28323 31.525936 2.3418409e-038
-53.64732 317.29492 31.727091 2.3418409e-038
-50.205215 316.7724 31.674843 2.3509886e-038
-47.496452 315.22531 31.520144 2.3509886e-038
-41.835564 310.78339 31.075987 3.5733111e-043
-36.561871 308.40372 30.838039 3.5733111e-043
-32.194763 309.21835 30.919495 3.5733111e-043
-3.4607882 301.64352 30.162069 2.3509528e-038
-1.8403312 300.5813 30.055857 2.3509528e-038
2.9722888 299.06134 29.90387 2.3509528e-038
7.783926 299.38147 29.935881 2.3509528e-038
11.941941 301.46979 30.144699 2.3509528e-038
-96.681458 273.05353 22.917683 9.1476764e-041
-93.48925 272.23749 22.84919 9.1476764e-041
-90.924873 277.76099 23.312782 9.1476764e-041
-89.760109 288.35071 24.201591 9.1476764e-041
-87.80629 297.41992 24.962782 9.1476764e-041
-84.655663 303.24564 25.451738 9.1476764e-041
-82.291107 308.80984 25.918749 9.1476764e-041
-72.17347 323.65958 27.165102 9.1476764e-041
-69.03582 321.2164 26.960045 9.1476764e-041
-63.049561 317.05722 26.61096 2.3509886e-038
-57.863228 316.54312 26.567812 2.3509886e-038
-53.010662 317.93176 26.684362 2.3509886e-038
-47.730682 316.77985 26.587681 2.3509886e-038
-42.112793 312.84283 26.257242 3.5733111e-043
-36.754528 310.02884 26.021061 3.5733111e-043
-31.820574 310.39041 26.051407 3.5733111e-043
-7.5361567 304.99402 25.598482 2.3509528e-038
-6.750514 304.29727 25.540003 2.3509528e-038
-1.8430166 301.0199 25.264931 2.3509528e-038
2.9817388 300.01218 25.180351 2.3509528e-038
7.8371501 301.42856 25.299229 2.3509528e-038
9.2176437 302.57388 25.395357 2.3509528e-038
-92.129318 275.01358 18.665106 9.1476764e-041
-91.849823 280.58658 19.043343 9.1476764e-041
-90.983238 292.27997 19.836971 9.1476764e-041
-88.370209 299.33005 20.315458 9.1476764e-041
-84.812813 303.80853 20.619413 9.1476764e-041
-81.662331 310.38043 21.065445 9.1476764e-041
-79.224251 318.65445 21.627001 9.1476764e-041
-73.013542 324.18192 22.00215 9.1476764e-041
-69.261101 322.26465 21.872023 9.1476764e-041
-63.384174 318.73987 21.632797 9.1476764e-041
-58.078262 317.71948 21.563545 2.3509886e-038
-53.048363 318.15787 21.593298 2.3509886e-038
-47.822819 317.3913 21.541271 2.3509886e-038
-42.306728 314.28351 21.330347 2.3509886e-038
-36.901928 311.27219 21.125969 3.5733111e-043
-31.833899 310.60291 21.080544 3.5733111e-043
-30.544956 311.21313 21.12196 3.5733111e-043
-12.000664 307.99847 20.903784 2.3509528e-038
-11.773699 307.8468 20.89349 2.3509528e-038
-6.7624984 304.83749 20.689247 2.3509528e-038
-1.8536371 302.75455 20.547878 2.3509528e-038
3.0072823 302.58228 20.536186 2.3509528e-038
6.2696495 304.04041 20.635149 2.3509528e-038
-93.010109 294.76392 15.271255 9.1476764e-041
-92.498566 297.14786 15.394763 9.1476764e-041
-89.255646 302.32922 15.663201 9.1476764e-041
-85.367676 305.79614 15.842815 9.1476764e-041
-81.762741 310.76205 16.100092 9.1476764e-041
-78.278282 316.86142 16.416092 9.1476764e-041
-74.068214 320.66757 16.613281 9.1476764e-041
-68.91732 320.66504 16.61315 9.1476764e-041
-63.513741 319.39139 16.547165 2.3509886e-038
-58.282547 318.83701 16.518444 2.3509886e-038
-53.097092 318.45016 16.4984 2.3509886e-038
-47.824509 317.40253 16.444126 2.3509886e-038
-42.436066 315.24432 16.332312 2.3509886e-038
-37.068676 312.67871 16.19939 2.3509886e-038
-31.9223 311.46545 16.136534 2.3509886e-038
-27.430574 312.33484 16.181576 2.3509886e-038
-17.667442 310.85208 16.104755 2.3509528e-038
-16.857222 310.40823 16.081762 2.3509528e-038
-11.775381 307.89081 15.951337 2.3509528e-038
-6.7933431 306.22791 15.865185 2.3509528e-038
-1.8709608 305.58405 15.831828 2.3509528e-038
3.0517626 307.05771 15.908176 2.3509528e-038
3.1103525 307.10379 15.910564 2.3509528e-038
-92.02404 303.62885 10.853847 9.1476764e-041
-90.462914 306.41852 10.953569 9.1476764e-041
-86.269295 309.02582 11.046774 9.1476764e-041
-82.140526 312.19797 11.160168 9.1476764e-041
-78.083748 316.07394 11.298723 9.1476764e-041
-73.624535 318.74673 11.394268 9.1476764e-041
-68.741837 319.84854 11.433654 9.1476764e-041
-63.69154 320.28552 11.449276 2.3509886e-038
-58.573048 320.42624 11.454305 2.3509886e-038
-53.334778 319.87567 11.434623 2.3509886e-038
-47.993134 318.52167 11.386222 2.3509886e-038
-42.62133 316.62057 11.318265 2.3509886e-038
-37.279446 314.45657 11.240907 2.3509886e-038
-32.069649 312.90314 11.185376 2.3509886e-038
-27.004101 312.44153 11.168875 2.3509528e-038
-21.962946 312.11591 11.157235 2.3509528e-038
-16.870768 310.65765 11.105106 2.3509528e-038
-11.802112 308.58972 11.031184 2.3509528e-038
-6.8267651 307.7345 11.000612 2.3509528e-038
-1.8908312 308.8295 11.039755 2.3509528e-038
-0.12597737 309.98816 11.081175 2.3509528e-038
-91.633316 309.05872 6.084054 9.1476764e-041
-91.458832 309.79193 6.0984869 9.1476764e-041
-87.504128 313.44913 6.1704817 9.1476764e-041
-82.839096 314.85303 6.1981187 9.1476764e-041
-78.41732 317.42422 6.248735 9.1476764e-041
-73.864578 319.78595 6.2952271 9.1476764e-041
-69.037048 321.22214 6.3234992 2.3509886e-038
-64.026161 321.96823 6.3381872 2.3509886e-038
-58.89653 322.19586 6.3426681 2.3509886e-038
-53.638428 321.69681 6.3328443 2.3509886e-038
-48.2649 320.32532 6.3058448 2.3509886e-038
-42.861618 318.40564 6.268054 2.3509886e-038
-37.504585 316.35565 6.2276993 2.3509886e-038
-32.253323 314.69522 6.1950121 2.3509886e-038
-27.109428 313.66022 6.1746368 2.3509886e-038
-22.01049 312.79156 6.157537 2.3509528e-038
-16.902496 311.24191 6.1270313 2.3509528e-038
-11.826653 309.23141 6.0874529 2.3509528e-038
-6.85605 309.0546 6.0839725 2.3509528e-038
-3.1281683 311.2258 6.1267138 2.3509528e-038
-96.735931 261.93933 0.94937748 2.3509886e-038
-93.679214 260.60223 0.94453132 2.3509886e-038
-89.492767 260.59985 0.94452268 2.3509886e-038
-86.885361 265.4209 0.9619962 2.3509886e-038
-87.260536 276.30646 1.0014499 2.3509886e-038
-89.571526 298.87625 1.0832523 2.3509886e-038
-89.778984 304.1019 1.1021922 9.1476764e-041
-88.041275 315.37323 1.1430444 2.3509886e-038
-83.543991 317.53223 1.1508693 2.3509886e-038
-78.947525 319.57043 1.1582566 2.3509886e-038
-74.300865 321.6748 1.1658838 2.3509886e-038
-69.393158 322.87906 1.1702485 2.3509886e-038
-64.301651 323.35358 1.1719685 2.3509886e-038
-59.102802 323.32425 1.1718621 2.3509886e-038
-53.802334 322.67984 1.1695265 2.3509886e-038
-48.429996 321.42105 1.1649642 2.3509886e-038
-43.037346 319.71106 1.1587664 2.3509886e-038
-37.673336 317.77908 1.1517642 2.3509886e-038
-32.397709 316.10403 1.1456931 2.3509886e-038
-27.210432 314.82883 1.1410711 2.3509886e-038
-22.060804 313.50656 1.1362787 2.3509528e-038
-16.926115 311.67682 1.129647 2.3509528e-038
-11.85547 309.98489 1.1235148 2.3509528e-038
-6.8934064 310.73849 1.1262461 2.3509528e-038
-5.5292783 311.71103 1.129771 2.3509528e-038
-96.282104 264.09085 -3.2844765 2.3509886e-038
-94.677353 263.37891 -3.2756219 2.3509886e-038
-90.159241 262.54059 -3.2651958 2.3509886e-038
-86.650963 264.70486 -3.2921126 2.3509886e-038
-85.529686 274.76062 -3.4171755 2.3509886e-038
-86.943146 294.49625 -3.6626256 2.3509886e-038
-87.346481 312.88443 -3.8913178 2.3509886e-038
-83.797432 318.49548 -3.961102 2.3509886e-038
-79.273087 320.88828 -3.9908612 2.3509886e-038
-74.483543 322.4657 -4.0104795 2.3509886e-038
-69.460503 323.19241 -4.0195174 2.3509886e-038
-64.329193 323.49207 -4.0232444 2.3509886e-038
-59.127785 323.46094 -4.0228572 2.3509886e-038
-53.832882 322.86304 -4.0154209 2.3509886e-038
-48.491333 321.82813 -4.0025501 2.3509886e-038
-43.127155 320.3782 -3.9845173 2.3509886e-038
-37.764999 318.55228 -3.9618084 2.3509886e-038
-32.477959 316.88702 -3.9410977 2.3509886e-038
-27.260168 315.40427 -3.922657 2.3509886e-038
-22.07905 313.76584 -3.9022803 2.3509886e-038
-16.948 312.0798 -3.8813109 2.3509886e-038
-11.90022 311.15497 -3.8698087 2.3509528e-038
-7.1096382 312.91156 -3.8916554 2.3509886e-038
-95.986618 269.40268 -7.677506 2.3509886e-038
-91.778862 267.25687 -7.616354 2.3509886e-038
-87.296082 266.67563 -7.5997896 2.3509886e-038
-84.469193 271.35385 -7.7331109 2.3509886e-038
-84.567513 286.44943 -8.1633091 2.3509886e-038
-85.462402 306.13544 -8.7243261 2.3509886e-038
-83.300201 316.60562 -9.0227079 2.3509886e-038
-79.217117 320.66168 -9.138298 2.3509886e-038
-74.408417 322.14044 -9.1804409 2.3509886e-038
-69.344147 322.65103 -9.1949911 2.3509886e-038
-64.223717 322.96167 -9.2038441 2.3509886e-038
-59.063396 323.1087 -9.2080336 2.3509886e-038
-53.816086 322.76233 -9.198164 2.3509886e-038
-48.507732 321.93695 -9.1746416 2.3509886e-038
-43.154957 320.58475 -9.1361055 2.3509886e-038
-37.811241 318.94238 -9.0893002 2.3509886e-038
-32.544342 317.5347 -9.0491848 2.3509886e-038
-27.31728 316.06506 -9.0073032 2.3509886e-038
-22.11628 314.29492 -8.9568567 2.3509886e-038
-16.991131 312.87405 -8.9163637 2.3509886e-038
-11.954515 312.57462 -8.9078312 2.3509886e-038
-7.9040575 314.36902 -8.9589682 2.3509886e-038
-94.841568 272.96521 -12.163227 2.3509886e-038
-93.418053 272.03015 -12.121561 2.3509886e-038
-88.374222 269.96915 -12.029723 2.3509886e-038
-84.595558 271.75977 -12.109513 2.3509886e-038
-83.095703 281.46408 -12.541933 2.3509886e-038
-83.116882 297.73355 -13.266895 2.3509886e-038
-81.984795 311.60605 -13.885048 2.3509886e-038
-78.674217 318.46414 -14.190642 2.3509886e-038
-74.165817 321.09015 -14.307657 2.3509886e-038
-69.214745 322.04892 -14.350379 2.3509886e-038
-64.133629 322.50864 -14.370863 2.3509886e-038
-58.996254 322.74139 -14.381234 2.3509886e-038
-53.783504 322.56693 -14.373461 2.3509886e-038
-48.485359 321.78845 -14.338773 2.3509886e-038
-43.130882 320.40591 -14.277166 2.3509886e-038
-37.826046 319.06723 -14.217516 2.3509886e-038
-32.607349 318.14948 -14.176621 2.3509886e-038
-27.389494 316.9006 -14.120972 2.3509886e-038
-22.173058 315.10181 -14.040817 2.3509886e-038
-17.038921 313.75403 -13.980762 2.3509886e-038
-11.994864 313.62964 -13.975218 2.3509886e-038
-8.19734 315.4494 -14.056306 2.3509886e-038
-93.800468 276.66541 -16.771713 2.3509886e-038
-89.944794 274.767 -16.656631 2.3509886e-038
-85.455666 274.52283 -16.641829 2.3509886e-038
-82.534256 279.56232 -16.947327 2.3509886e-038
-81.215813 290.92371 -17.636065 2.3509886e-038
-80.163353 304.68314 -18.470175 2.3509886e-038
-77.633652 314.25201 -19.050247 2.3509886e-038
-73.684105 319.00464 -19.338356 2.3509886e-038
-69.014603 321.11768 -19.46645 2.3509886e-038
-64.033478 322.005 -19.520243 2.3509886e-038
-58.909512 322.26688 -19.536118 2.3509886e-038
-53.716335 322.16406 -19.529882 2.3509886e-038
-48.438854 321.47983 -19.488405 2.3509886e-038
-43.101818 320.18997 -19.410213 2.3509886e-038
-37.829453 319.09595 -19.343893 2.3509886e-038
-32.644646 318.51337 -19.308575 2.3509886e-038
-27.430088 317.37027 -19.239281 2.3509886e-038
-22.19528 315.4176 -19.120905 2.3509886e-038
-17.048574 313.93179 -19.030836 2.3509886e-038
-12.005126 313.89795 -19.028782 2.3509886e-038
-8.2706556 315.84079 -19.146561 2.3509886e-038
-93.542564 282.5704 -21.668127 2.3509886e-038
-92.147896 281.49713 -21.585825 2.3509886e-038
-86.866463 279.05496 -21.398556 2.3509886e-038
-82.810493 280.49799 -21.509211 2.3509886e-038
-80.173233 287.18906 -22.022295 2.3509886e-038
-78.412407 298.0282 -22.853466 2.3509886e-038
-76.198662 308.44333 -23.652121 2.3509886e-038
-72.762138 315.01312 -24.155905 2.3509886e-038
-68.515404 318.79495 -24.445908 2.3509886e-038
-63.782738 320.74414 -24.595373 2.3509886e-038
-58.750629 321.39771 -24.645491 2.3509886e-038
-53.614307 321.55215 -24.657335 2.3509886e-038
-48.409161 321.28278 -24.636679 2.3509886e-038
-43.119938 320.32458 -24.563202 2.3509886e-038
-37.854225 319.3049 -24.48501 2.3509886e-038
-32.663368 318.69601 -24.43832 2.3509886e-038
-27.43306 317.40466 -24.339296 2.3509886e-038
-22.173536 315.10861 -24.163231 2.3509886e-038
-17.016932 313.34912 -24.028309 2.3509886e-038
-11.990878 313.52539 -24.041824 2.3509886e-038
-8.2679052 315.58679 -24.1999 2.3509886e-038
-93.055435 288.19315 -26.728067 2.3509886e-038
-88.763092 285.14783 -26.445635 2.3509886e-038
-83.706177 283.53189 -26.295769 2.3509886e-038
-79.898697 286.20569 -26.543743 2.3509886e-038
-77.10804 293.07059 -27.18042 2.3509886e-038
-74.508438 301.60153 -27.971611 2.3509886e-038
-71.277855 308.58713 -28.619482 2.3509886e-038
-67.504059 314.08926 -29.12977 2.3509886e-038
-63.224705 317.93793 -29.486708 2.3509886e-038
-58.485229 319.9458 -29.672926 2.3509886e-038
-53.497032 320.84879 -29.75667 2.3509886e-038
-48.380123 321.09006 -29.779045 2.3509886e-038
-43.137733 320.45679 -29.720314 2.3509886e-038
-37.879517 319.51825 -29.63327 2.3509886e-038
-32.672134 318.78156 -29.564949 2.3509886e-038
-27.421125 317.26657 -29.424444 2.3509886e-038
-22.148432 314.75186 -29.191219 2.3509886e-038
-16.990597 312.8642 -29.01615 2.3509886e-038
-11.971903 313.02927 -29.03146 2.3509886e-038
-8.2493715 314.86899 -29.202084 2.3509886e-038
-92.469086 294.23904 -32.014671 2.3509886e-038
-91.167488 292.87183 -31.86591 2.3509886e-038
-85.007133 287.93854 -31.329144 2.3509886e-038
-80.14064 287.07233 -31.234896 2.3509886e-038
-76.343254 290.16379 -31.571262 2.3509886e-038
-73.017593 295.56674 -32.15913 2.3509886e-038
-69.583199 301.25034 -32.777534 2.3509886e-038
-66.032806 307.24371 -33.429642 2.3509886e-038
-62.241295 312.99268 -34.055157 2.3509886e-038
-58.002087 317.30276 -34.524117 2.3509886e-038
-53.310791 319.73181 -34.78841 2.3509886e-038
-48.310001 320.62466 -34.885555 2.3509886e-038
-43.123188 320.34875 -34.855537 2.3509886e-038
-37.880306 319.5249 -34.7659 2.3509886e-038
-32.657585 318.63962 -34.669575 2.3509886e-038
-27.397778 316.99646 -34.490791 2.3509886e-038
-22.137203 314.59229 -34.229202 2.3509886e-038
-16.993563 312.91882 -34.047123 2.3509886e-038
-11.977244 313.16891 -34.074337 2.3509886e-038
-8.2505989 314.91666 -34.264496 2.3509886e-038
-91.007469 297.18042 -37.107811 2.3509886e-038
-86.432297 292.7659 -36.556583 2.3509886e-038
-80.757545 289.28214 -36.121582 2.3509886e-038
-76.159782 289.46646 -36.1446 2.3509886e-038
-72.155731 292.07803 -36.470695 2.3509886e-038
-68.332695 295.83649 -36.939999 2.3509886e-038
-64.651558 300.81689 -37.561882 2.3509886e-038
-61.055103 307.02768 -38.337399 2.3509886e-038
-57.262753 313.25821 -39.115383 2.3509886e-038
-52.976139 317.72473 -39.6731 2.3509886e-038
-48.166443 319.67191 -39.916237 2.3509886e-038
-43.064068 319.90958 -39.945915 2.3509886e-038
-37.857452 319.33215 -39.873817 2.3509886e-038
-32.631889 318.38892 -39.756035 2.3509886e-038
-27.369932 316.67426 -39.541935 2.3509886e-038
-22.136541 314.58286 -39.280788 2.3509886e-038
-17.024771 313.49347 -39.144756 2.3509886e-038
-12.013901 314.12738 -39.223911 2.3509886e-038
-8.2813606 316.05875 -39.465076 2.3509886e-038
-89.803085 300.50986 -42.350124 2.3509886e-038
-88.23584 298.87491 -42.119717 2.3509886e-038
-81.798759 293.0119 -41.293453 2.3509886e-038
-76.441605 290.5376 -40.944756 2.3509886e-038
-71.879349 290.95926 -41.004181 2.3509886e-038
-67.693275 293.06821 -41.301388 2.3509886e-038
-63.748703 296.616 -41.801373 2.3509886e-038
-60.064831 302.04788 -42.566872 2.3509886e-038
-56.449329 308.80832 -43.519604 2.3509886e-038
-52.489452 314.80585 -44.364822 2.3509886e-038
-47.939857 318.16809 -44.838657 2.3509886e-038
-42.964664 319.17111 -44.980007 2.3509886e-038
-37.806244 318.90021 -44.941826 2.3509886e-038
-32.593567 318.01498 -44.817078 2.3509886e-038
-27.353102 316.47952 -44.600693 2.3509886e-038
-22.159487 314.90897 -44.379353 2.3509886e-038
-17.078154 314.47647 -44.318405 2.3509886e-038
-12.067292 315.52338 -44.465942 2.3509886e-038
-8.3403683 317.48096 -44.741817 2.3509886e-038
-88.534134 305.20822 -47.914314 2.3509886e-038
-83.503372 299.11798 -46.95821 2.3509886e-038
-77.182625 293.35406 -46.053341 2.3509886e-038
-72.023705 291.54361 -45.769119 2.3509886e-038
-67.522896 292.33057 -45.892662 2.3509886e-038
-63.355827 294.78796 -46.27845 2.3509886e-038
-59.481232 299.11316 -46.957455 2.3509886e-038
-55.806103 305.28955 -47.927078 2.3509886e-038
-51.994595 311.83792 -48.955101 2.3509886e-038
-47.693455 316.53278 -49.692139 2.3509886e-038
-42.872955 318.48981 -49.999378 2.3509886e-038
-37.765896 318.55984 -50.010372 2.3509886e-038
-32.578224 317.86526 -49.901325 2.3509886e-038
-27.380541 316.79703 -49.733627 2.3509886e-038
-22.221491 315.7901 -49.57555 2.3509886e-038
-17.149836 315.79642 -49.576538 2.3509886e-038
-12.135122 317.29697 -49.812111 2.3509886e-038
-8.5010567 319.22781 -50.115234 2.3509886e-038
-86.255455 308.33017 -53.356632 2.3509886e-038
-85.949715 307.88104 -53.278908 2.3509886e-038
-78.492714 298.33344 -51.626694 2.3509886e-038
-72.581009 293.79953 -50.842098 2.3509886e-038
-67.707748 293.13086 -50.726383 2.3509886e-038
-63.343777 294.73193 -51.003456 2.3509886e-038
-59.281849 298.1105 -51.58812 2.3509886e-038
-55.459335 303.39252 -52.502174 2.3509886e-038
-51.654724 309.79953 -53.610905 2.3509886e-038
-47.513741 315.34003 -54.569695 2.3509886e-038
-42.846878 318.29611 -55.081242 2.3509886e-038
-37.793377 318.79166 -55.166996 2.3509886e-038
-32.623917 318.31113 -55.083839 2.3509886e-038
-27.458954 317.70425 -54.978821 2.3509886e-038
-22.318449 317.16797 -54.886017 2.3509886e-038
-17.244501 317.53958 -54.950321 2.3509886e-038
-12.231221 319.80963 -55.343159 2.3509886e-038
-9.0325089 322.11487 -55.742077 2.3509886e-038
-83.060257 309.28488 -58.489365 2.3509886e-038
-80.400871 305.58588 -57.789841 2.3509886e-038
-73.623787 298.02054 -56.359142 2.3509886e-038
-68.216782 295.33463 -55.851208 2.3509886e-038
-63.617855 296.00717 -55.978394 2.3509886e-038
-59.396473 298.68692 -56.485165 2.3509886e-038
-55.406002 303.10077 -57.319874 2.3509886e-038
-51.512897 308.94894 -58.425827 2.3509886e-038
-47.42709 314.76492 -59.5257 2.3509886e-038
-42.882496 318.5607 -60.243526 2.3509886e-038
-37.87735 319.5 -60.421158 2.3509886e-038
-32.703991 319.09241 -60.344074 2.3509886e-038
-27.552143 318.78247 -60.285469 2.3509886e-038
-22.439676 318.89072 -60.305935 2.3509886e-038
-17.376617 319.97235 -60.510487 2.3509886e-038
-12.358828 323.14618 -61.110691 2.3509886e-038
-10.174225 325.25638 -61.509754 2.3509886e-038
-79.551048 310.24695 -63.654266 2.3509886e-038
-75.253899 304.61905 -62.499577 2.3509886e-038
-69.213364 299.64917 -61.479893 2.3509886e-038
-64.269341 299.03848 -61.354591 2.3509886e-038
-59.821892 300.82623 -61.721394 2.3509886e-038
-55.620033 304.27164 -62.428299 2.3509886e-038
-51.573261 309.31097 -63.462234 2.3509886e-038
-47.442371 314.86636 -64.602051 2.3509886e-038
-42.94173 319.00076 -65.45031 2.3509886e-038
-37.974796 320.32199 -65.72139 2.3509886e-038
-32.804379 320.07184 -65.670074 2.3509886e-038
-27.667196 320.11365 -65.67865 2.3509886e-038
-22.598446 321.147 -65.890663 2.3509886e-038
-17.556671 323.28787 -66.32991 2.3509886e-038
-12.508529 327.06039 -67.103935 2.3509886e-038
-11.806587 327.72934 -67.241188 2.3509886e-038
-75.260269 311.76636 -68.973404 2.3509886e-038
-71.23658 308.40845 -68.230515 2.3509886e-038
-65.745796 305.90826 -67.677391 2.3509886e-038
-60.733334 305.40958 -67.567062 2.3509886e-038
-56.171738 307.28976 -67.983025 2.3509886e-038
-51.919899 311.38992 -68.890121 2.3509886e-038
-47.662018 316.32413 -69.981735 2.3509886e-038
-43.120415 320.32813 -70.867561 2.3509886e-038
-38.179764 322.05087 -71.248688 2.3509886e-038
-33.032131 322.29407 -71.302498 2.3509886e-038
-27.897585 322.7793 -71.409843 2.3509886e-038
-22.834896 324.5072 -71.792122 2.3509886e-038
-17.788359 327.55414 -72.466202 2.3509886e-038
-13.803234 330.86691 -73.199104 2.3509886e-038
-71.132309 320.81155 -76.12719 2.3509886e-038
-68.369644 318.11676 -75.487724 2.3509886e-038
-62.362324 313.60129 -74.416222 2.3509886e-038
-57.248352 313.17944 -74.316124 2.3509886e-038
-52.679428 315.94522 -74.972427 2.3509886e-038
-48.230518 320.09714 -75.957664 2.3509886e-038
-43.60672 323.94077 -76.869736 2.3509886e-038
-38.64447 325.97073 -77.35144 2.3509886e-038
-33.485622 326.71875 -77.528938 2.3509886e-038
-28.334179 327.83072 -77.792809 2.3509886e-038
-23.238434 330.24188 -78.364967 2.3509886e-038
-18.124935 333.75186 -79.197868 2.3509886e-038
-16.212244 335.30975 -79.567543 2.3509886e-038
-64.722977 324.70096 -82.265251 2.3509886e-038
-64.539009 324.54718 -82.22628 2.3509886e-038
-58.845108 321.91452 -81.559288 2.3509886e-038
-53.802406 322.68027 -81.753288 2.3509886e-038
-49.077461 325.71817 -82.522964 2.3509886e-038
-44.420586 329.98669 -83.604424 2.3509886e-038
-39.499916 333.18652 -84.415131 2.3509886e-038
-34.332581 334.98251 -84.870155 2.3509886e-038
-29.151754 337.29022 -85.454826 2.3509886e-038
-24.001652 341.08798 -86.417023 2.3509886e-038
-19.936407 344.49847 -87.28109 2.3509886e-038
-56.406078 329.80432 -88.855309 2.3509886e-038
-54.968082 329.67142 -88.819504 2.3509886e-038
-49.966858 331.62091 -89.344734 2.3509886e-038
-45.450958 337.64102 -90.966667 2.3509886e-038
-40.761314 343.82657 -92.633156 2.3509886e-038
-35.589508 347.24634 -93.554512 2.3509886e-038
-30.265598 350.17755 -94.344231 2.3509886e-038
-27.215946 352.91757 -95.082443 2.3509886e-038
-93.99926 261.49258 4.290535 2.3509886e-038
-96.103912 267.34741 -6.0628896 2.3509886e-038
-93.957169 273.60004 28.834717 9.1476764e-041
-93.272331 271.6058 19.934465 9.1476764e-041
-89.972679 261.99734 3.8106651 2.3509886e-038
-94.187706 274.27133 -14.29437 2.3509886e-038
-91.298378 278.90201 30.74371 9.1476764e-041
-92.286446 281.92038 17.576811 9.1476764e-041
-87.221123 266.44662 2.1665275 2.3509886e-038
-93.298859 285.01315 -23.95912 2.3509886e-038
-90.155128 289.61969 31.614859 9.1476764e-041
-92.832222 298.21973 14.100543 9.1476764e-041
-87.731178 281.83282 0.6884467 2.3509886e-038
-92.001343 295.55057 -33.823421 2.3509886e-038
-88.299973 299.09213 31.07205 9.1476764e-041
-89.321877 302.55353 -44.77924 2.3509886e-038
-84.945839 304.28503 28.733452 9.1476764e-041
-86.097427 308.41016 -53.634998 2.3509886e-038
-81.745331 310.69592 25.129816 9.1476764e-041
-81.502899 309.77444 -60.88718 2.3509886e-038
-71.365067 288.8775 88.099243 2.3418409e-038
-74.996979 303.5791 63.087917 2.3509886e-038
-78.867043 319.24466 21.286444 9.1476764e-041
-76.752457 310.68503 -67.044708 2.3509886e-038
-67.041168 290.245 85.742821 2.3418409e-038
-72.440674 313.62137 41.279911 2.3509886e-038
-74.579445 322.88089 19.93107 9.1476764e-041
-73.021217 316.13477 -72.736496 2.3509886e-038
-63.756645 296.65295 77.156067 2.3418409e-038
-69.364952 322.74783 -78.218063 2.3509886e-038
-60.492844 304.20023 64.022545 2.3418409e-038
-64.586006 324.78354 -82.389618 2.3509886e-038
-57.38279 313.91486 52.2509 2.3418409e-038
-59.976471 328.1037 -86.547089 2.3509886e-038
-52.928844 317.44107 30.985531 2.3509886e-038
-55.11002 330.52267 -89.623947 2.3509886e-038
-46.93935 311.52789 58.407848 2.3418409e-038
-50.397598 334.47964 -92.028839 2.3509886e-038
-40.328938 299.59113 84.879768 3.5733111e-043
-46.106392 342.51001 -94.777451 2.3509886e-038
-35.369812 298.3486 81.770302 3.5733111e-043
-41.523312 350.25409 -96.993431 2.3509886e-038
-31.812868 310.39771 25.990396 3.5733111e-043
-36.217319 353.37189 -97.562042 2.3509886e-038
-27.001081 312.40659 15.843624 2.3509886e-038
-30.541027 353.36432 -96.488541 2.3509886e-038
-21.976509 312.30862 14.461149 2.3509528e-038
-24.758053 351.83722 -93.393333 2.3509886e-038
-16.859684 310.45358 16.594477 2.3509528e-038
-18.524809 341.11511 -84.75016 2.3509886e-038
-11.77509 307.88321 21.13711 2.3509528e-038
-12.578874 328.89972 -69.625023 2.3509886e-038
-6.751266 304.33115 26.461359 2.3509528e-038
-6.938005 312.7489 -3.2464607 2.3509528e-038
-1.8415524 300.78073 32.114506 2.3509528e-038
-1.9038976 310.96359 8.2431908 2.3509528e-038
2.9821556 300.05411 38.42075 2.3509528e-038
3.0527198 307.15402 15.825745 2.3509528e-038
7.7547207 298.25818 43.964191 2.3509528e-038
7.8778529 302.99405 23.180998 2.3509528e-038
12.536193 298.0451 47.777771 2.3509528e-038
12.663386 301.06912 31.475611 2.3509528e-038
17.372858 298.89935 48.499027 2.3509528e-038
17.342381 298.375 41.413368 2.3509528e-038
