# .PCD v0.7 - Point Cloud Data file format
VERSION 0.7
FIELDS x y z rgb
SIZE 4 4 4 4
TYPE F F F F
COUNT 1 1 1 1
WIDTH 650
HEIGHT 1
VIEWPOINT 0 0 0 1 0 0 0
POINTS 650
DATA ascii
0 0 0 2.3418052e-038
-94.795174 291.70401 21.981489 9.1476764e-041
-38.080559 299.46414 80.392296 3.5733111e-043
11.197889 297.20178 43.391819 2.3509528e-038
-71.979202 299.66922 84.681412 2.3418409e-038
-76.342735 299.81546 86.899559 2.3418409e-038
-74.732895 299.28555 86.745979 2.3418409e-038
-69.579102 297.96432 86.363022 2.3418409e-038
-66.371719 297.46396 86.217995 2.3418409e-038
-77.416206 301.68439 82.557159 2.3418409e-038
-75.163696 301.01083 82.372841 2.3418409e-038
-70.027946 299.88647 82.065147 2.3418409e-038
-65.063171 299.38132 81.926918 2.3418409e-038
-64.701355 299.48907 81.956406 2.3418409e-038
-41.885796 300.96939 82.361496 3.5733111e-043
-40.968708 300.405 82.207054 3.5733111e-043
-35.769653 297.61215 81.44278 3.5733111e-043
-33.813923 296.92166 81.25383 3.5733111e-043
-77.460831 302.61011 77.911392 2.3418409e-038
-75.441208 302.12219 77.785774 2.3418409e-038
-70.383156 301.40759 77.601791 2.3418409e-038
-65.393654 300.90201 77.471619 2.3418409e-038
-63.709282 301.05948 77.512169 2.3418409e-038
-42.834553 302.46475 77.873978 3.5733111e-043
-41.091923 301.30844 77.576263 3.5733111e-043
-35.83025 298.11633 76.75441 3.5733111e-043
-32.349873 296.84613 76.427368 3.5733111e-043
-77.355202 304.52133 73.473442 2.3418409e-038
-75.928764 304.07471 73.365685 2.3418409e-038
-70.786606 303.13535 73.13903 2.3418409e-038
-65.71212 302.3674 72.953751 2.3418409e-038
-62.755547 302.41321 72.964806 2.3418409e-038
-43.183273 303.81067 73.301971 3.5733111e-043
-41.242931 302.41574 72.965416 3.5733111e-043
-35.937862 299.01169 72.144096 3.5733111e-043
-31.945009 297.70209 71.828125 3.5733111e-043
-77.447029 308.29858 69.393631 2.3509886e-038
-76.911209 308.00916 69.328484 2.3418409e-038
-71.394241 305.73746 68.817162 2.3418409e-038
-66.047897 303.91245 68.406372 2.3418409e-038
-61.545998 303.58908 68.333588 2.3418409e-038
-43.436176 305.33276 68.726059 3.5733111e-043
-41.425961 303.75781 68.371574 3.5733111e-043
-36.061611 300.04132 67.535034 3.5733111e-043
-31.902142 298.5683 67.203484 3.5733111e-043
-77.348015 311.9147 65.157845 2.3509886e-038
-72.09935 308.75702 64.498215 2.3418409e-038
-66.447166 305.74963 63.869984 2.3418409e-038
-61.351852 305.0267 63.718967 2.3418409e-038
-60.334682 305.31488 63.77916 2.3418409e-038
-43.721474 306.27002 63.978695 3.5733111e-043
-41.542423 304.61179 63.632286 3.5733111e-043
-36.161488 300.87228 62.851124 3.5733111e-043
-31.954397 299.2421 62.510586 3.5733111e-043
-77.271904 315.6976 60.837116 2.3509886e-038
-72.936668 312.34274 60.190605 2.3418409e-038
-67.003067 308.30753 59.412998 2.3418409e-038
-61.72047 306.85941 59.13393 2.3418409e-038
-59.277012 307.35751 59.229923 2.3418409e-038
-44.251034 306.56189 59.076599 2.3418409e-038
-41.563351 304.76523 58.73037 3.5733111e-043
-36.231476 301.45462 58.092396 3.5733111e-043
-32.02269 299.88809 57.790516 3.5733111e-043
-77.112625 318.76328 56.267296 2.3509886e-038
-73.718025 315.68878 55.72459 2.3509886e-038
-67.548988 310.81958 54.865089 2.3418409e-038
-62.063015 308.56247 54.466667 2.3418409e-038
-58.391014 308.81763 54.511711 2.3418409e-038
-45.495857 307.17047 54.220959 2.3418409e-038
-41.549633 304.66464 53.778637 3.5733111e-043
-36.267796 301.75681 53.26535 3.5733111e-043
-32.066971 300.30319 53.008766 3.5733111e-043
-76.806503 320.96417 51.45956 2.3509886e-038
-74.35083 318.39868 51.048244 2.3509886e-038
-67.966637 312.74133 50.141212 2.3418409e-038
-62.342327 309.95114 49.693863 2.3418409e-038
-57.715019 310.11508 49.720146 2.3418409e-038
-47.29678 308.80432 49.509998 2.3418409e-038
-47.091778 308.66156 49.487106 2.3418409e-038
-41.559746 304.7388 48.858181 3.5733111e-043
-36.277401 301.83676 48.392902 3.5733111e-043
-32.083122 300.45468 48.171314 3.5733111e-043
12.301559 299.85074 48.074486 2.3509528e-038
12.50184 299.76511 48.06076 2.3509528e-038
14.543509 299.23679 47.976051 2.3509528e-038
-76.141953 321.91415 46.400265 2.3509886e-038
-74.814713 320.38525 46.179886 2.3509886e-038
-68.254631 314.0665 45.269112 2.3418409e-038
-62.554756 311.00726 44.828159 2.3418409e-038
-57.540634 311.12033 44.844456 2.3418409e-038
-57.113689 311.26291 44.865005 2.3418409e-038
-48.765247 310.4747 44.751396 2.3418409e-038
-47.203579 309.39432 44.595669 2.3418409e-038
-41.607361 305.08792 43.974953 3.5733111e-043
-36.301437 302.03674 43.535156 3.5733111e-043
-32.1147 300.75015 43.349712 3.5733111e-043
6.5823436 299.88055 43.224373 2.3509528e-038
7.6310854 299.07037 43.10759 2.3509528e-038
12.373831 296.69577 42.76532 2.3509528e-038
16.060755 296.84555 42.786907 2.3509528e-038
-75.392212 322.44281 41.256298 2.3509886e-038
-75.259903 322.29169 41.236961 2.3509886e-038
-68.525551 315.31311 40.344055 2.3418409e-038
-62.707855 311.76843 39.890522 2.3418409e-038
-57.643177 311.6748 39.87854 2.3418409e-038
-56.423534 312.07538 39.92979 2.3418409e-038
-49.633537 311.71582 39.883785 2.3418409e-038
-47.339558 310.28561 39.700794 2.3418409e-038
-41.719135 305.90753 39.140621 3.5733111e-043
-36.404316 302.8927 38.754875 3.5733111e-043
-32.246391 301.98489 38.638725 3.5733111e-043
3.1410544 300.6319 38.465611 2.3509528e-038
7.58249 297.16586 38.022133 2.3509528e-038
12.313105 295.23969 37.775681 2.3509528e-038
14.73711 295.30466 37.783993 2.3509528e-038
-75.048958 324.10785 36.222214 2.3509886e-038
-68.937431 317.20828 35.451122 2.3509886e-038
-62.912247 312.78464 34.956734 2.3418409e-038
-57.765511 312.33624 34.906624 2.3418409e-038
-55.792709 313.10812 34.992886 2.3418409e-038
-50.254787 313.38947 35.02433 2.3418409e-038
-47.60154 312.00278 34.869354 2.3418409e-038
-41.939655 307.52451 34.368862 3.5733111e-043
-36.61211 304.62158 34.044434 3.5733111e-043
-32.505444 304.44904 34.025146 3.5733111e-043
-0.56731564 302.11377 33.76416 2.3509528e-038
2.7898707 299.13107 33.430817 2.3509528e-038
7.5697532 296.66672 33.155396 2.3509528e-038
12.328937 295.61932 33.038342 2.3509528e-038
12.704352 295.63766 33.040394 2.3509528e-038
-96.13443 267.30228 25.546164 2.3509886e-038
-94.33493 271.98337 25.993536 2.3509886e-038
-93.245193 282.00452 26.951262 9.1476764e-041
-92.059677 292.75296 27.978493 9.1476764e-041
-89.435516 299.84494 28.656279 9.1476764e-041
-85.713432 303.70059 29.024763 9.1476764e-041
-74.913078 325.61273 31.118912 2.3509886e-038
-69.444519 319.54163 30.538694 2.3509886e-038
-63.291237 314.66885 30.073004 2.3509886e-038
-58.009544 313.65573 29.976177 2.3418409e-038
-55.09613 314.68927 30.074955 2.3418409e-038
-51.300961 315.22449 30.126106 2.3509886e-038
-47.909828 314.02344 30.01132 2.3509886e-038
-42.228779 309.6445 29.592823 3.5733111e-043
-36.855537 306.64697 29.306349 3.5733111e-043
-32.722904 306.79633 29.320621 3.5733111e-043
-5.1684856 304.61841 29.112478 2.3509528e-038
-2.0693178 301.52768 28.817097 2.3509528e-038
2.782378 298.32767 28.511269 2.3509528e-038
7.5884891 297.40097 28.422707 2.3509528e-038
10.230321 297.896 28.470015 2.3509528e-038
-97.139496 269.35333 21.381504 2.3509886e-038
-95.132668 274.28339 21.772858 2.3509886e-038
-94.562126 285.98734 22.701929 9.1476764e-041
-93.536613 297.44965 23.611816 9.1476764e-041
-90.20797 302.43472 24.007534 9.1476764e-041
-86.013145 304.92126 24.204922 9.1476764e-041
-82.484848 310.12195 24.617756 9.1476764e-041
-74.762283 324.63806 25.770058 2.3509886e-038
-69.735985 320.88278 25.471958 2.3509886e-038
-63.668392 316.54401 25.127542 2.3509886e-038
-58.294281 315.19528 25.020481 2.3509886e-038
-53.358467 316.18497 25.099043 2.3509886e-038
-48.111248 315.34366 25.032257 2.3509886e-038
-42.475452 311.45325 24.723434 2.3509886e-038
-37.032028 308.11542 24.458475 2.3509886e-038
-32.514488 307.53119 24.412098 3.5733111e-043
-10.201633 307.14651 24.381563 2.3509528e-038
-7.0081062 304.00919 24.132521 2.3509528e-038
-2.0601578 300.19296 23.82958 2.3509528e-038
2.7818375 298.26971 23.676914 2.3509528e-038
7.4074068 298.97302 23.732742 2.3509528e-038
-97.160873 287.30136 18.155001 9.1476764e-041
-97.273827 294.18845 18.590206 9.1476764e-041
-95.788513 304.61078 19.24881 9.1476764e-041
-91.228401 305.85583 19.327486 9.1476764e-041
-86.515587 306.70242 19.380983 9.1476764e-041
-82.558563 310.49463 19.620617 9.1476764e-041
-79.256889 317.40298 20.057167 9.1476764e-041
-79.100937 317.69421 20.075571 9.1476764e-041
-75.716965 321.12299 20.29224 9.1476764e-041
-75.035805 321.33203 20.305449 9.1476764e-041
-69.59787 320.24725 20.236902 2.3509886e-038
-63.881359 317.60281 20.069796 2.3509886e-038
-58.531612 316.47852 19.998749 2.3509886e-038
-53.405186 316.46179 19.997692 2.3509886e-038
-48.140614 315.5361 19.939198 2.3509886e-038
-42.639435 312.65567 19.757175 2.3509886e-038
-37.184608 309.38492 19.550493 2.3509886e-038
-32.040852 308.08698 19.468473 2.3509886e-038
-31.541378 308.23096 19.477573 2.3509886e-038
-15.067215 310.48645 19.6201 2.3509528e-038
-12.06449 307.44098 19.427652 2.3509528e-038
-6.995368 303.4566 19.175875 2.3509528e-038
-2.0645304 300.83011 19.009901 2.3509528e-038
2.7967558 299.86926 18.949184 2.3509528e-038
4.4840803 300.36325 18.9804 2.3509528e-038
-99.793571 312.07965 14.668383 9.1476764e-041
-98.117714 312.0177 14.665472 9.1476764e-041
-92.351997 309.62286 14.552909 9.1476764e-041
-87.245888 309.29141 14.537332 9.1476764e-041
-82.899239 311.77585 14.654104 9.1476764e-041
-78.776909 315.4808 14.828244 9.1476764e-041
-74.291687 318.14542 14.953487 9.1476764e-041
-69.240585 318.60324 14.975006 9.1476764e-041
-63.952415 317.95609 14.944589 2.3509886e-038
-58.719296 317.49332 14.922837 2.3509886e-038
-53.469479 316.8428 14.892262 2.3509886e-038
-48.152996 315.61725 14.83466 2.3509886e-038
-42.766697 313.58884 14.739318 2.3509886e-038
-37.374439 310.96439 14.615963 2.3509886e-038
-32.178543 309.41089 14.542947 2.3509886e-038
-27.937464 310.72681 14.604797 2.3509886e-038
-21.495533 312.82367 14.703355 2.3509528e-038
-17.197172 310.24377 14.582094 2.3509528e-038
-12.03845 306.77737 14.419167 2.3509528e-038
-7.0158906 304.34686 14.304927 2.3509528e-038
-2.0804954 303.15643 14.248975 2.3509528e-038
1.3832436 303.33185 14.257219 2.3509528e-038
-97.126488 316.02011 9.7374067 9.1476764e-041
-93.681168 314.07907 9.677598 9.1476764e-041
-88.187309 312.62881 9.6329117 9.1476764e-041
-83.384392 313.60049 9.6628513 9.1476764e-041
-78.826889 315.68094 9.7269564 9.1476764e-041
-74.133224 317.46686 9.7819843 9.1476764e-041
-69.192017 318.37976 9.810113 9.1476764e-041
-64.098045 318.68015 9.8193684 9.1476764e-041
-58.924232 318.60141 9.8169432 2.3509886e-038
-53.650223 317.91382 9.7957573 2.3509886e-038
-48.300373 316.58325 9.7547579 2.3509886e-038
-42.947979 314.91806 9.7034502 2.3509886e-038
-37.606815 312.8978 9.6412001 2.3509886e-038
-32.36792 311.23181 9.5898666 2.3509886e-038
-27.281992 310.69363 9.5732832 2.3509886e-038
-22.2321 310.41525 9.5647058 2.3509528e-038
-17.120754 308.8652 9.5169449 2.3509528e-038
-12.035904 306.71246 9.4506149 2.3509528e-038
-7.0385036 305.32782 9.4079494 2.3509528e-038
-2.1003463 306.04898 9.4301701 2.3509528e-038
-1.9099332 306.17773 9.4341373 2.3509528e-038
-95.069046 318.00964 4.6503129 9.1476764e-041
-94.836098 317.95114 4.6494575 9.1476764e-041
-89.107277 315.89014 4.619319 9.1476764e-041
-83.852234 315.35999 4.6115661 9.1476764e-041
-79.154137 316.99149 4.6354237 9.1476764e-041
-74.466896 318.89575 4.6632705 9.1476764e-041
-69.516434 319.87256 4.6775546 9.1476764e-041
-64.367363 320.01913 4.679698 9.1476764e-041
-59.135307 319.74268 4.6756554 2.3509886e-038
-53.851162 319.10452 4.6663232 2.3509886e-038
-48.513191 317.97818 4.6498528 2.3509886e-038
-43.164993 316.50937 4.6283741 2.3509886e-038
-37.822296 314.69061 4.601778 2.3509886e-038
-32.542053 312.90622 4.5756841 2.3509886e-038
-27.354954 311.52454 4.55548 2.3509886e-038
-22.225628 310.32489 4.5379372 2.3509528e-038
-17.115211 308.7652 4.5151296 2.3509528e-038
-12.042048 306.86905 4.4874024 2.3509528e-038
-7.0506496 305.85471 4.472569 2.3509528e-038
-5.050005 306.19498 4.4775453 2.3509528e-038
-103.86964 262.32977 -0.41087463 2.3509886e-038
-103.73837 262.35703 -0.41091731 2.3509886e-038
-100.34011 264.59625 -0.41442448 2.3509886e-038
-97.819542 269.45288 -0.42203119 2.3509886e-038
-96.453651 276.8783 -0.43366128 2.3509886e-038
-93.677437 318.75455 -0.49925008 9.1476764e-041
-89.664864 317.86679 -0.4978596 9.1476764e-041
-84.247765 316.84756 -0.49626321 9.1476764e-041
-79.461037 318.22055 -0.49841368 9.1476764e-041
-74.720329 319.98105 -0.50117105 9.1476764e-041
-69.717743 320.79886 -0.50245196 9.1476764e-041
-64.526115 320.80841 -0.50246692 9.1476764e-041
-59.253685 320.38275 -0.50180024 9.1476764e-041
-53.955723 319.72412 -0.50076866 2.3509886e-038
-48.646328 318.8508 -0.49940076 2.3509886e-038
-43.305851 317.54221 -0.49735123 2.3509886e-038
-37.957848 315.81845 -0.49465138 2.3509886e-038
-32.671417 314.15009 -0.49203831 2.3509886e-038
-27.452351 312.63373 -0.48966327 2.3509886e-038
-22.272757 310.98291 -0.48707771 2.3509528e-038
-17.138197 309.17987 -0.48425367 2.3509528e-038
-12.065836 307.47528 -0.48158383 2.3509528e-038
-7.6856604 306.91257 -0.48070252 2.3509528e-038
-101.68879 259.06177 -4.5998096 2.3509886e-038
-98.725212 260.33777 -4.6224666 2.3509886e-038
-95.996078 264.42999 -4.6951265 2.3509886e-038
-94.411041 272.20279 -4.8331375 2.3509886e-038
-93.509453 282.80371 -5.0213637 2.3509886e-038
-93.400803 288.14609 -5.116221 2.3509886e-038
-92.402527 316.53146 -5.6202216 2.3509886e-038
-89.645859 317.79941 -5.6427355 9.1476764e-041
-84.45015 317.60867 -5.6393485 9.1476764e-041
-79.577202 318.68573 -5.6584725 9.1476764e-041
-74.720337 319.98111 -5.6814723 9.1476764e-041
-69.655891 320.51422 -5.6909385 9.1476764e-041
-64.492439 320.64099 -5.6931887 9.1476764e-041
-59.280949 320.53015 -5.6912208 2.3509886e-038
-54.020374 320.10721 -5.6837115 2.3509886e-038
-48.730671 319.40363 -5.6712189 2.3509886e-038
-43.374107 318.04266 -5.6470542 2.3509886e-038
-38.033279 316.44611 -5.6187062 2.3509886e-038
-32.764523 315.04535 -5.5938349 2.3509886e-038
-27.522875 313.43686 -5.5652757 2.3509886e-038
-22.307673 311.47043 -5.5303597 2.3509528e-038
-17.178669 309.91003 -5.5026536 2.3509528e-038
-12.125638 308.99921 -5.4864817 2.3509528e-038
-9.5077028 308.8862 -5.4844751 2.3509528e-038
-98.624893 259.39923 -8.8053293 2.3509886e-038
-98.416542 259.5238 -8.809557 2.3509886e-038
-95.514999 263.1048 -8.9311142 2.3509886e-038
-93.433586 269.38461 -9.1442842 2.3509886e-038
-91.769653 277.54196 -9.4211855 2.3509886e-038
-91.415359 290.70398 -9.8679705 2.3509886e-038
-91.573959 307.01437 -10.421629 2.3509886e-038
-89.03347 315.62851 -10.714035 2.3509886e-038
-84.314491 317.09848 -10.763934 9.1476764e-041
-79.489517 318.33459 -10.805894 9.1476764e-041
-74.620598 319.55396 -10.847285 9.1476764e-041
-69.564354 320.09308 -10.865586 9.1476764e-041
-64.451347 320.43665 -10.877249 9.1476764e-041
-59.303741 320.65341 -10.884607 2.3509886e-038
-54.084557 320.48755 -10.878978 2.3509886e-038
-48.789658 319.79025 -10.855307 2.3509886e-038
-43.411549 318.31723 -10.805305 2.3509886e-038
-38.094517 316.9556 -10.759085 2.3509886e-038
-32.85574 315.92242 -10.724013 2.3509886e-038
-27.601641 314.33386 -10.670089 2.3509886e-038
-22.364265 312.26059 -10.599712 2.3509886e-038
-17.245464 311.11502 -10.560825 2.3509886e-038
-12.213487 311.23785 -10.564995 2.3509528e-038
-10.538651 311.57651 -10.576491 2.3509528e-038
-97.012085 264.44293 -13.25772 2.3509886e-038
-96.218666 265.04312 -13.287809 2.3509886e-038
-93.331879 269.0914 -13.490768 2.3509886e-038
-91.035042 275.32025 -13.803049 2.3509886e-038
-89.905922 285.90393 -14.333657 2.3509886e-038
-89.487762 300.02011 -15.041365 2.3509886e-038
-87.664413 310.77512 -15.580561 2.3509886e-038
-83.697258 314.77713 -15.781201 2.3509886e-038
-79.175583 317.07736 -15.896522 2.3509886e-038
-74.434341 318.75635 -15.980697 9.1476764e-041
-69.465019 319.63596 -16.024796 2.3509886e-038
-64.40757 320.21906 -16.054029 2.3509886e-038
-59.305115 320.66083 -16.076178 2.3509886e-038
-54.092957 320.53729 -16.069984 2.3509886e-038
-48.75576 319.56805 -16.021391 2.3509886e-038
-43.377991 318.07117 -15.946345 2.3509886e-038
-38.112621 317.10623 -15.897969 2.3509886e-038
-32.917011 316.5116 -15.868157 2.3509886e-038
-27.665159 315.05722 -15.795242 2.3509886e-038
-22.4116 312.92151 -15.688169 2.3509886e-038
-17.288252 311.88693 -15.636303 2.3509886e-038
-12.267202 312.60669 -15.672387 2.3509886e-038
-10.788446 313.2323 -15.703751 2.3509886e-038
-95.798477 269.47437 -17.872604 2.3509886e-038
-93.970955 270.93396 -17.96941 2.3509886e-038
-91.125443 275.59366 -18.278461 2.3509886e-038
-89.071236 283.24957 -18.786232 2.3509886e-038
-87.651512 293.86383 -19.49021 2.3509886e-038
-85.843285 304.31912 -20.183645 2.3509886e-038
-82.639328 310.79837 -20.613377 2.3509886e-038
-78.557251 314.60114 -20.865589 2.3509886e-038
-74.043678 317.08337 -21.030222 2.3509886e-038
-69.238716 318.59464 -21.130455 2.3509886e-038
-64.266464 319.51746 -21.19166 2.3509886e-038
-59.203278 320.1102 -21.230974 2.3509886e-038
-54.005089 320.01666 -21.22477 2.3509886e-038
-48.679146 319.06589 -21.161711 2.3509886e-038
-43.337093 317.77127 -21.075844 2.3509886e-038
-38.105995 317.05109 -21.028082 2.3509886e-038
-32.927979 316.61707 -20.999296 2.3509886e-038
-27.680311 315.22977 -20.907284 2.3509886e-038
-22.418541 313.01843 -20.76062 2.3509886e-038
-17.283674 311.80432 -20.680094 2.3509886e-038
-12.263065 312.50128 -20.72632 2.3509886e-038
-10.338967 313.41541 -20.786949 2.3509886e-038
-95.067917 274.92029 -22.684607 2.3509886e-038
-91.813087 277.67334 -22.911768 2.3509886e-038
-88.781174 282.32718 -23.295773 2.3509886e-038
-86.343407 289.47821 -23.88583 2.3509886e-038
-84.129753 298.24454 -24.609169 2.3509886e-038
-81.229965 305.49789 -25.207666 2.3509886e-038
-77.498863 310.36255 -25.609066 2.3509886e-038
-73.282623 313.82425 -25.894701 2.3509886e-038
-68.75177 316.354 -26.103443 2.3509886e-038
-63.976303 318.07486 -26.245436 2.3509886e-038
-59.019962 319.11905 -26.331594 2.3509886e-038
-53.896572 319.3736 -26.3526 2.3509886e-038
-48.648731 318.86655 -26.31076 2.3509886e-038
-43.350769 317.87155 -26.228659 2.3509886e-038
-38.120556 317.17224 -26.170956 2.3509886e-038
-32.922428 316.56369 -26.120745 2.3509886e-038
-27.666142 315.06842 -25.997364 2.3509886e-038
-22.403366 312.80655 -25.81073 2.3509886e-038
-17.258677 311.35336 -25.690823 2.3509886e-038
-12.229465 311.64505 -25.714891 2.3509886e-038
-9.560668 312.72208 -25.803761 2.3509886e-038
-94.746735 281.20099 -27.755331 2.3509886e-038
-93.024857 281.33813 -27.768867 2.3509886e-038
-89.003136 283.03305 -27.936161 2.3509886e-038
-85.659599 287.18567 -28.346037 2.3509886e-038
-82.76548 293.40811 -28.960211 2.3509886e-038
-79.625694 299.46442 -29.557983 2.3509886e-038
-76.048988 304.55615 -30.060555 2.3509886e-038
-72.138847 308.92615 -30.491882 2.3509886e-038
-67.961769 312.7189 -30.86624 2.3509886e-038
-63.519188 315.80219 -31.170567 2.3509886e-038
-58.797291 317.91504 -31.379114 2.3509886e-038
-53.815311 318.89209 -31.475552 2.3509886e-038
-48.656467 318.91724 -31.478033 2.3509886e-038
-43.393234 318.18295 -31.405558 2.3509886e-038
-38.15831 317.48636 -31.3368 2.3509886e-038
-32.925858 316.59668 -31.248987 2.3509886e-038
-27.649076 314.87408 -31.078962 2.3509886e-038
-22.394464 312.68228 -30.862623 2.3509886e-038
-17.252285 311.23807 -30.720078 2.3509886e-038
-12.20991 311.1467 -30.711058 2.3509886e-038
-8.9075623 312.24393 -30.819359 2.3509886e-038
-93.877747 286.05435 -32.865433 2.3509886e-038
-89.579277 284.86517 -32.728802 2.3509886e-038
-85.408195 286.3428 -32.898571 2.3509886e-038
-81.780228 289.91534 -33.309032 2.3509886e-038
-78.202957 294.11362 -33.791378 2.3509886e-038
-74.581314 298.67856 -34.315853 2.3509886e-038
-70.843407 303.37857 -34.85585 2.3509886e-038
-66.946236 308.04608 -35.392109 2.3509886e-038
-62.858299 312.51642 -35.90572 2.3509886e-038
-58.467888 316.13397 -36.321346 2.3509886e-038
-53.687298 318.13351 -36.551079 2.3509886e-038
-48.624599 318.7084 -36.617126 2.3509886e-038
-43.409233 318.30023 -36.570236 2.3509886e-038
-38.184952 317.70801 -36.50219 2.3509886e-038
-32.926636 316.60413 -36.375366 2.3509886e-038
-27.631512 314.67404 -36.15361 2.3509886e-038
-22.396336 312.70837 -35.927773 2.3509886e-038
-17.277853 311.69934 -35.81184 2.3509886e-038
-12.228079 311.60971 -35.801544 2.3509886e-038
-8.6027317 312.73203 -35.930489 2.3509886e-038
-92.095421 288.81088 -37.857815 2.3509886e-038
-90.550919 287.95505 -37.745632 2.3509886e-038
-85.687485 287.27914 -37.657036 2.3509886e-038
-81.428207 288.66742 -37.839012 2.3509886e-038
-77.39949 291.09186 -38.156811 2.3509886e-038
-73.519585 294.42661 -38.593933 2.3509886e-038
-69.698433 298.47534 -39.124653 2.3509886e-038
-65.871025 303.09857 -39.730671 2.3509886e-038
-62.018322 308.34024 -40.417759 2.3509886e-038
-57.963284 313.40558 -41.08173 2.3509886e-038
-53.448231 316.71689 -41.515781 2.3509886e-038
-48.517162 318.00418 -41.684528 2.3509886e-038
-43.375896 318.05582 -41.691292 2.3509886e-038
-38.178078 317.65085 -41.63821 2.3509886e-038
-32.919903 316.5394 -41.492519 2.3509886e-038
-27.627638 314.62991 -41.242218 2.3509886e-038
-22.413977 312.95468 -41.022629 2.3509886e-038
-17.324469 312.54025 -40.968304 2.3509886e-038
-12.279249 312.9137 -41.017254 2.3509886e-038
-8.6961546 314.08176 -41.170364 2.3509886e-038
-89.99176 291.68808 -42.95723 2.3509886e-038
-86.634987 290.45578 -42.775749 2.3509886e-038
-81.787292 289.94043 -42.699852 2.3509886e-038
-77.248772 290.52502 -42.785946 2.3509886e-038
-72.980927 292.26941 -43.042847 2.3509886e-038
-68.913383 295.11349 -43.4617 2.3509886e-038
-65.002998 299.10446 -44.04945 2.3509886e-038
-61.222828 304.38525 -44.82716 2.3509886e-038
-57.36837 310.18893 -45.681873 2.3509886e-038
-53.112011 314.72458 -46.349842 2.3509886e-038
-48.368504 317.02982 -46.689335 2.3509886e-038
-43.316666 317.62149 -46.776478 2.3509886e-038
-38.133083 317.27649 -46.725666 2.3509886e-038
-32.896637 316.3157 -46.584171 2.3509886e-038
-27.649424 314.87802 -46.37244 2.3509886e-038
-22.466379 313.68634 -46.196941 2.3509886e-038
-17.391258 313.74521 -46.205608 2.3509886e-038
-12.357086 314.89722 -46.375267 2.3509886e-038
-9.1946173 316.21869 -46.569885 2.3509886e-038
-87.648338 295.15387 -48.246017 2.3509886e-038
-82.593819 292.79959 -47.861187 2.3509886e-038
-77.482674 291.40469 -47.633179 2.3509886e-038
-72.846458 291.7309 -47.686497 2.3509886e-038
-68.559006 293.59592 -47.991356 2.3509886e-038
-64.508514 296.8291 -48.519852 2.3509886e-038
-60.649338 301.534 -49.288918 2.3509886e-038
-56.837891 307.32062 -50.234802 2.3509886e-038
-52.787209 312.79987 -51.130444 2.3509886e-038
-48.263699 316.34286 -51.709583 2.3509886e-038
-43.305111 317.53677 -51.904743 2.3509886e-038
-38.119621 317.16446 -51.84388 2.3509886e-038
-32.905655 316.40237 -51.719311 2.3509886e-038
-27.713114 315.60333 -51.588703 2.3509886e-038
-22.553988 314.90961 -51.4753 2.3509886e-038
-17.480286 315.35132 -51.547504 2.3509886e-038
-12.467587 317.71313 -51.933571 2.3509886e-038
-10.109011 319.36435 -52.203476 2.3509886e-038
-84.914246 298.43579 -53.613987 2.3509886e-038
-83.980659 297.716 -53.484676 2.3509886e-038
-78.166237 293.97552 -52.812702 2.3509886e-038
-73.095161 292.7269 -52.588387 2.3509886e-038
-68.585716 293.7103 -52.765053 2.3509886e-038
-64.377655 296.22702 -53.217178 2.3509886e-038
-60.366245 300.12653 -53.917728 2.3509886e-038
-56.495975 305.47189 -54.878025 2.3509886e-038
-52.554813 311.42276 -55.947098 2.3509886e-038
-48.214119 316.01788 -56.772614 2.3509886e-038
-43.359993 317.93918 -57.117775 2.3509886e-038
-38.194313 317.78592 -57.090237 2.3509886e-038
-32.983818 317.15396 -56.976707 2.3509886e-038
-27.808805 316.69308 -56.893909 2.3509886e-038
-22.664228 316.44885 -56.850033 2.3509886e-038
-17.596071 317.44012 -57.028114 2.3509886e-038
-12.596327 320.9938 -57.666538 2.3509886e-038
-11.339537 322.2395 -57.890324 2.3509886e-038
-81.595451 300.73715 -58.896191 2.3509886e-038
-79.45575 298.82523 -58.521767 2.3509886e-038
-73.831909 295.67737 -57.905285 2.3509886e-038
-68.997543 295.47388 -57.865437 2.3509886e-038
-64.587143 297.19095 -58.201706 2.3509886e-038
-60.412235 300.35516 -58.821388 2.3509886e-038
-56.425724 305.09207 -59.749058 2.3509886e-038
-52.461079 310.86734 -60.880085 2.3509886e-038
-48.19228 315.87476 -61.860733 2.3509886e-038
-43.418766 318.37015 -62.349426 2.3509886e-038
-38.291191 318.59195 -62.392868 2.3509886e-038
-33.080307 318.08173 -62.29295 2.3509886e-038
-27.91271 317.8764 -62.252735 2.3509886e-038
-22.805496 318.42126 -62.35944 2.3509886e-038
-17.773438 320.63989 -62.793934 2.3509886e-038
-12.777794 325.61816 -63.768879 2.3509886e-038
-12.711456 325.7016 -63.785217 2.3509886e-038
-77.670036 302.33731 -64.104218 2.3509886e-038
-75.100288 300.75687 -63.769115 2.3509886e-038
-69.943977 299.52689 -63.508324 2.3509886e-038
-65.257774 300.27676 -63.66732 2.3509886e-038
-60.844738 302.50546 -64.139862 2.3509886e-038
-56.664619 306.38376 -64.962181 2.3509886e-038
-52.570164 311.51376 -66.049881 2.3509886e-038
-48.26218 316.33292 -67.071686 2.3509886e-038
-43.506481 319.01334 -67.640007 2.3509886e-038
-38.40617 319.54865 -67.75351 2.3509886e-038
-33.211002 319.33847 -67.708946 2.3509886e-038
-28.068165 319.64676 -67.774307 2.3509886e-038
-23.011665 321.2999 -68.124832 2.3509886e-038
-18.026173 325.19931 -68.951614 2.3509886e-038
-14.131054 330.40933 -70.05629 2.3509886e-038
-73.866211 307.56781 -70.192604 2.3509886e-038
-71.704865 307.06766 -70.078461 2.3509886e-038
-66.636406 306.62039 -69.976379 2.3509886e-038
-61.801891 307.26422 -70.123314 2.3509886e-038
-57.287617 309.75229 -70.691139 2.3509886e-038
-52.997185 314.04413 -71.670616 2.3509886e-038
-48.591492 318.49136 -72.685562 2.3509886e-038
-43.806942 321.21646 -73.30748 2.3509886e-038
-38.703369 322.02139 -73.49118 2.3509886e-038
-33.508144 322.19559 -73.53093 2.3509886e-038
-28.369944 323.0835 -73.733566 2.3509886e-038
-23.327835 325.71442 -74.333984 2.3509886e-038
-18.342701 330.90961 -75.51963 2.3509886e-038
-15.668943 335.0318 -76.460388 2.3509886e-038
-69.891861 317.29071 -77.548279 2.3509886e-038
-68.882462 316.95541 -77.466331 2.3509886e-038
-63.521378 315.81305 -77.187126 2.3509886e-038
-58.499676 316.30585 -77.307564 2.3509886e-038
-53.882011 319.28732 -78.036263 2.3509886e-038
-49.322166 323.28055 -79.012238 2.3509886e-038
-44.495403 326.26465 -79.741577 2.3509886e-038
-39.352253 327.42026 -80.024017 2.3509886e-038
-34.107788 327.96146 -80.156288 2.3509886e-038
-28.93392 329.50616 -80.533821 2.3509886e-038
-23.866613 333.23712 -81.445702 2.3509886e-038
-18.825258 339.61514 -83.004539 2.3509886e-038
-18.114456 340.68155 -83.265175 2.3509886e-038
-64.500114 327.90643 -85.451485 2.3509886e-038
-60.421227 326.69559 -85.135941 2.3509886e-038
-55.339176 327.92203 -85.455551 2.3509886e-038
-50.555653 331.36542 -86.352882 2.3509886e-038
-45.627197 334.56357 -87.186325 2.3509886e-038
-40.419182 336.29733 -87.63813 2.3509886e-038
-35.144188 337.92688 -88.062782 2.3509886e-038
-29.935501 340.91241 -88.840805 2.3509886e-038
-24.79792 346.24045 -90.229286 2.3509886e-038
-22.96895 348.9556 -90.936836 2.3509886e-038
-103.83743 262.60754 -0.12329195 2.3509886e-038
-102.82644 260.05075 -3.1097183 2.3509886e-038
-101.18032 266.81189 1.4869014 2.3509886e-038
-98.463661 259.64804 -9.1107216 2.3509886e-038
-98.611794 271.63519 1.0353129 2.3509886e-038
-96.595657 266.08157 -14.695859 2.3509886e-038
-94.244278 271.72198 28.480143 2.3509886e-038
-96.302223 277.6554 19.117949 9.1476764e-041
-96.270042 277.56259 -0.62353057 2.3509886e-038
-95.126427 274.26538 -22.124138 2.3509886e-038
-92.850937 280.81213 30.830107 9.1476764e-041
-98.810143 298.83478 17.156141 9.1476764e-041
-94.294197 285.17706 -3.5883985 2.3509886e-038
-94.250763 285.04568 -31.458843 2.3509886e-038
-91.584663 291.24237 32.044437 9.1476764e-041
-98.858971 314.37494 12.86165 9.1476764e-041
-92.610603 294.50491 -7.4214478 2.3509886e-038
-91.224022 290.09555 -40.097881 2.3509886e-038
-89.235016 299.17273 31.632635 9.1476764e-041
-94.908134 318.19266 4.0758662 9.1476764e-041
-92.000267 308.44363 -9.4932489 2.3509886e-038
-87.915115 294.74759 -47.663528 2.3509886e-038
-85.679893 303.73987 28.991541 9.1476764e-041
-84.351448 299.03049 -54.635578 2.3509886e-038
-82.471306 310.16644 24.593523 9.1476764e-041
-80.10553 301.26898 -60.887756 2.3509886e-038
-74.399658 297.95105 89.446915 2.3418409e-038
-77.411453 310.01248 67.405342 2.3509886e-038
-79.280571 317.49783 20.216146 9.1476764e-041
-75.883224 303.89233 -66.653473 2.3509886e-038
-69.24073 296.51532 89.342484 2.3418409e-038
-75.327919 322.58295 40.650322 2.3509886e-038
-75.225845 322.14584 21.444746 2.3509886e-038
-72.576393 310.7999 -72.686195 2.3509886e-038
-64.993561 299.06104 82.887627 2.3418409e-038
-69.251709 318.65445 -78.587318 2.3509886e-038
-61.152348 304.03482 66.89064 2.3418409e-038
-65.624687 326.27023 -84.134552 2.3509886e-038
-57.456699 310.6665 47.60099 2.3418409e-038
-61.256207 331.21033 -88.317146 2.3509886e-038
-53.296608 315.81839 27.417475 2.3509886e-038
-56.865402 336.96591 -91.763359 2.3509886e-038
-47.077587 308.56854 50.067177 2.3418409e-038
-52.272831 342.62057 -94.153976 2.3509886e-038
-40.920189 300.04922 84.189552 3.5733111e-043
-47.09861 345.35278 -95.171402 2.3509886e-038
-35.764812 297.5719 84.216759 3.5733111e-043
-41.622952 346.31302 -95.425491 2.3509886e-038
-32.017143 307.85895 21.227104 2.3509886e-038
-36.224949 348.31888 -95.669754 2.3509886e-038
-27.313303 311.0502 14.22357 2.3509886e-038
-30.769396 350.409 -95.233253 2.3509886e-038
-22.395042 312.69031 14.234998 2.3509528e-038
-25.066402 349.98911 -92.644104 2.3509886e-038
-17.283596 311.80292 17.612047 2.3509528e-038
-19.003441 342.82962 -85.160957 2.3509886e-038
-12.103724 308.44077 22.527735 2.3509528e-038
-12.790667 325.9462 -64.131218 2.3509886e-038
-7.041513 305.45837 27.351889 2.3509528e-038
-7.0681639 306.61447 0.76601487 2.3509528e-038
-2.0790911 302.95178 32.137783 2.3509528e-038
-2.1015456 306.22372 9.1460018 2.3509528e-038
2.8049252 300.74518 37.990486 2.3509528e-038
2.8149207 301.81693 16.388985 2.3509528e-038
7.6521358 299.89539 44.519619 2.3509528e-038
7.6274862 298.92932 24.098345 2.3509528e-038
12.504957 299.83987 48.163872 2.3509528e-038
12.339988 295.88428 32.326023 2.3509528e-038
