# .PCD v0.7 - Point Cloud Data file format
VERSION 0.7
FIELDS x y z rgb
SIZE 4 4 4 4
TYPE F F F F
COUNT 1 1 1 1
WIDTH 730
HEIGHT 1
VIEWPOINT 0 0 0 1 0 0 0
POINTS 730
DATA ascii
47.642853 246.72842 36.022648 2.3418052e-038
-87.06086 225.43138 -26.542946 9.1476764e-041
-56.666271 255.9953 65.105919 3.5733111e-043
12.56317 242.50005 67.384285 2.3509528e-038
-22.837511 255.21159 80.532265 2.3418409e-038
-25.85799 254.79279 83.908562 2.3418409e-038
-21.376953 254.50935 83.815231 2.3418409e-038
-19.651896 254.52432 83.82016 2.3418409e-038
-27.377939 256.62036 79.734802 2.3418409e-038
-26.302296 256.35144 79.651253 2.3418409e-038
-21.448996 255.3671 79.345406 2.3418409e-038
-17.413012 255.14565 79.276588 2.3418409e-038
-27.912258 259.2659 75.731934 2.3418409e-038
-26.541065 258.67859 75.560387 2.3418409e-038
-21.591177 257.05988 75.087555 2.3418409e-038
-16.799751 256.9436 75.053596 2.3418409e-038
-16.336817 257.28333 75.152824 2.3418409e-038
9.7760992 241.77818 70.623749 2.3509528e-038
11.183834 241.68108 70.595383 2.3509528e-038
15.686581 241.75998 70.618439 2.3509528e-038
16.328674 241.82642 70.63784 2.3509528e-038
-28.09672 260.58688 71.268341 2.3418409e-038
-26.660089 259.83865 71.063705 2.3418409e-038
-21.668913 257.98538 70.556854 2.3418409e-038
-16.858746 257.84589 70.5187 2.3418409e-038
-15.53145 258.60501 70.726318 2.3418409e-038
7.5004683 242.92934 66.439148 2.3509528e-038
11.215734 242.37042 66.286293 2.3509528e-038
15.772004 243.07651 66.479401 2.3509528e-038
17.936861 243.57263 66.615089 2.3509528e-038
-61.032249 256.23917 65.310753 3.5733111e-043
-59.549469 255.7193 65.178253 3.5733111e-043
-54.963978 256.52847 65.384491 3.5733111e-043
-51.94635 258.08878 65.782181 3.5733111e-043
-28.192579 261.43848 66.635963 2.3418409e-038
-26.72912 260.51141 66.399681 2.3418409e-038
-21.68251 258.14728 65.797096 2.3418409e-038
-16.849735 257.70807 65.68515 2.3418409e-038
-14.990218 258.49292 65.885193 2.3418409e-038
6.508574 245.03918 62.456078 2.3509528e-038
6.7730231 244.81851 62.399834 2.3509528e-038
11.270721 243.55869 62.078728 2.3509528e-038
15.862139 244.46565 62.309895 2.3509528e-038
18.348658 245.26563 62.51379 2.3509528e-038
-61.765694 257.65683 60.877167 3.5733111e-043
-59.817371 256.86972 60.691196 3.5733111e-043
-55.164684 257.46521 60.831894 3.5733111e-043
-50.70657 259.16849 61.234325 3.5733111e-043
-50.153378 259.45868 61.302898 3.5733111e-043
-28.295469 262.39261 61.996098 2.3418409e-038
-26.821009 261.40701 61.763229 2.3418409e-038
-21.730303 258.71625 61.12748 2.3418409e-038
-16.878445 258.14719 60.993023 2.3418409e-038
-14.675623 259.04703 61.205631 2.3418409e-038
5.9168177 246.60237 58.265301 2.3509528e-038
6.80439 245.95229 58.11171 2.3509528e-038
11.333649 244.91855 57.867462 2.3509528e-038
15.970605 246.1373 58.155422 2.3509528e-038
18.368549 247.37386 58.447582 2.3509528e-038
-62.039051 258.82956 56.337509 3.5733111e-043
-60.081722 258.00494 56.158016 3.5733111e-043
-55.304817 258.11926 56.182903 3.5733111e-043
-50.713821 259.20554 56.419346 3.5733111e-043
-48.649822 259.77206 56.542652 3.5733111e-043
-28.386803 263.23941 57.297367 2.3418409e-038
-26.918247 262.35474 57.104809 2.3418409e-038
-21.817354 259.75269 56.538441 2.3418409e-038
-16.948431 259.21759 56.42197 2.3418409e-038
-14.349998 260.39682 56.678638 2.3418409e-038
5.2537708 247.71217 53.917667 2.3509528e-038
6.8209 246.54907 53.664505 2.3509528e-038
11.378064 245.87836 53.518517 2.3509528e-038
16.081398 247.84485 53.946548 2.3509528e-038
18.010185 249.59776 54.328091 2.3509528e-038
-62.126877 260.62329 51.877811 3.5733111e-043
-60.451187 259.59149 51.672428 3.5733111e-043
-55.454411 258.81744 51.518353 3.5733111e-043
-50.721992 259.24731 51.603916 3.5733111e-043
-47.213749 259.75409 51.704796 3.5733111e-043
-28.550838 264.76108 52.70145 2.3418409e-038
-27.068089 263.81512 52.513157 2.3418409e-038
-21.923492 261.01633 51.956047 2.3418409e-038
-17.019474 260.30414 51.814285 2.3418409e-038
-13.745876 261.50827 52.053967 2.3418409e-038
4.3718586 249.59256 49.68211 2.3509528e-038
6.836226 247.10306 49.186569 2.3509528e-038
11.395474 246.25461 49.017681 2.3509528e-038
16.135927 248.68524 49.501507 2.3509528e-038
17.333853 250.15208 49.793484 2.3509528e-038
-61.704792 261.80081 47.240173 3.5733111e-043
-60.795628 261.07062 47.10841 3.5733111e-043
-55.61264 259.55591 46.835091 3.5733111e-043
-50.718544 259.22968 46.776218 3.5733111e-043
-45.91312 259.33563 46.795341 3.5733111e-043
-45.64875 259.49066 46.823318 3.5733111e-043
-28.768463 266.79999 48.142235 2.3418409e-038
-27.255508 265.64182 47.93325 2.3418409e-038
-22.047785 262.49615 47.365635 2.3418409e-038
-17.099789 261.5325 47.191753 2.3418409e-038
-13.007745 262.1998 47.31216 2.3509886e-038
3.2912025 252.57436 45.575317 2.3509528e-038
6.8700342 248.32507 44.808563 2.3509528e-038
11.429068 246.98053 44.565948 2.3509528e-038
16.17259 249.25029 44.975513 2.3509528e-038
16.719557 249.91884 45.096149 2.3509528e-038
-60.706333 261.93753 42.390251 3.5733111e-043
-55.74707 260.18335 42.106365 3.5733111e-043
-50.77692 259.52805 42.000317 3.5733111e-043
-46.018528 259.93103 42.065533 3.5733111e-043
-44.329884 260.83752 42.212234 3.5733111e-043
-28.972332 268.86395 43.511173 2.3418409e-038
-27.443529 267.47433 43.286289 2.3418409e-038
-22.162342 263.86005 42.701378 2.3418409e-038
-17.168228 262.57925 42.494102 2.3418409e-038
-12.551808 262.72604 42.517857 2.3509886e-038
2.0154665 255.85782 41.406353 2.3509528e-038
2.3132281 255.44167 41.339001 2.3509528e-038
6.92626 250.35742 40.516201 2.3509528e-038
11.514152 248.81917 40.267262 2.3509528e-038
16.257212 250.55447 40.548088 2.3509528e-038
16.429415 250.73796 40.577789 2.3509528e-038
46.059124 244.54774 39.576 2.3418052e-038
47.838192 245.13185 39.670532 2.3418052e-038
52.257515 247.79959 40.102257 2.3418052e-038
-59.649315 262.51147 37.59787 3.5733111e-043
-55.92651 261.02081 37.384373 3.5733111e-043
-50.943665 260.38031 37.292633 3.5733111e-043
-46.255852 261.27155 37.42028 3.5733111e-043
-43.202324 262.9938 37.66695 3.5733111e-043
-29.076265 271.08838 38.826286 2.3418409e-038
-27.661661 269.60031 38.613159 2.3418409e-038
-22.25905 265.01144 37.955921 2.3418409e-038
-17.207981 263.18729 37.694664 2.3418409e-038
-12.368702 263.25845 37.704857 2.3509886e-038
0.67232114 258.69345 37.051037 2.3509886e-038
2.3223181 256.44543 36.729069 2.3509528e-038
6.9732952 252.05756 36.10062 2.3509528e-038
11.60986 250.88745 35.933033 2.3509528e-038
16.311691 252.37328 36.14584 2.3509528e-038
42.193604 246.24677 35.268379 2.3418052e-038
43.396149 245.81035 35.205872 2.3418052e-038
48.095848 246.45212 35.297791 2.3418052e-038
52.439415 249.14734 35.683807 2.3418052e-038
-58.519039 262.91705 32.763149 3.5733111e-043
-56.087875 261.77396 32.620705 3.5733111e-043
-51.06049 260.97742 32.521446 3.5733111e-043
-46.408878 262.13586 32.665806 3.5733111e-043
-42.090034 264.54443 32.965946 2.3418409e-038
-28.833292 272.638 33.974518 2.3418409e-038
-27.871 271.64059 33.850227 2.3418409e-038
-22.380081 266.45239 33.203705 2.3418409e-038
-17.273462 264.18875 32.921619 2.3418409e-038
-12.346188 263.95779 32.892841 2.3509886e-038
-12.325276 263.95969 32.893078 2.3509886e-038
-0.52831548 260.80399 32.499836 2.3509886e-038
2.3278837 257.06003 32.033283 2.3509528e-038
7.0004454 253.03894 31.532202 2.3509528e-038
11.679144 252.38463 31.450663 2.3509528e-038
16.005772 254.45779 31.709011 2.3509528e-038
39.523449 249.39011 31.077503 2.3418052e-038
43.783562 248.00476 30.904871 2.3418052e-038
48.744049 249.77362 31.125296 2.3418052e-038
51.672352 251.8076 31.378757 2.3418052e-038
-57.442833 263.60367 27.94313 3.5733111e-043
-56.321888 262.86615 27.86495 3.5733111e-043
-51.143524 261.40179 27.709724 3.5733111e-043
-46.562592 263.00412 27.879578 3.5733111e-043
-42.097591 265.7146 28.166897 3.5733111e-043
-41.098469 266.63162 28.264109 3.5733111e-043
-28.290405 273.46335 28.9883 2.3418409e-038
-28.03434 273.23257 28.963839 2.3418409e-038
-22.542616 268.38748 28.450237 2.3418409e-038
-17.376705 265.76782 28.172539 2.3509886e-038
-12.38567 264.80191 28.070152 2.3509886e-038
-12.218752 264.79022 28.068909 2.3509886e-038
-1.659142 262.52603 27.828897 2.3509886e-038
2.3378491 258.16049 27.366131 2.3509528e-038
7.0386519 254.41995 26.969618 2.3509528e-038
11.73164 253.51906 26.874119 2.3509528e-038
15.226426 255.50583 27.084724 2.3509528e-038
36.648853 250.59169 26.563807 2.3418052e-038
39.43956 249.72263 26.471682 2.3418052e-038
44.152557 250.09489 26.511143 2.3418052e-038
49.534111 253.82205 26.906239 2.3418052e-038
50.403603 254.7538 27.005007 2.3418052e-038
-56.57085 265.26181 23.182451 3.5733111e-043
-51.416836 262.79877 22.967196 3.5733111e-043
-46.806118 264.37964 23.105356 3.5733111e-043
-42.396854 267.60349 23.387102 3.5733111e-043
-40.113552 270.27625 23.620687 3.5733111e-043
-27.854246 274.02386 23.94821 2.3418409e-038
-22.686752 270.10355 23.605595 2.3509886e-038
-17.485802 267.43637 23.372499 2.3509886e-038
-12.457177 266.33072 23.275869 2.3509886e-038
-11.486743 266.28073 23.271502 2.3509886e-038
-3.2696755 265.01016 23.16046 2.3509886e-038
-2.5261877 264.41452 23.108404 2.3509886e-038
2.3548212 260.03464 22.725626 2.3509528e-038
7.0970011 256.52905 22.419256 2.3509528e-038
11.802696 255.0546 22.290398 2.3509528e-038
14.06536 256.26334 22.396036 2.3509528e-038
33.685154 252.82147 22.095236 2.3418052e-038
35.092922 251.88037 22.012989 2.3418052e-038
39.623501 250.88733 21.926201 2.3418052e-038
44.513565 252.13974 22.035654 2.3418052e-038
48.227413 254.79588 22.267786 2.3418052e-038
-55.65263 266.75079 18.348421 3.5733111e-043
-51.75169 264.51022 18.194305 3.5733111e-043
-47.007988 265.5199 18.263756 3.5733111e-043
-42.530125 268.44467 18.464933 3.5733111e-043
-38.163441 272.94333 18.774376 3.5733111e-043
-38.027603 273.09332 18.784693 3.5733111e-043
-28.640966 274.56436 18.885878 2.3509886e-038
-28.141975 274.28162 18.866428 2.3509886e-038
-22.770992 271.10648 18.648029 2.3509886e-038
-17.579775 268.87366 18.494444 2.3509886e-038
-12.530294 267.89395 18.427053 2.3509886e-038
-7.534307 267.51883 18.401253 2.3509886e-038
-2.5359311 265.43436 18.257872 2.3509886e-038
2.3722956 261.96429 18.019184 2.3509886e-038
7.165524 259.00589 17.815691 2.3509528e-038
11.92788 257.7598 17.729979 2.3509528e-038
13.050411 258.12009 17.754761 2.3509528e-038
30.358177 255.62131 17.582882 2.3418052e-038
30.825487 255.3595 17.564875 2.3418052e-038
35.292633 253.31378 17.424158 2.3418052e-038
39.959908 253.01736 17.40377 2.3418052e-038
45.057003 255.21797 17.555138 2.3418052e-038
46.091209 256.17163 17.620737 2.3418052e-038
-54.688873 268.08771 13.451353 3.5733111e-043
-52.154121 266.56711 13.375056 3.5733111e-043
-47.210915 266.66608 13.380023 3.5733111e-043
-42.524857 268.41144 13.467595 3.5733111e-043
-37.871929 270.85843 13.590375 3.5733111e-043
-33.099323 273.06934 13.701305 3.5733111e-043
-28.019876 273.09161 13.702424 2.3509886e-038
-22.818155 271.66803 13.630996 2.3509886e-038
-17.674465 270.32187 13.563453 2.3509886e-038
-12.5828 269.01651 13.497955 2.3509886e-038
-7.5447912 267.89108 13.441487 2.3509886e-038
-2.5449328 266.37656 13.365495 2.3509886e-038
2.3904982 263.9743 13.244963 2.3509886e-038
7.2441459 261.84778 13.138263 2.3509886e-038
12.103167 261.54773 13.123207 2.3509528e-038
12.897951 261.6666 13.129172 2.3509528e-038
26.272522 255.53041 12.821288 2.3418052e-038
30.760744 254.82318 12.785803 2.3418052e-038
35.43121 254.30843 12.759975 2.3418052e-038
40.324413 255.32532 12.810998 2.3418052e-038
43.705917 257.53455 12.921845 2.3418052e-038
-53.909073 270.32654 8.5329828 2.3509886e-038
-52.723385 269.47672 8.5061588 2.3509886e-038
-47.507858 268.34335 8.4703836 3.5733111e-043
-42.602562 268.90189 8.4880142 3.5733111e-043
-37.756332 270.03168 8.5236769 3.5733111e-043
-32.902237 271.44333 8.5682364 2.3509886e-038
-27.924068 272.15781 8.5907898 2.3509886e-038
-22.866022 272.23788 8.593317 2.3509886e-038
-17.777058 271.89099 8.5823669 2.3509886e-038
-12.656166 270.58502 8.5411434 2.3509886e-038
-7.5750546 268.96564 8.4900265 2.3509886e-038
-2.5554118 267.47339 8.4429235 2.3509886e-038
2.4053342 265.61264 8.3841867 2.3509886e-038
7.3087564 264.1832 8.3390665 2.3509886e-038
12.235457 264.40649 8.3461151 2.3509886e-038
15.244447 264.09927 8.3364172 2.3509886e-038
20.772043 259.55542 8.1929893 2.3509886e-038
21.614939 258.8782 8.1716118 2.3418052e-038
26.190344 256.50577 8.0967245 2.3418052e-038
30.888472 255.88129 8.0770121 2.3418052e-038
35.683956 256.12253 8.0846281 2.3418052e-038
40.819813 258.4621 8.1584768 2.3418052e-038
40.964622 258.59381 8.1626348 2.3418052e-038
-53.053421 271.8606 3.5221565 2.3509886e-038
-47.807423 270.03543 3.4985099 2.3509886e-038
-42.748413 269.82248 3.4957511 2.3509886e-038
-37.855644 270.74197 3.507664 2.3509886e-038
-32.973412 272.03052 3.524358 2.3509886e-038
-27.963293 272.54013 3.5309603 2.3509886e-038
-22.905079 272.70291 3.5330694 2.3509886e-038
-17.825853 272.6373 3.5322194 2.3509886e-038
-12.710383 271.7442 3.5206485 2.3509886e-038
-7.614398 270.36258 3.5027487 2.3509886e-038
-2.5675354 268.74237 3.4817579 2.3509886e-038
2.4166348 266.86047 3.4573762 2.3509886e-038
7.3444152 265.47211 3.439389 2.3509886e-038
12.2541 264.80936 3.4308026 2.3509886e-038
17.068207 263.05344 3.4080534 2.3509886e-038
21.74144 260.39328 3.373589 2.3418052e-038
26.431208 258.86475 3.3537858 2.3418052e-038
31.204487 258.49915 3.3490491 2.3418052e-038
36.102329 259.1254 3.3571627 2.3418052e-038
38.327084 260.20184 3.3711085 2.3418052e-038
-52.264332 272.43875 -1.5403538 2.3509886e-038
-47.993095 271.08417 -1.5326949 2.3509886e-038
-42.841579 270.41052 -1.5288863 2.3509886e-038
-37.935963 271.31638 -1.5340078 2.3509886e-038
-33.060574 272.74963 -1.5421114 2.3509886e-038
-28.031185 273.20181 -1.544668 2.3509886e-038
-22.937292 273.08643 -1.5440156 2.3509886e-038
-17.840775 272.86551 -1.5427665 2.3509886e-038
-12.743932 272.46146 -1.5404819 2.3509886e-038
-7.6546969 271.79349 -1.5367054 2.3509886e-038
-2.584785 270.54785 -1.5296627 2.3509886e-038
2.4342651 268.80734 -1.5198219 2.3509886e-038
7.3932281 267.23651 -1.5109404 2.3509886e-038
12.304337 265.89499 -1.5033556 2.3509886e-038
17.138315 264.13397 -1.4933988 2.3509886e-038
21.905767 262.36142 -1.483377 2.3418052e-038
26.694021 261.43872 -1.4781601 2.3418052e-038
31.58033 261.61264 -1.4791435 2.3418052e-038
36.27634 263.38345 -1.4891554 2.3418052e-038
-52.049675 273.86853 -6.6450458 2.3509886e-038
-48.13739 271.8992 -6.5972624 2.3509886e-038
-42.931477 270.97794 -6.5749097 2.3509886e-038
-38.028225 271.97626 -6.5991325 2.3509886e-038
-33.134838 273.36227 -6.632762 2.3509886e-038
-28.107458 273.94522 -6.6469059 2.3509886e-038
-23.003946 273.88 -6.6453242 2.3509886e-038
-17.889015 273.60333 -6.6386108 2.3509886e-038
-12.789346 273.43237 -6.6344633 2.3509886e-038
-7.6924586 273.13425 -6.6272297 2.3509886e-038
-2.6008108 272.22525 -6.6051741 2.3509886e-038
2.4537876 270.96313 -6.5745502 2.3509886e-038
7.4635592 269.77869 -6.5458117 2.3509886e-038
12.417944 268.35001 -6.5111461 2.3509886e-038
17.278275 266.29099 -6.4611869 2.3509886e-038
22.074827 264.3862 -6.4149699 2.3418052e-038
26.940683 263.85449 -6.4020686 2.3418052e-038
31.99992 265.08856 -6.4320116 2.3418052e-038
34.758053 267.33847 -6.4866033 2.3418052e-038
-52.125797 275.18323 -11.798039 2.3509886e-038
-48.200935 272.25812 -11.67263 2.3509886e-038
-42.944984 271.0632 -11.6214 2.3509886e-038
-38.0532 272.15488 -11.668202 2.3509886e-038
-33.155369 273.53171 -11.727233 2.3509886e-038
-28.151245 274.37198 -11.763258 2.3509886e-038
-23.065201 274.60925 -11.773432 2.3509886e-038
-17.949858 274.53387 -11.770199 2.3509886e-038
-12.832798 274.36136 -11.762803 2.3509886e-038
-7.7151837 273.94116 -11.744787 2.3509886e-038
-2.6092215 273.10562 -11.708964 2.3509886e-038
2.4656656 272.27478 -11.673345 2.3509886e-038
7.5125465 271.54941 -11.642244 2.3509886e-038
12.503178 270.19189 -11.584044 2.3509886e-038
17.390451 268.01987 -11.490921 2.3509886e-038
22.208298 265.98474 -11.403668 2.3509886e-038
27.137297 265.78012 -11.394896 2.3418052e-038
32.425468 268.61383 -11.516386 2.3418052e-038
33.510918 269.98456 -11.575154 2.3418052e-038
-52.210796 275.28317 -16.925261 2.3509886e-038
-48.07563 271.55035 -16.695755 2.3509886e-038
-42.750149 269.83344 -16.590193 2.3509886e-038
-37.891586 270.99902 -16.661856 2.3509886e-038
-33.085567 272.95581 -16.782166 2.3509886e-038
-28.151964 274.379 -16.869665 2.3509886e-038
-23.086748 274.86584 -16.899599 2.3509886e-038
-17.979393 274.98563 -16.906963 2.3509886e-038
-12.854927 274.83447 -16.897673 2.3509886e-038
-7.721952 274.18149 -16.857523 2.3509886e-038
-2.6121104 273.40799 -16.809967 2.3509886e-038
2.4715445 272.92401 -16.78021 2.3509886e-038
7.5338144 272.31815 -16.74296 2.3509886e-038
12.539661 270.98029 -16.660706 2.3509886e-038
17.45821 269.06412 -16.542892 2.3509886e-038
22.323854 267.36877 -16.438656 2.3509886e-038
27.298527 267.35919 -16.438068 2.3509886e-038
32.441799 270.76694 -16.647587 2.3509886e-038
-52.812904 276.07834 -22.111879 2.3509886e-038
-47.942558 270.79871 -21.68902 2.3509886e-038
-42.513432 268.33929 -21.492041 2.3509886e-038
-37.677498 269.46786 -21.582428 2.3509886e-038
-32.964478 271.95682 -21.781776 2.3509886e-038
-28.116592 274.03424 -21.94816 2.3509886e-038
-23.097696 274.99615 -22.025206 2.3509886e-038
-18.006645 275.40244 -22.057743 2.3509886e-038
-12.879593 275.36185 -22.054493 2.3509886e-038
-7.7361822 274.68677 -22.000425 2.3509886e-038
-2.618191 274.04446 -21.94898 2.3509886e-038
2.4783206 273.67224 -21.91917 2.3509886e-038
7.5542312 273.05615 -21.869823 2.3509886e-038
12.587305 272.00989 -21.786024 2.3509886e-038
17.556974 270.58627 -21.672005 2.3509886e-038
22.480064 269.23965 -21.564152 2.3509886e-038
27.467829 269.0173 -21.546341 2.3509886e-038
31.788383 271.07028 -21.71077 2.3509886e-038
-89.3088 226.96313 -22.401819 9.1476764e-041
-86.640854 226.95819 -22.401331 9.1476764e-041
-82.877098 228.22455 -22.526323 9.1476764e-041
-79.432289 230.55347 -22.756195 9.1476764e-041
-79.178185 230.81149 -22.781662 9.1476764e-041
-54.854343 278.9465 -27.532703 2.3509886e-038
-54.452385 278.31387 -27.470264 2.3509886e-038
-47.841824 270.22974 -26.672338 2.3509886e-038
-42.403324 267.64435 -26.417154 2.3509886e-038
-37.547817 268.54037 -26.505596 2.3509886e-038
-32.819199 270.7583 -26.72451 2.3509886e-038
-28.025848 273.14981 -26.96056 2.3509886e-038
-23.086393 274.8616 -27.129517 2.3509886e-038
-18.037931 275.88092 -27.230127 2.3509886e-038
-12.91497 276.11819 -27.253544 2.3509886e-038
-7.7594447 275.51273 -27.193785 2.3509886e-038
-2.6263838 274.90198 -27.133503 2.3509886e-038
2.4851644 274.42798 -27.086716 2.3509886e-038
7.5765591 273.86322 -27.030975 2.3509886e-038
12.644155 273.2384 -26.969301 2.3509886e-038
17.666807 272.27902 -26.874609 2.3509886e-038
22.640398 271.15994 -26.764154 2.3509886e-038
27.644854 270.7511 -26.723799 2.3509886e-038
31.656597 272.15936 -26.862801 2.3509886e-038
-94.885612 228.70763 -26.8302 9.1476764e-041
-90.490639 226.0244 -26.515427 9.1476764e-041
-85.92524 225.08359 -26.405056 9.1476764e-041
-82.140129 226.19508 -26.535448 9.1476764e-041
-78.8311 228.8085 -26.842035 9.1476764e-041
-75.875824 232.8058 -27.310966 9.1476764e-041
-72.972176 237.45518 -27.856396 9.1476764e-041
-70.652702 241.71346 -28.355942 9.1476764e-041
-58.590275 279.44073 -32.781815 2.3509886e-038
-53.494133 273.41611 -32.07505 2.3509886e-038
-47.462521 268.08728 -31.449913 2.3509886e-038
-42.276119 266.8414 -31.303761 2.3509886e-038
-37.444885 267.80423 -31.41671 2.3509886e-038
-32.682411 269.62979 -31.630871 2.3509886e-038
-27.918655 272.10507 -31.921249 2.3509886e-038
-23.046312 274.3844 -32.188648 2.3509886e-038
-18.047018 276.0199 -32.380505 2.3509886e-038
-12.947412 276.81177 -32.473404 2.3509886e-038
-7.7862425 276.46423 -32.432636 2.3509886e-038
-2.6346312 275.76523 -32.350632 2.3509886e-038
2.4922197 275.20706 -32.285152 2.3509886e-038
7.6018434 274.77713 -32.234718 2.3509886e-038
12.688092 274.18787 -32.165588 2.3509886e-038
17.718966 273.08289 -32.035961 2.3509886e-038
22.709452 271.987 -31.907398 2.3509886e-038
27.756374 271.84332 -31.890545 2.3509886e-038
31.752453 273.509 -32.085949 2.3509886e-038
-93.168198 228.493 -31.057203 9.1476764e-041
-91.030586 227.37305 -30.904978 9.1476764e-041
-86.140511 225.64752 -30.670443 9.1476764e-041
-81.814651 225.29883 -30.623047 9.1476764e-041
-78.205391 226.99239 -30.853237 9.1476764e-041
-75.149582 230.5775 -31.340536 9.1476764e-041
-72.424957 235.6745 -32.033329 9.1476764e-041
-69.836594 241.90056 -32.879589 9.1476764e-041
-67.139778 248.58311 -33.787891 2.3509886e-038
-64.293083 255.65872 -34.749619 2.3509886e-038
-61.353306 263.46539 -35.810719 2.3509886e-038
-57.345211 267.64221 -36.378441 2.3509886e-038
-52.250381 267.05911 -36.299183 2.3509886e-038
-47.038486 265.69217 -36.113388 2.3509886e-038
-42.116348 265.83295 -36.132526 2.3509886e-038
-37.342861 267.07455 -36.301285 2.3509886e-038
-32.569012 268.69421 -36.521431 2.3509886e-038
-27.799829 270.94696 -36.827629 2.3509886e-038
-22.968994 273.46387 -37.169731 2.3509886e-038
-18.015137 275.53232 -37.450874 2.3509886e-038
-12.954345 276.96002 -37.644936 2.3509886e-038
-7.8089466 277.27039 -37.687119 2.3509886e-038
-2.6449838 276.84885 -37.629826 2.3509886e-038
2.5017719 276.2619 -37.550045 2.3509886e-038
7.6275754 275.70724 -37.474655 2.3509886e-038
12.716808 274.80844 -37.352486 2.3509886e-038
17.732359 273.28931 -37.146004 2.3509886e-038
22.723673 272.15732 -36.992142 2.3509886e-038
27.867071 272.92746 -37.096821 2.3509886e-038
32.067036 276.3017 -37.555454 2.3509886e-038
-87.267349 229.40678 -35.450596 9.1476764e-041
-82.356514 226.79097 -35.046368 9.1476764e-041
-78.196762 226.96735 -35.073627 9.1476764e-041
-74.895226 229.79707 -35.51091 9.1476764e-041
-71.969429 234.19218 -36.190094 9.1476764e-041
-69.230522 239.80124 -37.05687 9.1476764e-041
-66.310188 245.51158 -37.939297 9.1476764e-041
-63.101158 250.91904 -38.774921 9.1476764e-041
-59.746956 256.56735 -39.647766 9.1476764e-041
-55.941978 261.09302 -40.347122 2.3509886e-038
-51.51836 263.31766 -40.690895 2.3509886e-038
-46.761097 264.12534 -40.815712 2.3509886e-038
-41.969864 264.90842 -40.936718 2.3509886e-038
-37.223213 266.21884 -41.139221 2.3509886e-038
-32.448956 267.70377 -41.368694 2.3509886e-038
-27.674028 269.72086 -41.680397 2.3509886e-038
-22.881525 272.42245 -42.097878 2.3509886e-038
-17.968851 274.82434 -42.469048 2.3509886e-038
-12.94416 276.74225 -42.765423 2.3509886e-038
-7.8284397 277.96249 -42.953991 2.3509886e-038
-2.6579416 278.20514 -42.991482 2.3509886e-038
2.5143945 277.65576 -42.906586 2.3509886e-038
7.6527114 276.61581 -42.745884 2.3509886e-038
12.729976 275.09296 -42.510555 2.3509886e-038
17.735071 273.33112 -42.238293 2.3509886e-038
22.751444 272.4899 -42.108299 2.3509886e-038
28.035812 274.58008 -42.431297 2.3509886e-038
32.51712 280.40466 -43.331383 2.3509886e-038
-79.295097 230.65498 -39.935917 9.1476764e-041
-75.722176 232.33437 -40.226688 9.1476764e-041
-72.278107 235.19662 -40.722263 9.1476764e-041
-69.089088 239.31134 -41.434689 9.1476764e-041
-65.786018 243.57086 -42.172192 9.1476764e-041
-62.31406 247.78918 -42.902557 9.1476764e-041
-58.796631 252.48643 -43.715847 9.1476764e-041
-55.061115 256.98184 -44.494186 9.1476764e-041
-50.900002 260.15714 -45.043961 2.3509886e-038
-46.388157 262.01883 -45.366299 2.3509886e-038
-41.717583 263.31601 -45.590893 2.3509886e-038
-37.009201 264.68826 -45.828484 2.3509886e-038
-32.282288 266.3288 -46.112526 2.3509886e-038
-27.550022 268.51224 -46.490578 2.3509886e-038
-22.794266 271.38358 -46.987724 2.3509886e-038
-17.920746 274.08862 -47.456078 2.3509886e-038
-12.934413 276.53387 -47.879452 2.3509886e-038
-7.8482609 278.66629 -48.248661 2.3509886e-038
-2.6703329 279.50214 -48.393375 2.3509886e-038
2.5258002 278.91525 -48.291763 2.3509886e-038
7.6768956 277.48999 -48.044994 2.3509886e-038
12.755085 275.63556 -47.723919 2.3509886e-038
17.77788 273.99088 -47.439152 2.3509886e-038
22.835171 273.49271 -47.352898 2.3509886e-038
28.138607 275.58688 -47.715485 2.3509886e-038
32.388641 280.67136 -48.595821 2.3509886e-038
-73.645126 240.66827 -46.148392 9.1476764e-041
-70.108658 242.84294 -46.565388 9.1476764e-041
-66.17897 245.02574 -46.983944 9.1476764e-041
-62.228607 247.4494 -47.448681 9.1476764e-041
-58.341145 250.53049 -48.039482 9.1476764e-041
-54.381565 253.81023 -48.668377 9.1476764e-041
-50.205742 256.60867 -49.204979 9.1476764e-041
-45.799274 258.6926 -49.604576 2.3509886e-038
-41.232143 260.25198 -49.903587 2.3509886e-038
-36.610416 261.83615 -50.207355 2.3509886e-038
-31.992674 263.93945 -50.610664 2.3509886e-038
-27.345716 266.521 -51.105682 2.3509886e-038
-22.652597 269.69693 -51.714664 2.3509886e-038
-17.858099 273.13046 -52.373055 2.3509886e-038
-12.928944 276.41696 -53.003239 2.3509886e-038
-7.8614149 279.13336 -53.524109 2.3509886e-038
-2.6773829 280.24002 -53.736317 2.3509886e-038
2.5321155 279.61264 -53.616013 2.3509886e-038
7.6926112 278.05804 -53.317924 2.3509886e-038
12.792975 276.45438 -53.010418 2.3509886e-038
17.872116 275.44321 -52.816521 2.3509886e-038
23.004843 275.52481 -52.832176 2.3509886e-038
28.307896 277.24487 -53.161995 2.3509886e-038
31.789604 279.55777 -53.605492 2.3509886e-038
-67.157127 249.89241 -52.567558 9.1476764e-041
-62.794441 249.69942 -52.526955 9.1476764e-041
-58.339481 250.52333 -52.700275 9.1476764e-041
-54.05508 252.28647 -53.071171 9.1476764e-041
-49.699745 254.02245 -53.436356 9.1476764e-041
-45.238026 255.52243 -53.751888 2.3509886e-038
-40.715244 256.98938 -54.060482 2.3509886e-038
-36.157375 258.59604 -54.398457 2.3509886e-038
-31.613476 260.8111 -54.864418 2.3509886e-038
-27.045675 263.59668 -55.450394 2.3509886e-038
-22.451221 267.29938 -56.229301 2.3509886e-038
-17.771437 271.80502 -57.177109 2.3509886e-038
-12.913519 276.08716 -58.0779 2.3509886e-038
-7.8654757 279.27753 -58.749031 2.3509886e-038
-2.6801689 280.53165 -59.012848 2.3509886e-038
2.5351136 279.9437 -58.889168 2.3509886e-038
7.7065539 278.56204 -58.598518 2.3509886e-038
12.843286 277.54156 -58.383858 2.3509886e-038
17.990395 277.26611 -58.325909 2.3509886e-038
23.21434 278.03394 -58.487431 2.3509886e-038
28.674089 280.83133 -59.075893 2.3509886e-038
31.168516 282.86374 -59.503429 2.3509886e-038
-61.214527 253.42119 -58.025959 9.1476764e-041
-58.99408 253.33435 -58.006073 9.1476764e-041
-54.360516 253.71201 -58.092545 9.1476764e-041
-49.625153 253.64119 -58.076332 9.1476764e-041
-44.968773 254.00159 -58.158855 2.3509886e-038
-40.42997 255.18877 -58.430683 2.3509886e-038
-35.890934 256.69043 -58.774525 2.3509886e-038
-31.365047 258.76157 -59.248745 2.3509886e-038
-26.826677 261.46228 -59.867134 2.3509886e-038
-22.285519 265.32657 -60.751938 2.3509886e-038
-17.669737 270.24957 -61.879166 2.3509886e-038
-12.864822 275.04605 -62.977417 2.3509886e-038
-7.8499012 278.72452 -63.819675 2.3509886e-038
-2.6794357 280.4549 -64.215881 2.3509886e-038
2.5400312 280.48672 -64.223167 2.3509886e-038
7.7407818 279.79922 -64.065758 2.3509886e-038
12.923058 279.26544 -63.943527 2.3509886e-038
18.11134 279.1301 -63.91254 2.3509886e-038
23.400074 280.25845 -64.170898 2.3509886e-038
29.076334 284.77087 -65.204117 2.3509886e-038
30.037251 285.95956 -65.476288 2.3509886e-038
-56.405769 260.52332 -64.500412 2.3509886e-038
-55.723194 260.0719 -64.388657 2.3509886e-038
-50.249115 256.83035 -63.586117 2.3509886e-038
-45.233688 255.49792 -63.256226 2.3509886e-038
-40.54134 255.89171 -63.353718 2.3509886e-038
-35.94405 257.07031 -63.645519 2.3509886e-038
-31.368763 258.79221 -64.071815 2.3509886e-038
-26.786095 261.06674 -64.634956 2.3509886e-038
-22.218172 264.52472 -65.491089 2.3509886e-038
-17.589888 269.02835 -66.606087 2.3509886e-038
-12.802239 273.70804 -67.764694 2.3509886e-038
-7.8267856 277.90378 -68.803467 2.3509886e-038
-2.679456 280.45703 -69.4356 2.3509886e-038
2.5466893 281.22195 -69.624992 2.3509886e-038
7.782115 281.29327 -69.642647 2.3509886e-038
13.018208 281.32162 -69.649658 2.3509886e-038
18.247505 281.2287 -69.626656 2.3509886e-038
23.606014 282.72495 -69.997101 2.3509886e-038
28.415964 287.56 -71.19416 2.3509886e-038
-49.023338 263.22195 -70.067017 2.3509886e-038
-46.291611 261.47351 -69.601601 2.3509886e-038
-41.09729 259.40082 -69.049873 2.3509886e-038
-36.261803 259.34286 -69.034447 2.3509886e-038
-31.573221 260.47897 -69.336861 2.3509886e-038
-26.917189 262.34442 -69.833427 2.3509886e-038
-22.283598 265.30371 -70.621155 2.3509886e-038
-17.606985 269.28983 -71.68222 2.3509886e-038
-12.804174 273.74942 -72.869324 2.3509886e-038
-7.8370404 278.26788 -74.07209 2.3509886e-038
-2.6905403 281.61722 -74.963654 2.3509886e-038
2.5621164 282.92551 -75.311905 2.3509886e-038
7.8389392 283.34726 -75.424171 2.3509886e-038
13.137226 283.89359 -75.569603 2.3509886e-038
18.447151 284.3056 -75.679276 2.3509886e-038
23.858763 285.75208 -76.064308 2.3509886e-038
26.167604 287.46884 -76.521301 2.3509886e-038
-41.198967 265.14661 -75.513649 2.3509886e-038
-36.951675 264.27682 -75.26593 2.3509886e-038
-32.061375 264.50626 -75.331268 2.3509886e-038
-27.270281 265.7858 -75.695679 2.3509886e-038
-22.542763 268.38925 -76.437149 2.3509886e-038
-17.779715 271.93164 -77.446022 2.3509886e-038
-12.914824 276.11505 -78.637451 2.3509886e-038
-7.9084134 280.80209 -79.972321 2.3509886e-038
-2.7216842 284.87704 -81.132858 2.3509886e-038
2.5980926 286.89825 -81.708496 2.3509886e-038
7.9609284 287.75668 -81.95298 2.3509886e-038
13.377388 289.08347 -82.330849 2.3509886e-038
18.844427 290.42838 -82.713882 2.3509886e-038
23.276846 290.95926 -82.865074 2.3509886e-038
-31.101406 273.12326 -82.868149 2.3509886e-038
-28.042076 273.30798 -82.924194 2.3509886e-038
-23.135038 275.44077 -83.571297 2.3509886e-038
-18.209221 278.5007 -84.499718 2.3509886e-038
-13.175216 281.68216 -85.464996 2.3509886e-038
-8.0579901 286.1131 -86.809387 2.3509886e-038
-2.7794855 290.92706 -88.269989 2.3509886e-038
2.6640801 294.185 -89.258476 2.3509886e-038
8.2046099 296.56482 -89.980537 2.3509886e-038
13.868532 299.69702 -90.93087 2.3509886e-038
18.348896 302.41296 -91.754913 2.3509886e-038
-17.442667 288.98593 -93.058968 2.3509886e-038
-13.554734 289.79614 -93.31987 2.3509886e-038
-8.2734938 293.76492 -94.597893 2.3509886e-038
-2.862674 299.63434 -96.487953 2.3509886e-038
0.2892364 302.15787 -97.300583 2.3509886e-038
-90.967064 227.2144 -22.951212 9.1476764e-041
-91.549721 228.66975 -32.552498 9.1476764e-041
-86.76722 227.2892 -21.929836 9.1476764e-041
-87.584351 229.42969 -35.291286 9.1476764e-041
-82.987236 228.52783 -21.998402 9.1476764e-041
-82.977684 228.50153 -37.348541 9.1476764e-041
-79.439934 230.57565 -22.70261 9.1476764e-041
-79.404053 230.47153 -39.818207 9.1476764e-041
-76.368042 234.31604 -24.205048 9.1476764e-041
-76.658707 235.20786 -42.814163 9.1476764e-041
-73.179626 238.13023 -26.335697 9.1476764e-041
-73.825851 240.23308 -45.914524 9.1476764e-041
-70.115875 242.86794 -28.87705 9.1476764e-041
-71.097305 246.26743 -49.24234 9.1476764e-041
-67.485176 249.86192 -31.578041 2.3509886e-038
-67.432274 249.66606 -52.317875 9.1476764e-041
-64.715004 257.33646 -33.664692 2.3509886e-038
-63.395626 252.09001 -55.862476 9.1476764e-041
-59.397934 255.06857 68.916939 3.5733111e-043
-60.983032 261.87537 43.648621 3.5733111e-043
-62.259716 267.35773 -34.711288 2.3509886e-038
-59.563744 255.78061 -60.276104 9.1476764e-041
-54.753963 255.54829 69.646103 3.5733111e-043
-56.756405 264.8941 24.208109 3.5733111e-043
-59.543568 277.9024 -33.700111 2.3509886e-038
-55.886345 260.83334 -64.956306 2.3509886e-038
-50.714695 259.20999 62.876106 3.5733111e-043
-53.174759 271.78375 4.1749229 2.3509886e-038
-54.502533 278.57019 -26.896826 2.3509886e-038
-51.287533 262.13785 -68.28363 2.3509886e-038
-45.935917 259.46442 47.732399 3.5733111e-043
-46.778938 264.22614 -71.843361 2.3509886e-038
-41.943638 264.74286 32.320057 2.3418409e-038
-41.974148 264.93539 -75.017105 2.3509886e-038
-38.173645 273.0163 18.999573 3.5733111e-043
-37.443859 267.79688 -78.392418 2.3509886e-038
-33.203449 273.92834 15.227304 3.5733111e-043
-32.932056 271.68936 -81.676437 2.3509886e-038
-26.150255 254.86961 83.391159 2.3418409e-038
-28.078125 273.65933 27.225231 2.3418409e-038
-28.156988 274.42795 20.713251 2.3509886e-038
-28.278849 275.61563 -84.762192 2.3509886e-038
-21.38039 254.55031 85.31897 2.3418409e-038
-23.669312 281.8017 -88.593796 2.3509886e-038
-16.754807 256.2562 76.901772 2.3418409e-038
-18.829344 287.98517 -92.341164 2.3509886e-038
-12.335605 263.73154 34.493771 2.3509886e-038
-13.616979 291.12689 -94.593933 2.3509886e-038
-7.5313601 267.41418 19.491274 2.3509886e-038
-8.3201694 295.42224 -96.210747 2.3509886e-038
-2.5220852 263.98511 24.936054 2.3509886e-038
-2.8707542 300.4801 -97.235199 2.3509886e-038
2.3107419 255.16713 42.341305 2.3509528e-038
2.7427769 302.87521 -97.13559 2.3509886e-038
6.7593966 244.32596 63.838692 2.3509528e-038
8.4267225 304.59329 -96.573349 2.3509886e-038
11.179204 241.58102 71.880745 2.3509528e-038
14.136359 305.48471 -95.085686 2.3509886e-038
15.673034 241.55119 71.399841 2.3509528e-038
16.346016 251.92311 37.220509 2.3509528e-038
17.062695 262.96848 7.4991412 2.3509886e-038
19.494987 300.45477 -90.235527 2.3509886e-038
21.607353 258.78732 8.6065788 2.3418052e-038
24.151033 289.25256 -80.9114 2.3509886e-038
26.094433 255.56642 12.618202 2.3418052e-038
29.309418 287.05368 -68.373291 2.3509886e-038
30.839495 255.47556 18.196369 2.3418052e-038
32.67971 270.71997 -15.410911 2.3509886e-038
35.027359 251.40977 24.11062 2.3418052e-038
36.605003 262.73337 -0.59324795 2.3418052e-038
39.402855 249.49022 30.880455 2.3418052e-038
40.845825 258.62683 7.9641461 2.3418052e-038
43.293034 245.22624 36.733757 2.3418052e-038
45.310303 256.65274 16.024096 2.3418052e-038
47.838203 245.1319 40.769089 2.3418052e-038
49.750381 254.93025 25.471767 2.3418052e-038
