# .PCD v0.7 - Point Cloud Data file format
VERSION 0.7
FIELDS x y z rgb
SIZE 4 4 4 4
TYPE F F F F
COUNT 1 1 1 1
WIDTH 655
HEIGHT 1
VIEWPOINT 0 0 0 1 0 0 0
POINTS 655
DATA ascii
27.036032 249.58607 11.754797 2.3418052e-038
-74.314552 219.15259 -27.867954 9.1476764e-041
-55.987648 252.92957 63.135006 3.5733111e-043
8.3671312 222.071 40.789764 2.3509528e-038
-22.984217 244.00848 76.997116 2.3418409e-038
-27.367765 243.22002 78.865974 2.3418409e-038
-24.704453 243.25307 78.876694 2.3418409e-038
-20.255722 244.29027 79.213013 2.3418409e-038
-19.215937 244.83437 79.389442 2.3418409e-038
-28.49708 244.73268 74.794167 2.3418409e-038
-24.867098 244.85455 74.831421 2.3418409e-038
-20.385042 245.84991 75.135612 2.3418409e-038
-17.62327 247.08377 75.512703 2.3418409e-038
-29.065226 248.5672 71.332283 2.3418409e-038
-25.221581 248.34499 71.268517 2.3418409e-038
-20.590378 248.32631 71.263153 2.3418409e-038
-16.86043 248.82932 71.407501 2.3418409e-038
-58.175598 252.233 67.682144 3.5733111e-043
-54.000942 253.03793 67.89814 3.5733111e-043
-52.351624 253.56522 68.039627 3.5733111e-043
-29.480808 251.98361 67.615234 2.3418409e-038
-25.527046 251.35275 67.445946 2.3418409e-038
-20.795689 250.80243 67.298279 2.3418409e-038
-16.515253 251.18816 67.401779 2.3418409e-038
-59.841297 252.29486 62.995464 3.5733111e-043
-58.540794 252.27397 62.99025 3.5733111e-043
-54.057652 253.30365 63.247345 3.5733111e-043
-50.162693 254.84332 63.631786 3.5733111e-043
-29.801153 254.71968 63.600922 2.3418409e-038
-25.746441 253.51303 63.299633 2.3418409e-038
-20.976515 252.98325 63.167347 2.3418409e-038
-16.351793 254.40497 63.522339 2.3418409e-038
-16.239426 254.5201 63.551083 2.3418409e-038
-60.503429 253.66176 58.608013 3.5733111e-043
-58.811855 253.44208 58.557262 3.5733111e-043
-54.191288 253.92986 58.66996 3.5733111e-043
-49.784828 255.61026 59.058212 3.5733111e-043
-48.97105 256.21762 59.198544 3.5733111e-043
-30.089684 257.20782 59.427326 2.3418409e-038
-25.945717 255.47522 59.027012 2.3418409e-038
-21.122139 254.73952 58.857033 2.3418409e-038
-16.445784 255.86731 59.117603 2.3418409e-038
-15.611629 256.48517 59.260357 2.3418409e-038
-60.524197 254.90427 54.143181 3.5733111e-043
-59.060543 254.51376 54.060234 3.5733111e-043
-54.295811 254.41963 54.040237 3.5733111e-043
-49.861019 256.00143 54.376225 3.5733111e-043
-47.97435 257.78702 54.755493 3.5733111e-043
-30.366161 259.9314 55.210972 2.3418409e-038
-26.16581 257.64236 54.72477 2.3418409e-038
-21.253677 256.3259 54.445145 2.3418409e-038
-16.486935 256.50754 54.483727 2.3418409e-038
-14.730693 257.35583 54.663906 2.3418409e-038
4.2256489 217.57213 46.213612 2.3509528e-038
6.2782841 216.97745 46.087299 2.3509528e-038
9.5157547 217.17548 46.12936 2.3509528e-038
-59.992424 255.50305 49.507278 3.5733111e-043
-59.22813 255.23598 49.455528 3.5733111e-043
-54.428658 255.0421 49.417965 3.5733111e-043
-49.891624 256.1586 49.634296 3.5733111e-043
-46.735771 258.80902 50.147858 3.5733111e-043
-30.483452 262.51001 50.864971 2.3418409e-038
-26.390738 259.85712 50.350937 2.3418409e-038
-21.404655 258.14676 50.019531 2.3418409e-038
-16.601534 258.2905 50.047386 2.3418409e-038
-13.937806 259.73575 50.327419 2.3509886e-038
2.411638 221.63138 42.944172 2.3509528e-038
6.3180466 218.35167 42.308678 2.3509528e-038
10.39292 218.44351 42.326477 2.3509528e-038
12.680295 220.17082 42.661167 2.3509528e-038
-59.370895 256.16068 44.859356 3.5733111e-043
-54.553909 255.62903 44.766254 3.5733111e-043
-49.941189 256.41309 44.903557 3.5733111e-043
-45.705811 259.50552 45.44511 3.5733111e-043
-45.297531 260.08133 45.545948 3.5733111e-043
-30.299942 264.89478 46.388889 2.3418409e-038
-26.651447 262.42419 45.956238 2.3418409e-038
-21.597 260.46649 45.613396 2.3418409e-038
-16.738398 260.41986 45.605232 2.3418409e-038
-13.161283 261.90631 45.865547 2.3509886e-038
2.5241206 230.03612 40.284374 2.3509528e-038
6.4754944 223.79305 39.191074 2.3509528e-038
10.610027 223.00681 39.053383 2.3509528e-038
14.323445 227.37234 39.81789 2.3509528e-038
-58.747005 256.78076 40.181057 3.5733111e-043
-54.646774 256.06418 40.06892 3.5733111e-043
-49.990471 256.66611 40.163113 3.5733111e-043
-45.622585 259.03296 40.533478 3.5733111e-043
-43.667484 260.86313 40.819862 2.3418409e-038
-29.781546 267.19855 41.811226 2.3418409e-038
-26.94034 265.2688 41.509262 2.3418409e-038
-21.782833 262.70767 41.108498 2.3418409e-038
-16.837215 261.95728 40.991074 2.3418409e-038
-12.495807 263.0336 41.159496 2.3509886e-038
2.6755681 240.58919 37.647396 2.3509528e-038
6.7299166 232.58588 36.395039 2.3509528e-038
10.990874 231.01163 36.148701 2.3509528e-038
15.474937 236.5401 37.013794 2.3509528e-038
-58.094608 257.72098 35.523754 3.5733111e-043
-54.829967 256.92258 35.4137 3.5733111e-043
-50.113632 257.29843 35.465511 3.5733111e-043
-45.656002 259.22272 35.730751 3.5733111e-043
-42.138039 262.05038 36.12051 2.3418409e-038
-29.33098 270.02353 37.219513 2.3418409e-038
-27.237938 268.19913 36.96804 2.3418409e-038
-21.9118 264.26306 36.425503 2.3418409e-038
-16.895363 262.86197 36.23238 2.3418409e-038
-12.172837 263.90286 36.375854 2.3509886e-038
2.3975043 249.01231 34.323368 2.3509528e-038
2.5593777 248.64661 34.272957 2.3509528e-038
6.9425192 239.93341 33.071949 2.3509528e-038
11.334092 238.22557 32.836544 2.3509528e-038
16.05076 242.80078 33.467186 2.3509528e-038
-57.315971 258.81158 30.849319 3.5733111e-043
-55.070908 258.05157 30.75873 3.5733111e-043
-50.267963 258.09082 30.763407 3.5733111e-043
-45.776657 259.90775 30.979979 3.5733111e-043
-41.49366 263.47766 31.405497 3.5733111e-043
-40.896111 264.44608 31.520929 2.3418409e-038
-28.98456 272.44949 32.474907 2.3418409e-038
-27.515017 270.92737 32.293472 2.3418409e-038
-22.061644 266.07025 31.714521 2.3418409e-038
-16.989964 264.33374 31.50754 2.3509886e-038
-12.09925 265.02158 31.589523 2.3509528e-038
1.6364424 255.07945 30.404463 2.3509528e-038
2.6053004 253.10805 30.169479 2.3509528e-038
7.0935316 245.15242 29.221199 2.3509528e-038
11.582665 243.45018 29.018299 2.3509528e-038
16.072535 245.90067 29.310387 2.3509528e-038
-56.506996 260.60257 26.204645 3.5733111e-043
-55.501736 260.07034 26.151129 3.5733111e-043
-50.52882 259.43015 26.086754 3.5733111e-043
-46.005119 261.2049 26.265211 3.5733111e-043
-41.787334 265.34241 26.681255 3.5733111e-043
-40.138779 269.29639 27.078842 3.5733111e-043
-28.46418 273.88718 27.540468 2.3418409e-038
-27.738205 273.125 27.463825 2.3418409e-038
-22.24301 268.25757 26.974386 2.3509886e-038
-17.095995 265.98343 26.745712 2.3509886e-038
-12.108028 265.33664 26.680674 2.3509528e-038
-11.932565 265.33499 26.68051 2.3509528e-038
0.56513369 259.15735 26.059324 2.3509528e-038
2.6338601 255.88264 25.730038 2.3509528e-038
7.2119832 249.24609 25.062706 2.3509528e-038
11.764256 247.26697 24.863695 2.3509528e-038
15.724825 248.13983 24.951466 2.3509886e-038
23.775906 232.59866 23.388741 2.3418052e-038
24.047827 232.33923 23.362652 2.3418052e-038
28.290285 231.61221 23.289549 2.3418052e-038
30.606327 232.39288 23.368046 2.3418052e-038
-55.5243 262.40796 21.494387 3.5733111e-043
-50.868977 261.17661 21.393524 3.5733111e-043
-46.283051 262.78293 21.525103 3.5733111e-043
-42.101116 267.33487 21.897961 3.5733111e-043
-39.295532 274.11438 22.453283 3.5733111e-043
-28.055767 274.60641 22.493587 2.3509886e-038
-27.871675 274.43921 22.479893 2.3509886e-038
-22.396235 270.1055 22.124908 2.3509886e-038
-17.199846 267.59915 21.919609 2.3509886e-038
-12.166977 266.62842 21.840094 2.3509528e-038
-11.286642 266.56473 21.834877 2.3509528e-038
-1.0662367 261.88354 21.451433 2.3509528e-038
2.6517587 257.62152 21.10232 2.3509528e-038
7.3086891 252.58824 20.690033 2.3509528e-038
11.929113 250.73201 20.537985 2.3509528e-038
15.223379 251.18103 20.574768 2.3418052e-038
22.698023 239.32358 19.603497 2.3418052e-038
24.489094 236.60254 19.380611 2.3418052e-038
28.842644 236.13438 19.342262 2.3418052e-038
32.466129 238.12013 19.504921 2.3418052e-038
-54.422379 263.83398 16.692814 3.5733111e-043
-51.190544 262.82764 16.629143 3.5733111e-043
-46.525318 264.15845 16.713343 3.5733111e-043
-42.210579 268.02997 16.958294 3.5733111e-043
-38.150551 274.7756 17.385092 3.5733111e-043
-37.028919 276.44501 17.490715 2.3509886e-038
-28.934662 276.41663 17.488918 2.3509886e-038
-27.992096 275.62494 17.438829 2.3509886e-038
-22.505066 271.41803 17.172659 2.3509886e-038
-17.30946 269.30453 17.038939 2.3509886e-038
-12.271542 268.91986 17.014599 2.3509886e-038
-8.312499 268.40207 16.981838 2.3509528e-038
-4.8460321 266.51929 16.862713 2.3509528e-038
-2.2040882 264.00076 16.703367 2.3509528e-038
2.6671793 259.11966 16.394539 2.3509528e-038
7.4010267 255.77945 16.183203 2.3509528e-038
12.139756 255.15941 16.143972 2.3509528e-038
14.916565 255.36868 16.157213 2.3418052e-038
21.948271 248.4055 15.716652 2.3418052e-038
25.238827 243.84613 15.42818 2.3418052e-038
29.815035 244.09534 15.443947 2.3418052e-038
33.684196 247.83739 15.680706 2.3418052e-038
-53.507015 265.38239 11.843524 3.5733111e-043
-51.576756 264.81055 11.818005 3.5733111e-043
-46.799175 265.71335 11.858294 3.5733111e-043
-42.254604 268.30951 11.974155 3.5733111e-043
-37.831352 272.47662 12.160126 3.5733111e-043
-33.202061 276.22208 12.32728 2.3509886e-038
-27.960155 275.31042 12.286594 2.3509886e-038
-22.587429 272.41138 12.157215 2.3509886e-038
-17.412292 270.90445 12.089964 2.3509886e-038
-12.332656 270.25912 12.061164 2.3509886e-038
-7.2591724 268.95038 12.002757 2.3509886e-038
-2.2183335 265.70703 11.858013 2.3509528e-038
2.6945848 261.78214 11.682852 2.3509528e-038
7.5204449 259.90652 11.599147 2.3509886e-038
12.433374 261.33081 11.662709 2.3509886e-038
15.403291 261.36075 11.664045 2.3509886e-038
20.508821 255.1282 11.385899 2.3418052e-038
21.518553 253.57372 11.316525 2.3418052e-038
25.778585 249.06104 11.115133 2.3418052e-038
30.549768 250.1106 11.161973 2.3418052e-038
33.614235 253.50464 11.313442 2.3418052e-038
-52.807423 267.36057 6.9476733 2.3509886e-038
-52.024521 267.10953 6.9411497 2.3509886e-038
-47.085735 267.34036 6.9471483 3.5733111e-043
-42.32943 268.78464 6.9846797 2.3509886e-038
-37.604942 270.84592 7.0382442 2.3509886e-038
-32.843204 273.2366 7.100369 2.3509886e-038
-27.809469 273.82669 7.1157031 2.3509886e-038
-22.645153 273.10754 7.0970149 2.3509886e-038
-17.506813 272.37506 7.0779805 2.3509886e-038
-12.377681 271.24582 7.048636 2.3509886e-038
-7.2775421 269.63098 7.0066724 2.3509886e-038
-2.2321227 267.3587 6.9476247 2.3509886e-038
2.7236691 264.6077 6.8761368 2.3509886e-038
7.6339197 263.82822 6.8558812 2.3509886e-038
12.63877 265.64792 6.9031682 2.3509886e-038
17.433828 263.2746 6.841495 2.3509886e-038
21.786711 256.73367 6.6715212 2.3418052e-038
26.205173 253.18253 6.5792408 2.3418052e-038
31.070475 254.37361 6.6101923 2.3418052e-038
32.619415 255.6339 6.642942 2.3418052e-038
-52.144054 268.97592 1.975413 2.3509886e-038
-47.315773 268.64645 1.9729931 2.3509886e-038
-42.383575 269.12845 1.9765331 2.3509886e-038
-37.565388 270.56104 1.9870542 2.3509886e-038
-32.756283 272.51349 2.0013933 2.3509886e-038
-27.768717 273.42542 2.008091 2.3509886e-038
-22.673038 273.44385 2.0082262 2.3509886e-038
-17.554001 273.10916 2.0057683 2.3509886e-038
-12.425917 272.30283 1.9998465 2.3509886e-038
-7.3126922 270.93326 1.9897882 2.3509886e-038
-2.2435827 268.73132 1.9736166 2.3509886e-038
2.7432504 266.51007 1.9573032 2.3509886e-038
7.7078013 266.38156 1.9563595 2.3509886e-038
12.697346 266.87909 1.9600133 2.3509886e-038
17.460997 263.68491 1.9365546 2.3509886e-038
21.961826 258.79727 1.9006588 2.3418052e-038
26.616114 257.15286 1.8885819 2.3418052e-038
31.716898 259.66586 1.9070381 2.3418052e-038
31.816818 259.76678 1.9077791 2.3418052e-038
-51.594959 270.17627 -3.0523858 2.3509886e-038
-47.511581 269.75821 -3.0476625 2.3509886e-038
-42.474373 269.70499 -3.0470614 2.3509886e-038
-37.640873 271.10471 -3.062875 2.3509886e-038
-32.833321 273.15436 -3.0860314 2.3509886e-038
-27.829744 274.02634 -3.0958829 2.3509886e-038
-22.715902 273.96078 -3.0951426 2.3509886e-038
-17.592379 273.7063 -3.092267 2.3509886e-038
-12.483013 273.55405 -3.0905471 2.3509886e-038
-7.3639102 272.83087 -3.082377 2.3509886e-038
-2.2582905 270.49301 -3.0559642 2.3509886e-038
2.758708 268.01178 -3.0279317 2.3509886e-038
7.7415228 267.54697 -3.0226808 2.3509886e-038
12.700937 266.95459 -3.0159883 2.3509886e-038
17.465822 263.75778 -2.9798713 2.3509886e-038
22.104683 260.48065 -2.9428468 2.3509886e-038
26.949039 260.36942 -2.9415905 2.3509886e-038
31.368044 263.23685 -2.9739859 2.3509886e-038
-51.358856 271.54855 -8.1300955 2.3509886e-038
-47.676819 270.69638 -8.1045818 2.3509886e-038
-42.608223 270.55493 -8.1003466 2.3509886e-038
-37.757458 271.94437 -8.1419468 2.3509886e-038
-32.916187 273.84378 -8.1988144 2.3509886e-038
-27.913336 274.84943 -8.2289228 2.3509886e-038
-22.80151 274.99326 -8.2332287 2.3509886e-038
-17.660734 274.76974 -8.2265377 2.3509886e-038
-12.537666 274.75174 -8.2259989 2.3509886e-038
-7.4057364 274.38052 -8.2148848 2.3509886e-038
-2.2740719 272.38327 -8.1550875 2.3509886e-038
2.778702 269.95419 -8.0823622 2.3509886e-038
7.7739282 268.66693 -8.0438213 2.3509886e-038
12.718549 267.32474 -8.0036364 2.3509886e-038
17.539148 264.86514 -7.9299955 2.3509886e-038
22.316092 262.97186 -7.8733125 2.3509886e-038
27.300831 263.76828 -7.8971562 2.3509886e-038
31.409592 266.50296 -7.9790316 2.3509886e-038
-51.476349 273.09302 -13.267335 2.3509886e-038
-47.758362 271.15936 -13.173394 2.3509886e-038
-42.637135 270.73853 -13.152948 2.3509886e-038
-37.794308 272.20981 -13.224425 2.3509886e-038
-32.941944 274.05807 -13.314219 2.3509886e-038
-27.958487 275.29401 -13.374263 2.3509886e-038
-22.860163 275.70059 -13.394015 2.3509886e-038
-17.708832 275.5181 -13.385149 2.3509886e-038
-12.56286 275.30383 -13.374741 2.3509886e-038
-7.4215407 274.96606 -13.358331 2.3509886e-038
-2.2851434 273.70938 -13.297278 2.3509886e-038
2.8006477 272.08627 -13.218424 2.3509886e-038
7.8319225 270.6712 -13.149678 2.3509886e-038
12.795897 268.9505 -13.066083 2.3509886e-038
17.666155 266.78308 -12.960787 2.3509886e-038
22.525114 265.435 -12.895295 2.3509886e-038
27.564764 266.3183 -12.938206 2.3509886e-038
31.561003 268.55826 -13.047029 2.3509886e-038
-51.544353 273.48788 -18.384869 2.3509886e-038
-47.65847 270.59219 -18.190207 2.3509886e-038
-42.497871 269.85419 -18.140596 2.3509886e-038
-37.715679 271.64349 -18.26088 2.3509886e-038
-32.917698 273.85635 -18.409636 2.3509886e-038
-27.965546 275.36349 -18.510952 2.3509886e-038
-22.877857 275.914 -18.54796 2.3509886e-038
-17.72813 275.81833 -18.541529 2.3509886e-038
-12.574117 275.55051 -18.523525 2.3509886e-038
-7.429358 275.25571 -18.503706 2.3509886e-038
-2.2918608 274.51395 -18.453844 2.3509886e-038
2.8161755 273.59479 -18.392054 2.3509886e-038
7.8881655 272.61496 -18.326185 2.3509886e-038
12.899065 271.11893 -18.225618 2.3509886e-038
17.819639 269.10089 -18.089958 2.3509886e-038
22.708912 267.60086 -17.989119 2.3509886e-038
27.723585 267.85272 -18.00605 2.3509886e-038
31.649027 269.3847 -18.109037 2.3509886e-038
-52.220573 275.92691 -23.692646 2.3509886e-038
-47.67123 270.66464 -23.240795 2.3509886e-038
-42.327427 268.77191 -23.078276 2.3509886e-038
-37.568886 270.58621 -23.234064 2.3509886e-038
-32.846722 273.26587 -23.464153 2.3509886e-038
-27.955332 275.26291 -23.635632 2.3509886e-038
-22.900787 276.19058 -23.715286 2.3509886e-038
-17.763935 276.3754 -23.731153 2.3509886e-038
-12.603692 276.19864 -23.715975 2.3509886e-038
-7.4470501 275.91119 -23.691296 2.3509886e-038
-2.2997169 275.45496 -23.652121 2.3509886e-038
2.8297205 274.91071 -23.605389 2.3509886e-038
7.9350538 274.23541 -23.547401 2.3509886e-038
12.995353 273.14276 -23.453583 2.3509886e-038
17.976273 271.46628 -23.309629 2.3509886e-038
22.894857 269.79205 -23.165871 2.3509886e-038
27.892559 269.48529 -23.13953 2.3509886e-038
31.796064 270.64053 -23.238726 2.3509886e-038
-77.306877 220.9404 -23.089952 9.1476764e-041
-75.983444 220.94357 -23.090284 9.1476764e-041
-72.259613 222.15796 -23.217197 9.1476764e-041
-71.92659 222.366 -23.238937 9.1476764e-041
-54.192375 281.88602 -29.459234 2.3509886e-038
-47.861954 271.7475 -28.399681 2.3509886e-038
-42.224606 268.11902 -28.020477 2.3509886e-038
-37.396114 269.34186 -28.148273 2.3509886e-038
-32.691414 271.97379 -28.42333 2.3509886e-038
-27.875874 274.48056 -28.685307 2.3509886e-038
-22.892195 276.08691 -28.853186 2.3509886e-038
-17.800472 276.94385 -28.942741 2.3509886e-038
-12.648737 277.18576 -28.968021 2.3509886e-038
-7.471458 276.81549 -28.929327 2.3509886e-038
-2.306854 276.30984 -28.876482 2.3509886e-038
2.8396015 275.87067 -28.830585 2.3509886e-038
7.9663768 275.31793 -28.77282 2.3509886e-038
13.05247 274.34329 -28.670961 2.3509886e-038
18.066214 272.82452 -28.512239 2.3509886e-038
23.02417 271.31586 -28.35457 2.3509886e-038
28.047787 270.98505 -28.319998 2.3509886e-038
31.97014 272.1312 -28.439783 2.3509886e-038
-80.446152 219.73274 -27.060009 9.1476764e-041
-79.562851 219.45572 -27.025894 9.1476764e-041
-75.277023 218.88947 -26.956158 9.1476764e-041
-71.406715 219.53577 -27.035751 9.1476764e-041
-68.119797 222.1633 -27.359331 9.1476764e-041
-65.610977 227.83302 -28.057554 9.1476764e-041
-64.48967 232.31441 -28.609436 9.1476764e-041
-57.221497 285.17288 -35.118938 2.3509886e-038
-54.76215 281.16534 -34.625412 2.3509886e-038
-47.660683 270.60477 -33.324879 2.3509886e-038
-42.075237 267.17056 -32.901958 2.3509886e-038
-37.230732 268.15073 -33.022663 2.3509886e-038
-32.513451 270.49323 -33.311142 2.3509886e-038
-27.743753 273.17963 -33.641972 2.3509886e-038
-22.828335 275.31677 -33.905163 2.3509886e-038
-17.796949 276.88904 -34.098785 2.3509886e-038
-12.676304 277.78986 -34.209721 2.3509886e-038
-7.4906745 277.52747 -34.177406 2.3509886e-038
-2.3116739 276.88715 -34.098553 2.3509886e-038
2.8451579 276.41049 -34.039852 2.3509886e-038
7.9841819 275.93326 -33.981083 2.3509886e-038
13.077319 274.86557 -33.849598 2.3509886e-038
18.092896 273.22742 -33.647858 2.3509886e-038
23.081554 271.99207 -33.495724 2.3509886e-038
28.160013 272.06931 -33.505238 2.3509886e-038
32.166191 273.8895 -33.729393 2.3509886e-038
-78.956802 220.18739 -31.220722 9.1476764e-041
-75.306229 218.97438 -31.048729 9.1476764e-041
-71.155548 218.76357 -31.018835 9.1476764e-041
-67.755798 220.9762 -31.332567 9.1476764e-041
-65.079163 225.98628 -32.042957 9.1476764e-041
-63.077374 234.1955 -33.206955 9.1476764e-041
-61.371838 244.80731 -34.71162 9.1476764e-041
-60.303364 259.86954 -36.847321 9.1476764e-041
-58.082355 272.16266 -38.590374 2.3509886e-038
-53.030689 272.27548 -38.606377 2.3509886e-038
-47.105011 267.4498 -37.922134 2.3509886e-038
-41.867954 265.85434 -37.695911 2.3509886e-038
-37.073059 267.01511 -37.860497 2.3509886e-038
-32.35445 269.17047 -38.166111 2.3509886e-038
-27.60067 271.77075 -38.534809 2.3509886e-038
-22.742117 274.27695 -38.890163 2.3509886e-038
-17.761883 276.34348 -39.183182 2.3509886e-038
-12.675912 277.78128 -39.387051 2.3509886e-038
-7.502099 277.95074 -39.411079 2.3509886e-038
-2.317662 277.6044 -39.361973 2.3509886e-038
2.8535576 277.22653 -39.308395 2.3509886e-038
8.0040321 276.61929 -39.22229 2.3509886e-038
13.09902 275.32169 -39.038303 2.3509886e-038
18.110893 273.49924 -38.779896 2.3509886e-038
23.119999 272.4451 -38.630424 2.3509886e-038
28.2502 272.94067 -38.700691 2.3509886e-038
32.236275 275.09982 -39.00684 2.3509886e-038
-75.777588 222.20522 -35.649178 9.1476764e-041
-72.109566 221.69662 -35.567577 9.1476764e-041
-68.331505 222.85376 -35.753223 9.1476764e-041
-64.945084 225.52074 -36.181091 9.1476764e-041
-62.532879 232.17389 -37.248486 9.1476764e-041
-60.534569 241.46753 -38.739494 9.1476764e-041
-58.282436 251.16061 -40.29459 9.1476764e-041
-55.567303 260.37759 -41.773304 9.1476764e-041
-51.54723 264.65897 -42.460178 9.1476764e-041
-46.619267 264.69186 -42.465454 9.1476764e-041
-41.679146 264.65543 -42.459614 2.3509886e-038
-36.914959 265.87637 -42.655495 2.3509886e-038
-32.196522 267.85657 -42.973183 2.3509886e-038
-27.460835 270.39386 -43.380249 2.3509886e-038
-22.65844 273.26776 -43.84132 2.3509886e-038
-17.718138 275.66287 -44.225578 2.3509886e-038
-12.666401 277.57285 -44.531998 2.3509886e-038
-7.5183845 278.55411 -44.689426 2.3509886e-038
-2.3269413 278.71585 -44.715374 2.3509886e-038
2.8651421 278.35199 -44.656998 2.3509886e-038
8.0259275 277.37601 -44.50042 2.3509886e-038
13.119258 275.74707 -44.239082 2.3509886e-038
18.133375 273.83875 -43.932926 2.3509886e-038
23.164722 272.97214 -43.793892 2.3509886e-038
28.360331 274.0047 -43.959549 2.3509886e-038
32.004646 275.9234 -44.267376 2.3509886e-038
-73.197594 229.84052 -41.158825 9.1476764e-041
-70.140976 228.75511 -40.964455 9.1476764e-041
-65.768288 228.37926 -40.897148 9.1476764e-041
-62.554859 232.25549 -41.591286 9.1476764e-041
-59.8195 238.61517 -42.730152 9.1476764e-041
-56.977463 245.537 -43.969681 9.1476764e-041
-54.015621 253.10672 -45.32523 9.1476764e-041
-50.47287 259.14288 -46.406162 9.1476764e-041
-46.112549 261.81485 -46.884647 9.1476764e-041
-41.404137 262.90918 -47.080612 2.3509886e-038
-36.706337 264.37378 -47.342888 2.3509886e-038
-32.02927 266.46515 -47.717403 2.3509886e-038
-27.31881 268.99539 -48.170509 2.3509886e-038
-22.552963 271.9957 -48.707787 2.3509886e-038
-17.665825 274.849 -49.218742 2.3509886e-038
-12.657951 277.38766 -49.673359 2.3509886e-038
-7.5380993 279.28455 -50.013042 2.3509886e-038
-2.336772 279.89334 -50.122063 2.3509886e-038
2.8755634 279.36444 -50.027348 2.3509886e-038
8.0469074 278.10104 -49.801109 2.3509886e-038
13.152407 276.44379 -49.504333 2.3509886e-038
18.201078 274.86115 -49.220924 2.3509886e-038
23.297323 274.53467 -49.162457 2.3509886e-038
28.647123 276.77554 -49.56374 2.3509886e-038
31.717812 279.12384 -49.984264 2.3509886e-038
-68.849854 235.29178 -46.521309 9.1476764e-041
-67.728928 235.18756 -46.500706 9.1476764e-041
-63.839153 237.02385 -46.86377 9.1476764e-041
-60.133316 239.86696 -47.425903 9.1476764e-041
-56.560978 243.74222 -48.192108 9.1476764e-041
-53.17358 249.16107 -49.263512 9.1476764e-041
-49.584698 254.58273 -50.335472 9.1476764e-041
-45.428104 257.92877 -50.997036 9.1476764e-041
-40.90593 259.74567 -51.35627 9.1476764e-041
-36.318687 261.58179 -51.719303 2.3509886e-038
-31.720287 263.89459 -52.176586 2.3509886e-038
-27.054031 266.38828 -52.669628 2.3509886e-038
-22.356787 269.62976 -53.310528 2.3509886e-038
-17.576824 273.46429 -54.068684 2.3509886e-038
-12.640889 277.01379 -54.770481 2.3509886e-038
-7.5493913 279.70291 -55.30217 2.3509886e-038
-2.3428664 280.62332 -55.48415 2.3509886e-038
2.8809264 279.88544 -55.338261 2.3509886e-038
8.0591812 278.52527 -55.069328 2.3509886e-038
13.19218 277.27975 -54.823071 2.3509886e-038
18.304977 276.43015 -54.65509 2.3509886e-038
23.520576 277.16547 -54.800472 2.3509886e-038
29.148357 281.61823 -55.680862 2.3509886e-038
31.390316 284.43661 -56.238102 2.3509886e-038
-65.615601 246.76299 -53.389515 9.1476764e-041
-61.602829 245.72873 -53.165745 9.1476764e-041
-57.08366 245.99464 -53.223278 9.1476764e-041
-52.984276 248.27402 -53.716438 9.1476764e-041
-48.987862 251.5184 -54.418392 9.1476764e-041
-44.770344 254.19417 -54.997322 9.1476764e-041
-40.329422 256.08493 -55.406403 2.3509886e-038
-35.812218 257.93399 -55.806473 2.3509886e-038
-31.276133 260.19946 -56.296623 2.3509886e-038
-26.69409 262.84409 -56.868813 2.3509886e-038
-22.112719 266.68619 -57.700092 2.3509886e-038
-17.449936 271.49011 -58.739468 2.3509886e-038
-12.598668 276.08853 -59.734379 2.3509886e-038
-7.5435839 279.48773 -60.469826 2.3509886e-038
-2.3436477 280.71689 -60.735767 2.3509886e-038
2.8823464 280.02341 -60.585724 2.3509886e-038
8.0667801 278.78787 -60.318405 2.3509886e-038
13.228761 278.04865 -60.158463 2.3509886e-038
18.395521 277.79749 -60.104126 2.3509886e-038
23.705736 279.34738 -60.439461 2.3509886e-038
29.545868 285.4588 -61.761723 2.3509886e-038
30.608488 287.16534 -62.130951 2.3509886e-038
-61.445007 253.26332 -59.517246 2.3509886e-038
-58.407887 251.70123 -59.150154 9.1476764e-041
-53.442333 250.42039 -58.849152 9.1476764e-041
-48.838699 250.75256 -58.927216 9.1476764e-041
-44.402729 252.10696 -59.245502 2.3509886e-038
-39.963528 253.76157 -59.634331 2.3509886e-038
-35.471577 255.48056 -60.0383 2.3509886e-038
-30.957769 257.55087 -60.524826 2.3509886e-038
-26.421152 260.15662 -61.137177 2.3509886e-038
-21.89768 264.0928 -62.062187 2.3509886e-038
-17.300571 269.16629 -63.254467 2.3509886e-038
-12.51867 274.33548 -64.469231 2.3509886e-038
-7.5162964 278.47675 -65.442436 2.3509886e-038
-2.3407393 280.36853 -65.887009 2.3509886e-038
2.8839209 280.17636 -65.84185 2.3509886e-038
8.0849924 279.41727 -65.663467 2.3509886e-038
13.282122 279.17023 -65.6054 2.3509886e-038
18.491417 279.24567 -65.623131 2.3509886e-038
23.900417 281.64151 -66.186157 2.3509886e-038
29.659382 289.20935 -67.964622 2.3509886e-038
-55.637913 257.34555 -65.274002 2.3509886e-038
-54.763294 256.61017 -65.087471 2.3509886e-038
-49.323586 253.24211 -64.233185 2.3509886e-038
-44.487816 252.59006 -64.067802 2.3509886e-038
-39.920166 253.48622 -64.295105 2.3509886e-038
-35.392887 254.9138 -64.657204 2.3509886e-038
-30.871502 256.83316 -65.144035 2.3509886e-038
-26.330433 259.26334 -65.760437 2.3509886e-038
-21.789326 262.78601 -66.653931 2.3509886e-038
-17.197468 267.56216 -67.865372 2.3509886e-038
-12.447083 272.76669 -69.185463 2.3509886e-038
-7.4899802 277.50174 -70.386482 2.3509886e-038
-2.3407383 280.36838 -71.113586 2.3509886e-038
2.8922656 280.98706 -71.270508 2.3509886e-038
8.1268387 280.86349 -71.239166 2.3509886e-038
13.37387 281.0986 -71.298798 2.3509886e-038
18.631865 281.36661 -71.366791 2.3509886e-038
24.105879 284.06265 -72.050613 2.3509886e-038
28.367594 289.87939 -73.525986 2.3509886e-038
-47.518208 257.49982 -70.113449 2.3509886e-038
-45.191998 256.5882 -69.865227 2.3509886e-038
-40.34478 256.18243 -69.754745 2.3509886e-038
-35.609371 256.47299 -69.833862 2.3509886e-038
-30.976414 257.70599 -70.169586 2.3509886e-038
-26.417046 260.11615 -70.825836 2.3509886e-038
-21.849499 263.51169 -71.750397 2.3509886e-038
-17.217056 267.86694 -72.936264 2.3509886e-038
-12.446401 272.75174 -74.266327 2.3509886e-038
-7.4949665 277.68646 -75.609985 2.3509886e-038
-2.3493345 281.39807 -76.62059 2.3509886e-038
2.9107041 282.77838 -76.996429 2.3509886e-038
8.1931219 283.15424 -77.098778 2.3509886e-038
13.503309 283.81921 -77.279846 2.3509886e-038
18.833265 284.40802 -77.440163 2.3509886e-038
24.304895 286.40787 -77.984688 2.3509886e-038
26.190821 288.00607 -78.419853 2.3509886e-038
-40.948006 264.20172 -76.863518 2.3509886e-038
-36.450314 262.52982 -76.377113 2.3509886e-038
-31.466108 261.77994 -76.158951 2.3509886e-038
-26.761103 263.50394 -76.660515 2.3509886e-038
-22.111952 266.67697 -77.583633 2.3509886e-038
-17.391857 270.58652 -78.721024 2.3509886e-038
-12.551321 275.05096 -80.019852 2.3509886e-038
-7.5575948 280.00684 -81.461655 2.3509886e-038
-2.3744547 284.40686 -82.741745 2.3509886e-038
2.9490335 286.50214 -83.351311 2.3509886e-038
8.3176699 287.45862 -83.629585 2.3509886e-038
13.738032 288.75278 -84.006088 2.3509886e-038
19.190542 289.80341 -84.311745 2.3509886e-038
22.739185 290.702 -84.573166 2.3509886e-038
-31.428926 271.88821 -84.168266 2.3509886e-038
-27.658121 272.33646 -84.307022 2.3509886e-038
-22.74147 274.26917 -84.905327 2.3509886e-038
-17.830254 277.40717 -85.876762 2.3509886e-038
-12.841205 281.4035 -87.113899 2.3509886e-038
-7.7187362 285.97708 -88.529747 2.3509886e-038
-2.4299126 291.0495 -90.100014 2.3509886e-038
3.0344431 294.79977 -91.260979 2.3509886e-038
8.5859928 296.73187 -91.859093 2.3509886e-038
14.208621 298.64383 -92.450974 2.3509886e-038
15.834043 299.20114 -92.623505 2.3509886e-038
-79.919388 220.43915 -24.760077 9.1476764e-041
-79.623405 219.62276 -29.717657 9.1476764e-041
-76.027077 221.07045 -22.892357 9.1476764e-041
-76.288918 221.83183 -35.001125 9.1476764e-041
-72.275627 222.20717 -23.163048 9.1476764e-041
-73.82296 226.96436 -39.409836 9.1476764e-041
-68.69809 224.04936 -24.403286 9.1476764e-041
-71.320908 232.6033 -43.751183 9.1476764e-041
-65.777679 228.4119 -26.783148 9.1476764e-041
-68.199539 236.82175 -47.560398 9.1476764e-041
-63.502483 235.77385 -30.193829 9.1476764e-041
-66.058792 245.26501 -52.438881 9.1476764e-041
-61.543053 245.49028 -33.75066 9.1476764e-041
-62.98814 251.25462 -57.37019 9.1476764e-041
-58.498379 252.0912 67.037392 3.5733111e-043
-59.42704 256.09314 45.296867 3.5733111e-043
-60.430531 260.41754 -36.698944 9.1476764e-041
-59.303818 255.56213 -62.171623 2.3509886e-038
-54.06311 253.32925 69.393677 3.5733111e-043
-55.883865 261.86093 23.100414 3.5733111e-043
-59.278671 277.76834 -37.623974 2.3509886e-038
-54.929062 257.38693 -65.694092 2.3509886e-038
-49.712593 255.2394 62.20821 3.5733111e-043
-52.314125 268.59644 3.3189993 2.3509886e-038
-55.344753 284.15659 -31.943466 2.3509886e-038
-50.085289 257.15292 -68.396088 2.3509886e-038
-45.736721 259.68103 46.910965 3.5733111e-043
-45.547943 258.60916 -71.800468 2.3509886e-038
-41.443428 263.15866 33.681999 2.3418409e-038
-41.496933 263.49841 -76.270515 2.3509886e-038
-38.263176 275.58679 19.658646 3.5733111e-043
-37.158699 267.6319 -80.26873 2.3509886e-038
-33.380867 277.70963 14.851121 2.3509886e-038
-32.535652 270.67795 -83.346214 2.3509886e-038
-24.813215 244.32401 82.302422 2.3418409e-038
-27.964804 275.3562 -86.400116 2.3509886e-038
-20.268225 244.44104 80.857933 2.3418409e-038
-23.198902 279.78592 -89.112617 2.3509886e-038
-16.314838 253.83002 64.370346 2.3418409e-038
-18.358776 285.63007 -92.326721 2.3509886e-038
-12.096486 265.08368 31.269026 2.3509528e-038
-13.365285 292.88824 -95.770699 2.3509886e-038
-7.2356048 268.07721 16.668545 2.3509528e-038
-8.0150061 296.9538 -97.256653 2.3509886e-038
-2.1992424 263.42035 19.415232 2.3509528e-038
-2.5076208 300.35721 -97.93203 2.3509886e-038
2.5419629 246.95473 35.313564 2.3509528e-038
3.1310568 304.18588 -98.369293 2.3509886e-038
6.2790165 217.00276 47.050758 2.3509528e-038
8.7830324 303.54153 -96.83268 2.3509886e-038
10.346078 217.459 45.551491 2.3509528e-038
14.294724 300.45361 -93.790161 2.3509886e-038
17.391808 262.64005 8.2912722 2.3509886e-038
19.530943 294.94394 -88.927551 2.3509886e-038
21.363213 251.74319 13.702729 2.3418052e-038
24.501381 288.72327 -81.603783 2.3509886e-038
24.035717 232.22223 23.798941 2.3418052e-038
29.867109 288.5625 -66.593163 2.3509886e-038
28.220615 231.04185 25.631199 2.3418052e-038
31.769686 260.09805 1.5359453 2.3418052e-038
