# .PCD v0.7 - Point Cloud Data file format
VERSION 0.7
FIELDS x y z rgb
SIZE 4 4 4 4
TYPE F F F F
COUNT 1 1 1 1
WIDTH 724
HEIGHT 1
VIEWPOINT 0 0 0 1 0 0 0
POINTS 724
DATA ascii
46.464046 246.63928 36.009632 2.3418052e-038
-84.308449 223.76201 -26.34639 9.1476764e-041
-56.600212 255.6969 65.030029 3.5733111e-043
12.496799 241.21892 67.02829 2.3509528e-038
-22.755201 254.29181 80.242027 2.3418409e-038
-26.093416 253.82442 83.439461 2.3418409e-038
-26.082943 253.82352 83.439163 2.3418409e-038
-21.356714 253.80003 83.431442 2.3418409e-038
-19.660156 254.00058 83.497368 2.3418409e-038
-27.677036 255.25618 79.159218 2.3418409e-038
-26.204197 255.00348 79.080849 2.3418409e-038
-21.41585 254.50278 78.925575 2.3418409e-038
-17.424477 254.73961 78.999023 2.3418409e-038
-28.101379 257.81012 75.152779 2.3418409e-038
-26.435471 257.25409 74.9907 2.3418409e-038
-21.552094 256.12189 74.660652 2.3418409e-038
-16.813557 256.55664 74.787384 2.3418409e-038
-16.356316 256.97528 74.909424 2.3418409e-038
9.585288 240.24016 70.031059 2.3509528e-038
11.074806 240.03326 69.970749 2.3509528e-038
15.531437 239.86409 69.921432 2.3509528e-038
16.156363 239.90796 69.934227 2.3509528e-038
-28.184792 259.65833 70.858696 2.3418409e-038
-26.598494 258.84055 70.635529 2.3418409e-038
-21.636835 257.12894 70.168442 2.3418409e-038
-16.873371 257.46936 70.261345 2.3418409e-038
-15.563151 258.48056 70.537292 2.3418409e-038
7.4343796 241.41534 65.880325 2.3509528e-038
11.118967 240.99039 65.764359 2.3509528e-038
15.652865 241.73943 65.968765 2.3509528e-038
17.807478 242.19363 66.09272 2.3509528e-038
-60.909504 255.84831 65.05703 3.5733111e-043
-59.520306 255.40096 64.943275 3.5733111e-043
-54.995312 256.4671 65.214378 3.5733111e-043
-51.744068 258.71231 65.785286 3.5733111e-043
-28.232204 261.09808 66.391945 2.3418409e-038
-26.718708 260.01041 66.115364 2.3418409e-038
-21.671038 257.5354 65.486023 2.3418409e-038
-16.871904 257.44696 65.463547 2.3418409e-038
-15.028224 258.47372 65.724617 2.3418409e-038
6.5304918 243.49529 61.915909 2.3509528e-038
6.698719 243.35718 61.880795 2.3509528e-038
11.185473 242.43184 61.645496 2.3509528e-038
15.78472 243.77574 61.987221 2.3509528e-038
18.313982 244.67799 62.216648 2.3509528e-038
-61.515301 257.47107 60.677521 3.5733111e-043
-59.834019 256.7471 60.506905 3.5733111e-043
-55.153641 257.20544 60.614929 3.5733111e-043
-50.740589 259.11612 61.065208 3.5733111e-043
-50.042656 259.52921 61.162556 3.5733111e-043
-28.346134 262.45142 61.851231 2.3418409e-038
-26.851465 261.30231 61.580425 2.3418409e-038
-21.743845 258.4006 60.896591 2.3418409e-038
-16.904219 257.94006 60.788048 2.3418409e-038
-14.709212 258.94913 61.025856 2.3418409e-038
5.9210691 245.313 57.812267 2.3509528e-038
6.7363973 244.72598 57.673923 2.3509528e-038
11.253167 243.89902 57.479034 2.3509528e-038
15.900968 245.57104 57.873077 2.3509528e-038
18.462103 247.16998 58.249893 2.3509528e-038
-61.240944 258.31067 56.067623 3.5733111e-043
-60.082104 257.81165 55.959305 3.5733111e-043
-55.23698 257.59412 55.91209 3.5733111e-043
-50.628002 258.54117 56.117649 3.5733111e-043
-48.540478 259.19415 56.259388 3.5733111e-043
-28.443468 263.37613 57.167103 2.3418409e-038
-26.962065 262.3786 56.950584 2.3418409e-038
-21.841753 259.56415 56.339695 2.3418409e-038
-16.980316 259.10123 56.239208 2.3418409e-038
-14.392937 260.46304 56.534801 2.3418409e-038
5.2248182 246.78024 53.564884 2.3509528e-038
6.7615981 245.64149 53.317715 2.3509528e-038
11.300327 244.92116 53.161362 2.3509528e-038
16.017893 247.37685 53.694378 2.3509528e-038
18.327398 250.08423 54.282028 2.3509528e-038
-60.67778 259.06345 51.409248 3.5733111e-043
-60.339088 258.91434 51.379658 3.5733111e-043
-55.397213 258.34134 51.265949 3.5733111e-043
-50.670769 258.75955 51.348938 3.5733111e-043
-47.202114 259.8338 51.562119 3.5733111e-043
-28.589991 264.73514 52.534752 2.3418409e-038
-27.102003 263.74039 52.337353 2.3418409e-038
-21.951563 260.86911 51.767567 2.3418409e-038
-17.05864 260.29636 51.653908 2.3418409e-038
-13.801194 261.81042 51.954361 2.3418409e-038
4.3317065 248.97343 49.406956 2.3509528e-038
6.783545 246.43881 48.90398 2.3509528e-038
11.325131 245.45876 48.709492 2.3509528e-038
16.087172 248.44675 49.302441 2.3509528e-038
17.789425 251.11205 49.831348 2.3509528e-038
-60.202183 259.9574 46.74823 3.5733111e-043
-55.579136 259.18973 46.610176 3.5733111e-043
-50.718689 259.00427 46.576824 3.5733111e-043
-46.150383 260.42838 46.832924 3.5733111e-043
-45.743874 260.93002 46.923138 3.5733111e-043
-28.773417 266.45453 47.916607 2.3418409e-038
-27.265043 265.327 47.713844 2.3418409e-038
-22.068048 262.25342 47.161121 2.3418409e-038
-17.126013 261.32437 46.994053 2.3418409e-038
-13.044186 262.14145 47.140987 2.3509886e-038
3.2517815 252.25499 45.363102 2.3509528e-038
6.8208218 247.79303 44.560703 2.3509528e-038
11.370032 246.43192 44.315933 2.3509528e-038
16.125267 249.0351 44.784065 2.3509528e-038
17.0093 250.26962 45.006069 2.3509528e-038
-59.817963 261.05945 42.087479 3.5733111e-043
-55.707874 259.7901 41.882835 3.5733111e-043
-50.753674 259.18292 41.78495 3.5733111e-043
-46.1311 260.31955 41.968197 3.5733111e-043
-44.152847 262.0412 42.245758 3.5733111e-043
-28.961611 268.37 43.266071 2.3418409e-038
-27.4464 267.09186 43.060013 2.3418409e-038
-22.180464 263.58936 42.495342 2.3418409e-038
-17.180616 262.15756 42.264515 2.3418409e-038
-12.570765 262.29977 42.287441 2.3509886e-038
1.9780449 255.80263 41.239983 2.3509528e-038
2.2761018 255.34192 41.16571 2.3509528e-038
6.8767524 249.82492 40.276272 2.3509528e-038
11.459623 248.37372 40.042313 2.3509528e-038
16.208408 250.31909 40.355938 2.3509528e-038
16.520824 250.66354 40.411472 2.3509528e-038
44.18428 243.50009 39.256596 2.3418052e-038
47.747337 244.81125 39.467976 2.3418052e-038
50.426392 246.96198 39.814713 2.3418052e-038
-59.332172 262.15738 37.385124 3.5733111e-043
-55.873791 260.56381 37.157871 3.5733111e-043
-50.887993 259.86887 37.058765 3.5733111e-043
-46.24229 260.94699 37.212513 3.5733111e-043
-42.641155 262.90079 37.491138 2.3418409e-038
-29.053734 270.47891 38.571819 2.3418409e-038
-27.65737 269.1449 38.38158 2.3418409e-038
-22.282406 264.80081 37.762089 2.3418409e-038
-17.226801 262.8623 37.485649 2.3418409e-038
-12.392851 262.9343 37.495914 2.3509886e-038
0.61913729 259.01434 36.936909 2.3509528e-038
2.2864447 256.5022 36.578663 2.3509528e-038
6.9283428 251.69914 35.893719 2.3509528e-038
11.560705 250.56454 35.731918 2.3509528e-038
16.309528 252.27893 35.976398 2.3509528e-038
40.977715 246.54871 35.159237 2.3418052e-038
43.326302 245.57916 35.020977 2.3418052e-038
48.229137 247.28156 35.263748 2.3418052e-038
51.603386 250.25418 35.68766 2.3418052e-038
-58.544193 263.04538 32.615871 3.5733111e-043
-56.089325 261.56897 32.432804 3.5733111e-043
-51.003826 260.46039 32.295349 3.5733111e-043
-46.38855 261.77237 32.458027 3.5733111e-043
-41.94558 264.47876 32.793602 2.3418409e-038
-41.573727 264.88351 32.843792 2.3418409e-038
-28.853167 272.41977 33.778236 2.3418409e-038
-27.893448 271.44226 33.657028 2.3418409e-038
-22.415691 266.38477 33.029934 2.3418409e-038
-17.306686 264.08127 32.744316 2.3418409e-038
-12.382235 263.88351 32.719795 2.3509886e-038
-12.361382 263.88651 32.720169 2.3509886e-038
-0.64839584 261.62701 32.440006 2.3509528e-038
2.2940903 257.35995 31.910919 2.3509528e-038
6.9634461 252.97443 31.367142 2.3509528e-038
11.638831 252.25783 31.278286 2.3509528e-038
15.980521 254.52599 31.559523 2.3509528e-038
38.431484 249.30247 30.911844 2.3418052e-038
39.259636 248.77368 30.846277 2.3418052e-038
43.773945 248.11647 30.764786 2.3418052e-038
49.080257 251.64542 31.202354 2.3418052e-038
51.577595 254.39426 31.543192 2.3418052e-038
-57.626007 264.23062 27.844881 3.5733111e-043
-56.448002 263.24161 27.740662 3.5733111e-043
-51.129982 261.10461 27.515459 3.5733111e-043
-46.553989 262.70593 27.684208 3.5733111e-043
-42.184265 265.98373 28.029627 3.5733111e-043
-40.801697 267.80206 28.221245 2.3418409e-038
-28.348455 273.61771 28.834103 2.3418409e-038
-28.091915 273.37363 28.808382 2.3418409e-038
-22.590693 268.46445 28.291046 2.3418409e-038
-17.418699 265.79047 28.00926 2.3509886e-038
-12.429914 264.89963 27.915384 2.3509886e-038
-12.266008 264.89966 27.915388 2.3509528e-038
-1.9330148 263.9364 27.813877 2.3509528e-038
2.3048725 258.56955 27.248312 2.3509528e-038
7.0035439 254.43112 26.812201 2.3509528e-038
11.691887 253.40775 26.704357 2.3509528e-038
15.197615 255.60001 26.935379 2.3509528e-038
35.643612 249.92459 26.337297 2.3418052e-038
39.322296 249.17073 26.257858 2.3418052e-038
44.146881 250.23032 26.369516 2.3418052e-038
49.752464 255.09196 26.881842 2.3418052e-038
50.07259 255.51131 26.926033 2.3418052e-038
-56.699818 265.63916 23.049149 3.5733111e-043
-51.423958 262.60587 22.785954 3.5733111e-043
-46.775173 263.95407 22.902933 3.5733111e-043
-42.381584 267.22787 23.186998 3.5733111e-043
-39.769936 270.52319 23.472927 3.5733111e-043
-27.910927 274.01328 23.775759 2.3418409e-038
-22.735065 270.18015 23.443161 2.3509886e-038
-17.532114 267.52106 23.212437 2.3509886e-038
-12.505699 266.51471 23.125118 2.3509886e-038
-11.572847 266.53 23.126446 2.3509886e-038
-3.7471464 266.40735 23.115801 2.3509528e-038
-2.5736928 265.37259 23.02602 2.3509528e-038
2.3203301 260.30362 22.586189 2.3509528e-038
7.0613065 256.52957 22.25872 2.3509528e-038
11.762059 254.92865 22.11981 2.3509528e-038
14.025045 256.1604 22.22669 2.3509528e-038
32.897346 252.46355 21.905918 2.3418052e-038
34.98748 251.34628 21.808975 2.3418052e-038
39.601402 250.93932 21.773661 2.3418052e-038
44.571533 252.6373 21.920994 2.3418052e-038
47.533375 254.89983 22.11731 2.3418052e-038
-55.674274 266.6615 18.174658 3.5733111e-043
-51.748318 264.26227 18.011133 3.5733111e-043
-46.970013 265.05356 18.065067 3.5733111e-043
-42.440331 267.5983 18.238506 3.5733111e-043
-37.913467 270.83981 18.459436 3.5733111e-043
-37.306976 271.33496 18.493185 3.5733111e-043
-28.938848 274.59372 18.715288 3.5733111e-043
-28.183224 274.26218 18.692692 2.3509886e-038
-22.82649 271.26663 18.488525 2.3509886e-038
-17.632658 269.05524 18.337807 2.3509886e-038
-12.580851 268.1163 18.273811 2.3509886e-038
-7.5839262 267.88141 18.257803 2.3509886e-038
-2.5777996 265.79605 18.115673 2.3509528e-038
2.3362274 262.08704 17.862881 2.3509528e-038
7.1293883 259.00293 17.652678 2.3509528e-038
11.885183 257.5972 17.556868 2.3509528e-038
13.002661 257.86987 17.575453 2.3509528e-038
29.645952 254.87021 17.371006 2.3418052e-038
30.679323 254.41451 17.339947 2.3418052e-038
35.202538 252.89124 17.236128 2.3418052e-038
39.971878 253.2869 17.263094 2.3418052e-038
45.084263 256.09882 17.454742 2.3418052e-038
-54.651505 267.72571 13.264185 3.5733111e-043
-52.141788 266.27161 13.192142 3.5733111e-043
-47.206551 266.38837 13.197927 3.5733111e-043
-42.499382 267.97064 13.27632 3.5733111e-043
-37.768604 269.80496 13.367199 3.5733111e-043
-33.058472 272.37201 13.494382 3.5733111e-043
-28.074926 273.20828 13.535814 2.3509886e-038
-22.874849 271.84131 13.468088 2.3509886e-038
-17.725468 270.47144 13.400218 2.3509886e-038
-12.633284 269.23373 13.3389 2.3509886e-038
-7.5919199 268.16376 13.285889 2.3509886e-038
-2.5858202 266.62305 13.209556 2.3509886e-038
2.3538787 264.06723 13.08293 2.3509528e-038
7.2058892 261.7821 12.969716 2.3509528e-038
12.06137 261.41583 12.95157 2.3509886e-038
12.853839 261.51016 12.956243 2.3509886e-038
25.693306 254.81114 12.624347 2.3418052e-038
25.977324 254.74057 12.620851 2.3418052e-038
30.663177 254.28059 12.598062 2.3418052e-038
35.359921 254.02185 12.585242 2.3418052e-038
40.315876 255.46671 12.656826 2.3418052e-038
42.600082 257.19113 12.742261 2.3418052e-038
-53.893303 270.05579 8.3532534 2.3509886e-038
-52.737247 269.31241 8.3302603 2.3509886e-038
-47.555462 268.35727 8.3007174 3.5733111e-043
-42.652687 268.93729 8.3186569 3.5733111e-043
-37.789066 269.95111 8.3500166 3.5733111e-043
-32.928757 271.30328 8.3918419 2.3509886e-038
-27.965342 272.14188 8.4177809 2.3509886e-038
-22.909716 272.25565 8.4212999 2.3509886e-038
-17.817064 271.86908 8.4093428 2.3509886e-038
-12.699984 270.65521 8.3717957 2.3509886e-038
-7.6203675 269.16861 8.3258123 2.3509886e-038
-2.5959666 267.66925 8.2794352 2.3509886e-038
2.3677876 265.62759 8.2162828 2.3509886e-038
7.268353 264.05136 8.1675272 2.3509886e-038
12.201091 264.44412 8.179677 2.3509886e-038
15.183432 264.33426 8.1762781 2.3509886e-038
20.499004 259.84296 8.0373554 2.3418052e-038
21.578367 258.84747 8.0065632 2.3418052e-038
26.126348 256.20197 7.9247336 2.3418052e-038
30.838598 255.73531 7.9102993 2.3418052e-038
35.649475 256.10199 7.9216418 2.3418052e-038
39.971272 257.81207 7.9745369 2.3418052e-038
-53.174164 272.15997 3.3528039 2.3509886e-038
-47.892391 270.25858 3.3293803 2.3509886e-038
-42.812904 269.94751 3.3255479 2.3509886e-038
-37.904682 270.77704 3.3357675 2.3509886e-038
-33.013325 272.00003 3.3508337 2.3509886e-038
-28.006678 272.54416 3.3575366 2.3509886e-038
-22.952425 272.76318 3.3602352 2.3509886e-038
-17.870853 272.68985 3.3593318 2.3509886e-038
-12.754771 271.82281 3.3486505 2.3509886e-038
-7.6568708 270.45798 3.3318367 2.3509886e-038
-2.6064594 268.75116 3.3108101 2.3509886e-038
2.3778641 266.75803 3.2862561 2.3509886e-038
7.3050823 265.38568 3.2693498 2.3509886e-038
12.223653 264.93314 3.2637749 2.3509886e-038
17.044374 263.22958 3.2427883 2.3418052e-038
21.70204 260.33099 3.2070801 2.3418052e-038
26.386084 258.74899 3.1875908 2.3418052e-038
31.185471 258.61182 3.1859012 2.3418052e-038
36.163052 259.79147 3.2004335 2.3418052e-038
37.628498 260.67715 3.2113442 2.3418052e-038
-52.414181 272.91644 -1.7174829 2.3509886e-038
-48.082615 271.33203 -1.707512 2.3509886e-038
-42.897335 270.47986 -1.7021493 2.3509886e-038
-37.981903 271.32864 -1.7074909 2.3509886e-038
-33.112469 272.81689 -1.7168565 2.3509886e-038
-28.087725 273.33282 -1.7201033 2.3509886e-038
-22.994436 273.26248 -1.7196605 2.3509886e-038
-17.896315 273.07834 -1.7185018 2.3509886e-038
-12.796072 272.703 -1.7161396 2.3509886e-038
-7.6991253 271.9505 -1.7114043 2.3509886e-038
-2.6236627 270.52499 -1.7024335 2.3509886e-038
2.3957028 268.75922 -1.6913213 2.3509886e-038
7.3576074 267.29388 -1.6820997 2.3509886e-038
12.274124 266.02704 -1.6741275 2.3509886e-038
17.099627 264.08289 -1.6618927 2.3418052e-038
21.845552 262.05255 -1.6491156 2.3418052e-038
26.641132 261.25006 -1.6440655 2.3418052e-038
31.561956 261.73392 -1.6471105 2.3418052e-038
35.345055 263.48764 -1.6581467 2.3418052e-038
-52.089943 273.92334 -6.822176 2.3509886e-038
-48.195698 271.97015 -6.773531 2.3509886e-038
-42.965775 270.91138 -6.7471614 2.3509886e-038
-38.056019 271.85812 -6.770741 2.3509886e-038
-33.179882 273.37231 -6.8084526 2.3509886e-038
-28.163998 274.0751 -6.8259554 2.3509886e-038
-23.060671 274.04959 -6.8253198 2.3509886e-038
-17.943203 273.79382 -6.8189502 2.3509886e-038
-12.840851 273.65729 -6.8155499 2.3509886e-038
-7.7374911 273.30569 -6.8067932 2.3509886e-038
-2.6403394 272.24451 -6.780364 2.3509886e-038
2.4154158 270.9707 -6.7486396 2.3509886e-038
7.4278779 269.84671 -6.7206459 2.3509886e-038
12.384047 268.40948 -6.6848512 2.3509886e-038
17.238955 266.23465 -6.6306858 2.3418052e-038
22.022717 264.17773 -6.5794578 2.3418052e-038
26.895641 263.74585 -6.5687013 2.3418052e-038
31.988583 265.27182 -6.6067061 2.3418052e-038
33.48325 266.46088 -6.6363201 2.3418052e-038
-52.153984 275.06134 -11.970046 2.3509886e-038
-48.237843 272.20798 -11.845875 2.3509886e-038
-42.963509 270.89709 -11.788827 2.3509886e-038
-38.07613 272.0018 -11.836903 2.3509886e-038
-33.198883 273.52887 -11.903357 2.3509886e-038
-28.198446 274.41034 -11.941716 2.3509886e-038
-23.107311 274.60385 -11.950137 2.3509886e-038
-17.98979 274.5047 -11.945823 2.3509886e-038
-12.871935 274.31973 -11.937774 2.3509886e-038
-7.7533956 273.86746 -11.918091 2.3509886e-038
-2.6476266 272.99591 -11.880164 2.3509886e-038
2.4267592 272.24326 -11.84741 2.3509886e-038
7.4771147 271.63544 -11.820959 2.3509886e-038
12.469752 270.26706 -11.761411 2.3509886e-038
17.351458 267.97211 -11.661539 2.3509886e-038
22.167818 265.91833 -11.572164 2.3418052e-038
27.118351 265.92978 -11.572661 2.3418052e-038
32.24931 268.83304 -11.699005 2.3418052e-038
-52.218609 275.13333 -17.094057 2.3509886e-038
-48.110905 271.49167 -16.8678 2.3509886e-038
-42.785954 269.77756 -16.761303 2.3509886e-038
-37.940933 271.03601 -16.839489 2.3509886e-038
-33.140228 273.04559 -16.964346 2.3509886e-038
-28.19688 274.39508 -17.048189 2.3509886e-038
-23.122728 274.78708 -17.072544 2.3509886e-038
-18.012577 274.85239 -17.076603 2.3509886e-038
-12.888417 274.67102 -17.065332 2.3509886e-038
-7.7584615 274.04639 -17.026525 2.3509886e-038
-2.6511097 273.35504 -16.98357 2.3509886e-038
2.4330018 272.94354 -16.958006 2.3509886e-038
7.4981017 272.39789 -16.924103 2.3509886e-038
12.507244 271.07962 -16.842199 2.3509886e-038
17.423927 269.09131 -16.718666 2.3509886e-038
22.29184 267.40604 -16.61396 2.3509886e-038
27.278759 267.50278 -16.619968 2.3509886e-038
31.620066 269.89038 -16.768311 2.3509886e-038
-52.91943 276.28827 -22.308187 2.3509886e-038
-48.00795 270.91068 -21.873989 2.3509886e-038
-42.572075 268.42899 -21.673609 2.3509886e-038
-37.743423 269.62506 -21.770185 2.3509886e-038
-33.022293 272.07391 -21.967911 2.3509886e-038
-28.169664 274.13022 -22.133942 2.3509886e-038
-23.150564 275.11786 -22.213686 2.3509886e-038
-18.054209 275.48767 -22.243544 2.3509886e-038
-12.922137 275.38962 -22.235628 2.3509886e-038
-7.7785358 274.75549 -22.184425 2.3509886e-038
-2.6595974 274.23022 -22.142015 2.3509886e-038
2.4411483 273.85748 -22.111919 2.3509886e-038
7.5174103 273.09933 -22.050705 2.3509886e-038
12.550467 272.01645 -21.963268 2.3509886e-038
17.52578 270.66428 -21.854092 2.3509886e-038
22.455093 269.36438 -21.749138 2.3509886e-038
27.439396 269.07803 -21.726015 2.3509886e-038
31.427677 270.50449 -21.841188 2.3509886e-038
-88.749863 226.26559 -22.480568 9.1476764e-041
-86.24427 225.80269 -22.434578 9.1476764e-041
-82.242905 226.35687 -22.489639 9.1476764e-041
-78.795792 228.57874 -22.71039 9.1476764e-041
-77.637215 229.99768 -22.851368 9.1476764e-041
-54.946255 279.41287 -27.761005 2.3509886e-038
-54.613403 278.89334 -27.709387 2.3509886e-038
-47.934147 270.49423 -26.874895 2.3509886e-038
-42.4538 267.68323 -26.59561 2.3509886e-038
-37.600903 268.60693 -26.687384 2.3509886e-038
-32.875446 270.86404 -26.911636 2.3509886e-038
-28.087914 273.33469 -27.157108 2.3509886e-038
-23.151041 275.12354 -27.334839 2.3509886e-038
-18.097206 276.14377 -27.436203 2.3509886e-038
-12.96503 276.30374 -27.452099 2.3509886e-038
-7.8028598 275.61465 -27.383633 2.3509886e-038
-2.667423 275.03711 -27.326252 2.3509886e-038
2.4479351 274.61884 -27.284695 2.3509886e-038
7.5410371 273.95767 -27.219006 2.3509886e-038
12.608488 273.27399 -27.151075 2.3509886e-038
17.632366 272.31039 -27.05534 2.3509886e-038
22.606647 271.18237 -26.943266 2.3509886e-038
27.619324 270.84247 -26.909492 2.3509886e-038
31.551239 272.11063 -27.035494 2.3509886e-038
-92.31604 226.51891 -26.721785 9.1476764e-041
-90.297272 225.42896 -26.593206 9.1476764e-041
-85.481918 223.80672 -26.401836 9.1476764e-041
-81.3368 223.86299 -26.408474 9.1476764e-041
-77.87384 225.90424 -26.649275 9.1476764e-041
-75.177063 230.52797 -27.194721 9.1476764e-041
-72.526314 235.86107 -27.823853 9.1476764e-041
-70.160652 241.27275 -28.462254 2.3509886e-038
-58.134197 278.36578 -32.838013 2.3509886e-038
-53.60379 273.73758 -32.292034 2.3509886e-038
-47.538177 268.25974 -31.64583 2.3509886e-038
-42.310486 266.7796 -31.471222 2.3509886e-038
-37.481358 267.75296 -31.586048 2.3509886e-038
-32.722771 269.60614 -31.804663 2.3509886e-038
-27.962614 272.11536 -32.100666 2.3509886e-038
-23.096041 274.46991 -32.378429 2.3509886e-038
-18.099762 276.18274 -32.580482 2.3509886e-038
-12.994398 276.92963 -32.668591 2.3509886e-038
-7.8269143 276.46429 -32.613697 2.3509886e-038
-2.6747117 275.78864 -32.533993 2.3509886e-038
2.4547112 275.379 -32.485672 2.3509886e-038
7.5704336 275.0256 -32.443981 2.3509886e-038
12.660171 274.39417 -32.369492 2.3509886e-038
17.680347 273.05142 -32.21109 2.3509886e-038
22.656532 271.78079 -32.061199 2.3509886e-038
27.720943 271.83896 -32.068062 2.3509886e-038
31.734221 273.72864 -32.290981 2.3509886e-038
-90.363525 226.74394 -30.968565 9.1476764e-041
-85.75264 224.5155 -30.664207 9.1476764e-041
-81.079445 223.15468 -30.478348 9.1476764e-041
-77.313545 224.27887 -30.631889 9.1476764e-041
-74.432137 228.24367 -31.173399 9.1476764e-041
-71.870956 233.72977 -31.922688 9.1476764e-041
-69.446014 240.39447 -32.832951 9.1476764e-041
-66.956238 247.73721 -33.835815 9.1476764e-041
-64.099861 254.70934 -34.788063 2.3509886e-038
-61.076954 262.08051 -35.794815 2.3509886e-038
-57.243698 266.9523 -36.460205 2.3509886e-038
-52.31356 267.14877 -36.487034 2.3509886e-038
-47.097706 265.77414 -36.29929 2.3509886e-038
-42.151291 265.77582 -36.299522 2.3509886e-038
-37.37286 266.97791 -36.463699 2.3509886e-038
-32.595768 268.55975 -36.679749 2.3509886e-038
-27.82687 270.79437 -36.984951 2.3509886e-038
-23.0061 273.40109 -37.340977 2.3509886e-038
-18.061243 275.59497 -37.640617 2.3509886e-038
-12.99998 277.04855 -37.839146 2.3509886e-038
-7.8520236 277.35123 -37.880486 2.3509886e-038
-2.6860781 276.9606 -37.827133 2.3509886e-038
2.464144 276.43723 -37.75565 2.3509886e-038
7.5956907 275.94318 -37.688175 2.3509886e-038
12.689591 275.0318 -37.563698 2.3509886e-038
17.696613 273.30261 -37.327526 2.3509886e-038
22.672144 271.96808 -37.145252 2.3509886e-038
27.822914 272.83893 -37.264194 2.3509886e-038
32.048252 276.5083 -37.765358 2.3509886e-038
-85.04528 227.00578 -35.229443 9.1476764e-041
-81.831657 225.22499 -34.953075 9.1476764e-041
-77.608192 225.13362 -34.938896 9.1476764e-041
-74.33007 227.93069 -35.372978 9.1476764e-041
-71.431274 232.29991 -36.051044 9.1476764e-041
-68.813087 238.20354 -36.967239 9.1476764e-041
-66.104576 244.58607 -37.95776 9.1476764e-041
-62.982483 250.26929 -38.839748 9.1476764e-041
-59.647491 255.94673 -39.72084 9.1476764e-041
-55.919662 260.77774 -40.470573 2.3509886e-038
-51.559158 263.29626 -40.861427 2.3509886e-038
-46.806068 264.12842 -40.990574 2.3509886e-038
-42.00391 264.84656 -41.10202 2.3509886e-038
-37.253418 266.12463 -41.300369 2.3509886e-038
-32.48037 267.60898 -41.530724 2.3509886e-038
-27.706013 269.61826 -41.842545 2.3509886e-038
-22.919912 272.37683 -42.270657 2.3509886e-038
-18.014898 274.88782 -42.660343 2.3509886e-038
-12.993035 276.90057 -42.972702 2.3509886e-038
-7.8766561 278.22128 -43.17767 2.3509886e-038
-2.7003479 278.43198 -43.210369 2.3509886e-038
2.4758461 277.75 -43.104534 2.3509886e-038
7.6161571 276.68671 -42.939514 2.3509886e-038
12.699189 275.23984 -42.714973 2.3509886e-038
17.70495 273.43137 -42.434311 2.3509886e-038
22.707851 272.39642 -42.273697 2.3509886e-038
27.97851 274.36475 -42.579163 2.3509886e-038
32.410355 280.20599 -43.48568 2.3509886e-038
-78.741127 229.78119 -39.936935 9.1476764e-041
-75.294472 230.888 -40.129295 9.1476764e-041
-71.773727 233.41359 -40.56826 9.1476764e-041
-68.701118 237.81595 -41.333405 9.1476764e-041
-65.566833 242.59644 -42.164272 9.1476764e-041
-62.137093 246.91002 -42.913994 9.1476764e-041
-58.655838 251.69154 -43.745045 9.1476764e-041
-55.01778 256.5719 -44.593266 9.1476764e-041
-50.92337 260.04953 -45.197693 2.3509886e-038
-46.419796 261.94867 -45.527775 2.3509886e-038
-41.740391 263.185 -45.742653 2.3509886e-038
-37.030617 264.53305 -45.976948 2.3509886e-038
-32.311359 266.21649 -46.269535 2.3509886e-038
-27.587854 268.46841 -46.660931 2.3509886e-038
-22.841673 271.44705 -47.178635 2.3509886e-038
-17.973577 274.25729 -47.667065 2.3509886e-038
-12.986345 276.758 -48.101692 2.3509886e-038
-7.8978658 278.97049 -48.486237 2.3509886e-038
-2.713114 279.74829 -48.621422 2.3509886e-038
2.4867942 278.97824 -48.487583 2.3509886e-038
7.6385627 277.50067 -48.230774 2.3509886e-038
12.72276 275.7507 -47.926624 2.3509886e-038
17.755335 274.2095 -47.658756 2.3509886e-038
22.812803 273.65536 -47.562443 2.3509886e-038
28.101032 275.56622 -47.894558 2.3509886e-038
32.094177 280.10696 -48.683758 2.3509886e-038
-72.800568 239.64828 -46.112289 9.1476764e-041
-69.836739 241.74699 -46.516113 9.1476764e-041
-65.991646 244.16826 -46.982006 9.1476764e-041
-62.072208 246.65221 -47.459957 9.1476764e-041
-58.209217 249.7751 -48.060852 9.1476764e-041
-54.310432 253.27322 -48.733948 9.1476764e-041
-50.192463 256.31702 -49.31963 9.1476764e-041
-45.811535 258.51624 -49.74279 2.3509886e-038
-41.254421 260.12082 -50.05154 2.3509886e-038
-36.63216 261.68661 -50.352829 2.3509886e-038
-32.01387 263.76544 -50.752831 2.3509886e-038
-27.376291 266.40961 -51.261608 2.3509886e-038
-22.697863 269.73801 -51.902054 2.3509886e-038
-17.909882 273.28537 -52.584618 2.3509886e-038
-12.977883 276.57764 -53.218109 2.3509886e-038
-7.9084926 279.34583 -53.750751 2.3509886e-038
-2.7200131 280.45969 -53.965073 2.3509886e-038
2.4935226 279.73303 -53.825256 2.3509886e-038
7.6564884 278.15189 -53.521019 2.3509886e-038
12.762291 276.60748 -53.223846 2.3509886e-038
17.850737 275.68286 -53.045937 2.3509886e-038
22.997898 275.87573 -53.083042 2.3509886e-038
28.327337 277.78543 -53.450504 2.3509886e-038
31.402056 279.87091 -53.851784 2.3509886e-038
-66.284813 248.88741 -52.522427 9.1476764e-041
-62.63744 248.89822 -52.524712 9.1476764e-041
-58.239021 249.90298 -52.736744 9.1476764e-041
-53.980862 251.73628 -53.123623 9.1476764e-041
-49.666637 253.63177 -53.523624 9.1476764e-041
-45.238503 255.28258 -53.871998 2.3509886e-038
-40.737469 256.86127 -54.205147 2.3509886e-038
-36.182129 258.47177 -54.545006 2.3509886e-038
-31.626429 260.57327 -54.988483 2.3509886e-038
-27.057613 263.30844 -55.565681 2.3509886e-038
-22.480478 267.15466 -56.377346 2.3509886e-038
-17.809893 271.75964 -57.349125 2.3509886e-038
-12.950963 276.00397 -58.244804 2.3509886e-038
-7.9053435 279.23462 -58.926567 2.3509886e-038
-2.7212739 280.58963 -59.212517 2.3509886e-038
2.4965537 280.07306 -59.1035 2.3509886e-038
7.6722441 278.72427 -58.818874 2.3509886e-038
12.812478 277.69525 -58.601715 2.3509886e-038
17.961287 277.39017 -58.537331 2.3509886e-038
23.199987 278.2999 -58.729313 2.3509886e-038
28.737391 281.80652 -59.469315 2.3509886e-038
30.803669 283.86368 -59.903427 2.3509886e-038
-60.440273 252.29874 -57.938187 9.1476764e-041
-58.802696 252.32172 -57.943466 9.1476764e-041
-54.251678 252.99922 -58.099045 9.1476764e-041
-49.595642 253.26923 -58.161053 9.1476764e-041
-44.974728 253.7941 -58.281586 2.3509886e-038
-40.449978 255.04857 -58.569664 2.3509886e-038
-35.910526 256.53152 -58.910213 2.3509886e-038
-31.374756 258.49973 -59.362186 2.3509886e-038
-26.834051 261.13287 -59.966869 2.3509886e-038
-22.307091 265.09415 -60.876545 2.3509886e-038
-17.698637 270.06201 -62.017365 2.3509886e-038
-12.895675 274.82565 -63.111298 2.3509886e-038
-7.8863258 278.56287 -63.969517 2.3509886e-038
-2.7193475 280.39102 -64.389336 2.3509886e-038
2.5004661 280.51196 -64.417107 2.3509886e-038
7.7027531 279.83264 -64.261108 2.3509886e-038
12.88526 279.27267 -64.132523 2.3509886e-038
18.07633 279.16687 -64.108223 2.3509886e-038
23.357765 280.1926 -64.343765 2.3509886e-038
29.052055 284.89221 -65.422989 2.3509886e-038
29.65662 285.72418 -65.614052 2.3509886e-038
-55.491604 258.38788 -64.145706 2.3509886e-038
-55.400803 258.35809 -64.138313 2.3509886e-038
-50.205677 256.38449 -63.648365 2.3509886e-038
-45.242851 255.30711 -63.380905 2.3509886e-038
-40.554646 255.70854 -63.480556 2.3509886e-038
-35.952946 256.83453 -63.760086 2.3509886e-038
-31.379648 258.54001 -64.183479 2.3509886e-038
-26.795275 260.75552 -64.733482 2.3509886e-038
-22.237116 264.26257 -65.604126 2.3509886e-038
-17.61974 268.85812 -66.744987 2.3509886e-038
-12.83408 273.513 -67.900574 2.3509886e-038
-7.8611121 277.67227 -68.933128 2.3509886e-038
-2.7179942 280.25146 -69.573425 2.3509886e-038
2.5054407 281.07007 -69.776649 2.3509886e-038
7.7392812 281.15967 -69.798897 2.3509886e-038
12.97599 281.23917 -69.818626 2.3509886e-038
18.2104 281.23743 -69.818192 2.3509886e-038
23.508886 282.00537 -70.008835 2.3509886e-038
27.971212 284.86697 -70.719246 2.3509886e-038
-48.844456 262.49576 -70.051155 2.3509886e-038
-46.244701 260.9606 -69.641472 2.3509886e-038
-41.074944 258.98917 -69.115364 2.3509886e-038
-36.245659 258.9256 -69.098396 2.3509886e-038
-31.575397 260.15283 -69.425903 2.3509886e-038
-26.920837 261.97742 -69.912819 2.3509886e-038
-22.297953 264.98557 -70.715599 2.3509886e-038
-17.633905 269.07428 -71.80674 2.3509886e-038
-12.832049 273.46973 -72.979729 2.3509886e-038
-7.8683233 277.92697 -74.16922 2.3509886e-038
-2.729039 281.39032 -75.09346 2.3509886e-038
2.5212679 282.84558 -75.481827 2.3509886e-038
7.7990503 283.33099 -75.611366 2.3509886e-038
13.102848 283.98865 -75.786873 2.3509886e-038
18.419628 284.46872 -75.914986 2.3509886e-038
23.78001 285.25769 -76.125542 2.3509886e-038
25.983622 286.16998 -76.368996 2.3509886e-038
-41.081131 264.11731 -75.399734 2.3509886e-038
-36.859444 263.31024 -75.169342 2.3509886e-038
-32.03854 263.96872 -75.357307 2.3509886e-038
-27.274244 265.41653 -75.770638 2.3509886e-038
-22.557873 268.07443 -76.529404 2.3509886e-038
-17.803774 271.66629 -77.55481 2.3509886e-038
-12.943323 275.84113 -78.746628 2.3509886e-038
-7.9449592 280.63391 -80.114868 2.3509886e-038
-2.7631431 284.90677 -81.334671 2.3509886e-038
2.5587697 287.0527 -81.947289 2.3509886e-038
7.9275479 287.99918 -82.217491 2.3509886e-038
13.355223 289.45859 -82.634117 2.3509886e-038
18.826103 290.74622 -83.001701 2.3509886e-038
23.241758 291.02158 -83.080322 2.3509886e-038
-30.950495 272.26675 -82.793739 2.3509886e-038
-28.023144 272.70441 -82.926826 2.3509886e-038
-23.147383 275.08005 -83.649239 2.3509886e-038
-18.238167 278.29465 -84.62677 2.3509886e-038
-13.213335 281.59546 -85.630516 2.3509886e-038
-8.1044025 286.26581 -87.050728 2.3509886e-038
-2.824358 291.2186 -88.556816 2.3509886e-038
2.6244631 294.42245 -89.531082 2.3509886e-038
8.1722975 296.89069 -90.281647 2.3509886e-038
13.850504 300.19318 -91.285904 2.3509886e-038
18.333698 302.95258 -92.125015 2.3509886e-038
-90.714554 226.47069 -23.463251 9.1476764e-041
-90.756737 226.576 -30.370035 9.1476764e-041
-86.380615 226.15967 -21.986227 9.1476764e-041
-86.806793 227.27548 -34.195145 9.1476764e-041
-82.417229 226.83665 -21.878431 9.1476764e-041
-82.449432 226.92529 -36.793873 9.1476764e-041
-78.875854 228.81099 -22.417572 9.1476764e-041
-79.036827 229.27794 -39.593246 9.1476764e-041
-75.821991 232.5056 -23.827732 9.1476764e-041
-76.247498 233.81041 -42.603439 9.1476764e-041
-72.789253 236.71616 -26.000332 2.3509886e-038
-73.311157 238.41342 -45.487396 9.1476764e-041
-69.890289 241.93237 -28.765497 2.3509886e-038
-70.678078 244.65938 -48.702644 9.1476764e-041
-67.299431 249.00703 -31.714048 2.3509886e-038
-67.104927 248.28737 -51.800236 9.1476764e-041
-64.349777 255.70241 -33.896942 2.3509886e-038
-63.089363 250.69397 -55.305992 9.1476764e-041
-59.3493 254.66719 68.504967 3.5733111e-043
-60.460358 259.43472 49.412483 3.5733111e-043
-61.590656 264.28482 -34.904697 2.3509886e-038
-59.134998 253.74762 -59.557129 9.1476764e-041
-54.778275 255.45496 69.671249 3.5733111e-043
-56.905449 265.37491 24.073809 3.5733111e-043
-59.072121 275.47903 -33.935658 2.3509886e-038
-55.421658 258.45532 -64.220947 2.3509886e-038
-50.817539 259.50906 63.410557 3.5733111e-043
-53.26606 272.01288 3.9418721 2.3509886e-038
-54.658047 279.12134 -27.205652 2.3509886e-038
-51.159534 261.25552 -68.105278 2.3509886e-038
-46.183674 260.61624 48.2743 3.5733111e-043
-46.695919 263.50684 -71.806831 2.3509886e-038
-41.885403 264.09933 34.397701 2.3418409e-038
-41.869884 264.0015 -74.930855 2.3509886e-038
-37.958355 271.16046 19.397696 3.5733111e-043
-37.2897 266.38382 -78.157875 2.3509886e-038
-33.174397 273.32712 15.9189 3.5733111e-043
-32.839985 270.57187 -81.508385 2.3509886e-038
-26.082855 253.82265 83.453209 2.3418409e-038
-28.132469 273.76828 27.076002 2.3418409e-038
-28.19092 274.3371 20.921995 2.3509886e-038
-28.238575 274.80084 -84.605965 2.3509886e-038
-21.356632 253.79906 84.900879 2.3418409e-038
-23.630026 280.81573 -88.161469 2.3509886e-038
-16.769125 255.87866 76.636002 2.3418409e-038
-18.781235 286.58127 -91.422806 2.3509886e-038
-12.367941 263.57889 34.311359 2.3509886e-038
-13.589134 289.60431 -93.280136 2.3509886e-038
-7.5829744 267.84781 19.363701 2.3509528e-038
-8.3267145 294.11838 -94.851173 2.3509886e-038
-2.5703158 265.02438 25.818497 2.3509528e-038
-2.9058442 299.62064 -96.223846 2.3509886e-038
2.2734368 255.04297 42.165054 2.3509528e-038
2.6957481 302.41949 -96.667801 2.3509886e-038
6.6889396 243.00189 62.846035 2.3509528e-038
8.3828325 304.53918 -96.600769 2.3509886e-038
11.068543 239.89752 71.301285 2.3509528e-038
14.113573 305.8949 -95.39798 2.3509886e-038
15.516738 239.6371 70.677299 2.3509528e-038
16.325157 252.12213 36.330936 2.3509528e-038
17.046593 263.26385 7.3203478 2.3509886e-038
19.48753 300.96115 -90.59008 2.3509886e-038
21.56229 258.6546 8.6044502 2.3418052e-038
24.102856 289.13046 -81.067986 2.3509886e-038
25.976793 254.73538 12.959116 2.3418052e-038
29.106947 285.43048 -67.380241 2.3509886e-038
30.693617 254.53302 18.748711 2.3418052e-038
32.390648 268.60599 -11.04038 2.3418052e-038
34.855286 250.39664 25.045094 2.3418052e-038
36.486538 262.11536 0.83089161 2.3418052e-038
39.2617 248.78676 32.305267 2.3418052e-038
40.640633 257.52454 9.2086954 2.3418052e-038
43.051392 244.02092 38.075756 2.3418052e-038
45.174297 256.05383 17.626617 2.3418052e-038
47.721813 244.68039 41.012371 2.3418052e-038
49.807442 255.37387 26.408749 2.3418052e-038
