# .PCD v0.7 - Point Cloud Data file format
VERSION 0.7
FIELDS x y z rgb
SIZE 4 4 4 4
TYPE F F F F
COUNT 1 1 1 1
WIDTH 911
HEIGHT 1
VIEWPOINT 0 0 0 1 0 0 0
POINTS 911
DATA ascii
-67.353966 340.50159 83.390625 2.3418052e-038
7.2313409 307.08179 40.495506 9.1476764e-041
-133.20605 362.60568 -22.20101 3.5733111e-043
-109.17233 351.21564 66.165047 2.3509528e-038
-32.218372 325.75385 75.176201 2.3418409e-038
-71.328094 340.20761 87.053764 2.3418052e-038
-68.688057 339.44824 86.859451 2.3418052e-038
-63.997292 339.96964 86.992867 2.3418052e-038
-63.494614 340.21323 87.055206 2.3418052e-038
-73.607452 342.51743 82.812592 2.3418052e-038
-68.809006 340.04593 82.215042 2.3418052e-038
-64.133865 340.69516 82.372009 2.3418052e-038
-62.141121 342.29596 82.759041 2.3418052e-038
-34.684361 326.05545 78.832466 2.3418409e-038
-33.778694 326.06036 78.833656 2.3418409e-038
-30.840435 326.18698 78.864273 2.3418409e-038
-73.909492 343.26254 78.150002 2.3418052e-038
-68.846992 340.23367 77.460434 2.3418052e-038
-64.139397 340.72452 77.572182 2.3418052e-038
-61.328403 343.26239 78.149971 2.3418052e-038
-36.931164 325.30145 74.060829 2.3418409e-038
-33.758327 325.86377 74.188858 2.3418409e-038
-29.260576 326.97586 74.442047 2.3418409e-038
-28.482059 327.49454 74.560127 2.3418409e-038
-73.700592 342.22397 73.08548 2.3418052e-038
-68.709824 339.55579 72.515663 2.3418052e-038
-64.02845 340.13516 72.639389 2.3418052e-038
-60.748055 343.1517 73.283607 2.3418052e-038
-37.637806 324.48642 69.29744 2.3418409e-038
-33.735973 325.64798 69.545509 2.3418409e-038
-29.298386 327.39835 69.919319 2.3418409e-038
-27.930029 328.66592 70.19001 2.3418409e-038
-113.71467 353.33008 70.472557 2.3509528e-038
-111.15737 352.63913 70.33474 2.3509528e-038
-106.01795 352.09311 70.225838 2.3509528e-038
-105.99844 352.09329 70.225876 2.3509528e-038
-73.412811 340.88776 67.990898 2.3418052e-038
-68.571129 338.87036 67.588531 2.3418052e-038
-63.928707 339.60535 67.735123 2.3418052e-038
-60.208103 342.75076 68.36248 2.3418052e-038
-38.396729 324.07843 64.638245 2.3418409e-038
-38.1469 324.09073 64.640694 2.3418409e-038
-33.721897 325.51212 64.924187 2.3418409e-038
-29.304352 327.46503 65.313705 2.3418409e-038
-27.89485 328.84262 65.58847 2.3418409e-038
-114.8129 353.04031 65.434082 2.3509528e-038
-110.889 351.78775 65.20192 2.3509528e-038
-105.70283 351.04654 65.064545 2.3509528e-038
-102.59624 351.22806 65.09819 2.3509528e-038
-73.274841 340.24701 63.062912 2.3418052e-038
-68.512581 338.58105 62.754139 2.3418052e-038
-63.85915 339.23578 62.875488 2.3418052e-038
-59.542545 341.93091 63.375011 2.3418052e-038
-59.280998 342.11444 63.409031 2.3418052e-038
-39.358845 323.93997 60.040493 2.3418409e-038
-38.130711 323.95319 60.042938 2.3418409e-038
-33.716614 325.46112 60.32243 2.3418409e-038
-29.292297 327.33032 60.668873 2.3418409e-038
-28.263454 328.2179 60.833382 2.3418409e-038
-114.38652 352.19778 60.309128 2.3509528e-038
-110.76142 351.383 60.169609 2.3509528e-038
-105.55662 350.56097 60.028843 2.3509528e-038
-100.47784 350.09726 59.949444 2.3509528e-038
-100.31499 350.11395 59.952301 2.3509528e-038
-73.247162 340.1185 58.240711 2.3418052e-038
-68.467041 338.35602 57.938911 2.3418052e-038
-63.735561 338.57925 57.977139 2.3418052e-038
-59.234467 340.16171 58.248112 2.3418052e-038
-57.837364 340.44101 58.29594 2.3418052e-038
-40.417274 323.56622 55.406357 2.3418409e-038
-38.093918 323.64059 55.41909 2.3418409e-038
-33.718117 325.47565 55.733318 2.3418409e-038
-29.305099 327.47339 56.075409 2.3418409e-038
-28.914278 327.76822 56.125889 2.3418409e-038
-113.94524 352.61038 55.405178 2.3509528e-038
-110.9058 351.84103 55.28429 2.3509528e-038
-105.45885 350.23627 55.032135 2.3509528e-038
-100.02795 348.52972 54.763988 2.3509528e-038
-97.894547 348.08124 54.693516 2.3509528e-038
-73.262947 340.21408 53.457359 2.3418052e-038
-68.401596 338.03259 53.11459 2.3418052e-038
-63.531086 337.49307 53.029812 2.3418052e-038
-58.916584 338.33624 53.1623 2.3418052e-038
-56.216171 338.20703 53.141998 2.3418052e-038
-41.60606 323.69489 50.861725 2.3418409e-038
-38.09586 323.65707 50.855782 2.3418409e-038
-33.766968 325.94717 51.215622 2.3418409e-038
-29.603268 328.31613 51.587852 2.3418409e-038
-113.33526 353.67096 50.582253 2.3509528e-038
-111.16302 352.65704 50.437244 2.3509528e-038
-105.28316 349.6528 50.007576 2.3509528e-038
-99.548737 346.85995 49.608143 2.3509528e-038
-95.056694 345.59842 49.427715 2.3509886e-038
-73.266022 340.41574 48.686485 2.3418052e-038
-68.37693 337.91068 48.328209 2.3418052e-038
-63.369392 336.63409 48.14563 2.3418052e-038
-58.668407 336.91104 48.185242 2.3418052e-038
-54.962162 336.2854 48.095764 2.3418052e-038
-43.058891 324.80081 46.453228 2.3418409e-038
-42.78574 324.59589 46.42392 2.3418409e-038
-38.157471 324.18051 46.364513 2.3418409e-038
-33.866604 326.90894 46.754734 2.3418409e-038
-30.136446 329.67758 47.150703 2.3418409e-038
5.3139143 307.71823 44.010063 9.1476764e-041
7.2095695 308.42944 44.111786 9.1476764e-041
11.697252 312.06839 44.632229 9.1476764e-041
12.431487 312.90799 44.752308 9.1476764e-041
-111.90142 353.59793 45.583271 2.3509528e-038
-111.33728 353.20987 45.533249 2.3509528e-038
-105.06996 348.94476 44.983418 2.3509528e-038
-99.15126 345.47501 44.536125 2.3509528e-038
-93.821617 343.80518 44.320858 2.3509886e-038
-92.335487 343.884 44.331017 2.3509886e-038
-73.16835 340.7236 43.923607 2.3418052e-038
-68.394226 337.99619 43.572006 2.3418052e-038
-63.282639 336.17325 43.337006 2.3418052e-038
-58.496475 335.92371 43.30484 2.3418052e-038
-54.220573 334.83313 43.164249 2.3418052e-038
-44.753563 326.45184 42.083794 2.3418409e-038
-42.832798 324.95291 41.89056 2.3418409e-038
-38.236122 324.84875 41.877136 2.3418409e-038
-33.964924 327.85803 42.265068 2.3418409e-038
-30.404573 331.03549 42.674686 2.3418409e-038
0.85158086 305.20273 39.344513 9.1476764e-041
2.8278391 305.14655 39.337269 9.1476764e-041
7.167594 306.6337 39.528984 9.1476764e-041
11.631873 310.32416 40.00473 9.1476764e-041
12.956067 311.93301 40.212132 9.1476764e-041
-109.92704 352.31253 40.447155 2.3509528e-038
-104.97187 348.61899 40.023117 2.3509528e-038
-99.02684 345.0415 39.612408 2.3509528e-038
-93.706596 343.38367 39.422081 2.3509886e-038
-90.078552 343.54315 39.440388 2.3509886e-038
-72.81311 341.35764 39.189484 2.3418052e-038
-68.440727 338.22595 38.829948 2.3418052e-038
-63.22506 335.86737 38.559174 2.3418052e-038
-58.391754 335.32233 38.496597 2.3418052e-038
-53.927544 334.26752 38.375504 2.3418052e-038
-46.390594 328.2619 37.686031 2.3418409e-038
-42.88335 325.3364 37.350166 2.3418409e-038
-38.288784 325.29614 37.345543 2.3418409e-038
-34.026638 328.4537 37.70805 2.3418409e-038
-30.51008 331.92398 38.106453 2.3418409e-038
-1.7982386 303.8826 34.887169 9.1476764e-041
-1.4706765 303.80875 34.878689 9.1476764e-041
2.8199925 304.29984 34.93507 9.1476764e-041
7.1591969 306.27448 35.161766 9.1476764e-041
11.55638 309.98846 35.588154 9.1476764e-041
-108.09283 351.11346 35.356007 2.3509528e-038
-105.01596 348.76541 35.119564 2.3509528e-038
-99.081833 345.23315 34.763878 2.3509528e-038
-93.804123 343.74106 34.613628 2.3509886e-038
-89.047592 344.10025 34.649796 2.3509886e-038
-88.299652 344.30713 34.670628 2.3509886e-038
-72.229065 342.39597 34.47818 2.3509886e-038
-68.581818 338.92325 34.12849 2.3418052e-038
-63.230968 335.89874 33.823933 2.3418052e-038
-58.424732 335.51172 33.784958 2.3418052e-038
-53.804974 335.02988 33.736439 2.3418052e-038
-48.000832 330.95624 33.326237 2.3418409e-038
-42.992985 326.16812 32.84409 2.3418409e-038
-38.355503 325.86298 32.813362 2.3418409e-038
-34.123848 329.39212 33.168732 2.3418409e-038
-30.714928 333.38989 33.571297 2.3418409e-038
-4.2297082 305.02472 30.715015 9.1476764e-041
-1.4730715 304.30347 30.642389 9.1476764e-041
2.8290856 305.28104 30.740828 9.1476764e-041
7.1840863 307.33926 30.948082 9.1476764e-041
9.6593676 309.41837 31.157442 9.1476764e-041
-106.46531 349.98758 30.305027 2.3509528e-038
-105.05786 348.90454 30.21125 2.3509528e-038
-99.13163 345.40662 29.908369 2.3509528e-038
-93.906319 344.11557 29.796576 2.3509528e-038
-89.184128 344.62784 29.840933 2.3509886e-038
-86.902687 345.53195 29.91922 2.3509886e-038
-71.113663 341.24509 29.548025 2.3509886e-038
-68.517326 338.60452 29.319382 2.3418052e-038
-63.188099 335.67102 29.065372 2.3418052e-038
-58.498924 335.93777 29.08847 2.3418052e-038
-53.795605 336.16321 29.107994 2.3418052e-038
-52.912739 335.91901 29.086845 2.3418052e-038
-49.954159 334.11292 28.93046 2.3418409e-038
-48.555138 332.7511 28.81254 2.3418409e-038
-43.132286 327.22498 28.33404 2.3418409e-038
-38.468758 326.82516 28.299421 2.3418409e-038
-34.296497 331.05865 28.665993 2.3418409e-038
-31.148527 335.67429 29.065655 2.3418409e-038
-7.0910106 308.13 26.680628 9.1476764e-041
-5.8244963 307.38159 26.615824 9.1476764e-041
-1.4867864 307.13669 26.594618 9.1476764e-041
2.8616796 308.79819 26.738485 9.1476764e-041
7.2648377 310.79385 26.911287 9.1476764e-041
7.3558898 310.85394 26.916489 9.1476764e-041
-104.88374 348.75464 25.278055 2.3509528e-038
-99.155785 345.49078 25.041489 2.3509528e-038
-93.960846 344.31534 24.956291 2.3509528e-038
-89.222763 344.77713 24.989763 2.3509528e-038
-85.479218 346.24033 25.095816 2.3509886e-038
-69.791603 338.53702 24.537472 2.3509886e-038
-68.22509 337.16034 24.437693 2.3509886e-038
-63.072742 335.0582 24.285324 2.3418052e-038
-58.496983 335.92664 24.34827 2.3418052e-038
-53.809265 336.24857 24.371605 2.3418052e-038
-48.583042 332.94232 24.131968 2.3418409e-038
-43.214813 327.85104 23.762945 2.3418409e-038
-38.580551 327.77493 23.757427 2.3418409e-038
-34.441143 332.4549 24.096636 2.3418409e-038
-31.620842 336.47885 24.388296 2.3418409e-038
-10.427155 309.19986 22.411089 9.1476764e-041
-10.219165 309.14056 22.406792 9.1476764e-041
-5.8525858 308.86398 22.386747 9.1476764e-041
-1.5052061 310.94177 22.537346 9.1476764e-041
2.9127874 314.31314 22.781706 9.1476764e-041
4.7535319 315.97858 22.902418 2.3509886e-038
-103.40972 348.32733 20.332901 2.3509528e-038
-99.362091 346.20963 20.209282 2.3509528e-038
-94.082603 344.76154 20.124752 2.3509528e-038
-89.181473 344.61758 20.11635 2.3509528e-038
-84.540871 345.52182 20.169134 2.3509886e-038
-83.228233 345.89459 20.190895 2.3509886e-038
-69.33725 337.07523 19.676083 2.3509886e-038
-68.014153 336.11789 19.620199 2.3509886e-038
-62.983624 334.58481 19.530708 2.3509886e-038
-58.382244 335.26773 19.570572 2.3509886e-038
-53.578823 334.80856 19.543768 2.3509886e-038
-48.385601 331.58926 19.355848 2.3509886e-038
-43.206135 327.78519 19.133795 2.3418409e-038
-38.62886 328.18539 19.157154 2.3418409e-038
-34.445663 332.4985 19.408922 2.3418409e-038
-31.741753 334.82556 19.544762 2.3509886e-038
-13.878819 308.81461 18.026424 9.1476764e-041
-10.203721 308.67334 18.018179 9.1476764e-041
-5.8814869 310.38922 18.118341 9.1476764e-041
-1.520568 314.1152 18.335836 9.1476764e-041
2.1024134 318.54196 18.59424 9.1476764e-041
-102.05548 349.64597 15.477084 2.3509528e-038
-99.998268 348.42624 15.423094 2.3509528e-038
-94.406044 345.94678 15.31334 2.3509528e-038
-89.125282 344.40042 15.244891 2.3509528e-038
-84.130829 343.84598 15.220347 2.3509886e-038
-79.168037 343.36093 15.198877 2.3509886e-038
-74.394516 340.75015 15.083311 2.3509886e-038
-73.963699 340.42746 15.069028 2.3509886e-038
-73.634796 340.17734 15.057955 2.3509886e-038
-68.044769 336.26917 14.884961 2.3509886e-038
-62.985958 334.5972 14.81095 2.3509886e-038
-58.217201 334.31995 14.798678 2.3509886e-038
-53.30172 333.07697 14.743657 2.3509886e-038
-48.199135 330.3114 14.621239 2.3509886e-038
-43.210239 327.81635 14.510796 2.3509886e-038
-38.647087 328.34024 14.533986 2.3509886e-038
-34.383202 331.89557 14.691362 2.3509886e-038
-30.752304 332.86423 14.734241 2.3509886e-038
-17.970827 313.39865 13.872598 9.1476764e-041
-14.630916 310.20938 13.731423 9.1476764e-041
-10.244947 309.92053 13.718637 9.1476764e-041
-5.9173017 312.27933 13.82305 9.1476764e-041
-1.5330071 316.68484 14.01806 9.1476764e-041
-0.33226719 318.29263 14.08923 9.1476764e-041
-100.46356 350.8941 10.58195 2.3509528e-038
-94.78817 347.34705 10.47498 2.3509528e-038
-89.112389 344.35062 10.384618 2.3509886e-038
-83.808929 342.53033 10.329723 2.3509886e-038
-78.721085 341.42242 10.296312 2.3509886e-038
-73.486359 339.49158 10.238083 2.3509886e-038
-68.196045 337.01675 10.163449 2.3509886e-038
-63.08057 335.09982 10.105639 2.3509886e-038
-58.129326 333.81531 10.066903 2.3509886e-038
-53.141373 332.07501 10.014421 2.3509886e-038
-48.126938 329.81665 9.9463148 2.3509886e-038
-43.231915 327.9808 9.8909512 2.3509886e-038
-38.565868 327.65018 9.8809805 2.3509886e-038
-34.086361 329.03024 9.9225998 2.3509886e-038
-29.343639 327.90405 9.8886366 2.3509886e-038
-24.26976 321.9632 9.7094774 9.1476764e-041
-19.343355 315.69345 9.5204 9.1476764e-041
-14.72432 312.18979 9.4147396 9.1476764e-041
-10.316838 312.09528 9.41189 9.1476764e-041
-5.9633913 314.71164 9.4907913 9.1476764e-041
-2.5143156 318.72876 9.6119375 9.1476764e-041
-99.089142 351.66495 5.6439252 2.3509528e-038
-95.142433 348.64523 5.5954609 2.3509886e-038
-89.172897 344.58444 5.5302887 2.3509886e-038
-83.676292 341.98825 5.4886222 2.3509886e-038
-78.520218 340.55127 5.4655595 2.3509886e-038
-73.428726 339.22534 5.4442797 2.3509886e-038
-68.297928 337.52026 5.4169149 2.3509886e-038
-63.171669 335.58371 5.3858347 2.3509886e-038
-58.110394 333.70657 5.3557081 2.3509886e-038
-53.080971 331.69754 5.3234649 2.3509886e-038
-48.108543 329.69058 5.2912545 2.3509886e-038
-43.219944 327.88998 5.2623568 2.3509886e-038
-38.400993 326.24945 5.2360277 2.3509886e-038
-33.657791 324.89331 5.2142634 2.3509886e-038
-28.875538 322.67319 5.1786318 2.3509886e-038
-24.051094 319.06238 5.1206813 9.1476764e-041
-19.346094 315.7381 5.0673294 9.1476764e-041
-14.813044 314.07092 5.0405726 9.1476764e-041
-10.403117 314.70532 5.0507541 9.1476764e-041
-6.0231948 317.86771 5.1015077 9.1476764e-041
-4.5834265 319.58524 5.1290727 9.1476764e-041
-98.366188 352.71198 0.68468648 2.3509886e-038
-95.549072 350.13531 0.6796847 2.3509886e-038
-89.297935 345.06763 0.66984725 2.3509886e-038
-83.641342 341.8454 0.66359222 2.3509886e-038
-78.426933 340.1467 0.66029465 2.3509886e-038
-73.366119 338.9361 0.65794462 2.3509886e-038
-68.285355 337.45813 0.65507567 2.3509886e-038
-63.162724 335.53622 0.65134484 2.3509886e-038
-58.061665 333.42676 0.64724994 2.3509886e-038
-53.017658 331.30191 0.64312518 2.3509886e-038
-48.054794 329.3222 0.63928217 2.3509886e-038
-43.153236 327.38391 0.6355195 2.3509886e-038
-38.264439 325.08929 0.63106525 2.3509886e-038
-33.412342 322.52402 0.62608546 2.3509886e-038
-28.630058 319.93005 0.62105 9.1476764e-041
-23.941875 317.61349 0.61655313 9.1476764e-041
-19.364035 316.03091 0.61348104 9.1476764e-041
-14.900266 315.92023 0.61326611 9.1476764e-041
-10.499407 317.61816 0.61656219 9.1476764e-041
-6.554276 321.55005 0.6241948 9.1476764e-041
-98.496506 354.91339 -4.31814 2.3509886e-038
-96.121742 352.23389 -4.2855392 2.3509886e-038
-89.456261 345.67944 -4.2057929 2.3509886e-038
-83.602318 341.68588 -4.1572046 2.3509886e-038
-78.334946 339.74774 -4.1336236 2.3509886e-038
-73.287155 338.57129 -4.1193094 2.3509886e-038
-68.226974 337.16962 -4.1022563 2.3509886e-038
-63.108055 335.24582 -4.0788498 2.3509886e-038
-58.002762 333.0885 -4.0526023 2.3509886e-038
-52.970428 331.00677 -4.0272746 2.3509886e-038
-48.010197 329.0166 -4.0030603 2.3509886e-038
-43.094212 326.9361 -3.9777477 2.3509886e-038
-38.207176 324.60281 -3.9493589 2.3509886e-038
-33.36208 322.03885 -3.918164 2.3509886e-038
-28.593197 319.51816 -3.8874953 2.3509886e-038
-23.937551 317.55612 -3.8636236 9.1476764e-041
-19.411707 316.80896 -3.8545334 9.1476764e-041
-14.988146 317.78351 -3.8663902 9.1476764e-041
-10.593644 320.46896 -3.8990633 9.1476764e-041
-8.2420311 323.52518 -3.9362478 9.1476764e-041
-99.179939 358.246 -9.4128036 2.3509886e-038
-96.909409 355.12024 -9.3306751 2.3509886e-038
-89.70517 346.64127 -9.107892 2.3509886e-038
-83.61113 341.72192 -8.9786386 2.3509886e-038
-78.28347 339.52448 -8.9209013 2.3509886e-038
-73.241539 338.36053 -8.8903198 2.3509886e-038
-68.189781 336.98584 -8.8541994 2.3509886e-038
-63.070564 335.04666 -8.8032475 2.3509886e-038
-57.970634 332.90402 -8.7469511 2.3509886e-038
-52.950497 330.88223 -8.6938286 2.3509886e-038
-47.988197 328.86581 -8.6408482 2.3509886e-038
-43.065891 326.72125 -8.5845003 2.3509886e-038
-38.208084 324.6105 -8.5290413 2.3509886e-038
-33.399433 322.39941 -8.4709454 2.3509886e-038
-28.639902 320.04004 -8.4089537 2.3509886e-038
-23.978657 318.10141 -8.358017 2.3509886e-038
-19.468794 317.74066 -8.3485374 9.1476764e-041
-15.060282 319.31293 -8.3898497 9.1476764e-041
-10.669227 322.7554 -8.480298 2.3509886e-038
-9.5148764 324.50449 -8.5262556 2.3509886e-038
-139.52951 367.55954 -14.843026 3.5733111e-043
-136.08836 366.17596 -14.787152 3.5733111e-043
-131.41678 364.42294 -14.716362 3.5733111e-043
-99.223747 359.61847 -14.522344 2.3509886e-038
-97.418205 356.98471 -14.415986 2.3509886e-038
-89.918045 347.46387 -14.031509 2.3509886e-038
-83.667633 341.95285 -13.80896 2.3509886e-038
-78.285797 339.53458 -13.711304 2.3509886e-038
-73.229279 338.30392 -13.661606 2.3509886e-038
-68.179291 336.93396 -13.606284 2.3509886e-038
-63.072144 335.05502 -13.530407 2.3509886e-038
-57.979218 332.95331 -13.445534 2.3509886e-038
-52.949467 330.87579 -13.361638 2.3509886e-038
-47.975895 328.78152 -13.277066 2.3509886e-038
-43.063049 326.69968 -13.192996 2.3509886e-038
-38.236256 324.84988 -13.118296 2.3509886e-038
-33.442776 322.81781 -13.036236 2.3509886e-038
-28.67766 320.46198 -12.941102 2.3509886e-038
-24.010256 318.5206 -12.862703 2.3509886e-038
-19.505251 318.33566 -12.855234 2.3509886e-038
-15.093193 320.01074 -12.922879 2.3509886e-038
-10.697851 323.62131 -13.068684 2.3509886e-038
-10.357266 324.13846 -13.089567 2.3509886e-038
-144.12686 368.88019 -20.1005 3.5733111e-043
-141.87985 367.79745 -20.041502 3.5733111e-043
-135.42163 364.38199 -19.855391 3.5733111e-043
-129.39665 361.90869 -19.720619 3.5733111e-043
-124.22491 361.71664 -19.710155 3.5733111e-043
-121.71215 362.33069 -19.743614 3.5733111e-043
-97.896141 357.03415 -19.455002 2.3509886e-038
-97.183647 356.12518 -19.405472 2.3509886e-038
-89.924591 347.48914 -18.934889 2.3509886e-038
-83.70607 342.10995 -18.641773 2.3509886e-038
-78.291733 339.5603 -18.502842 2.3509886e-038
-73.196999 338.15479 -18.426254 2.3509886e-038
-68.14994 336.78891 -18.35183 2.3509886e-038
-63.080093 335.09729 -18.259649 2.3509886e-038
-57.999313 333.0687 -18.149111 2.3509886e-038
-52.945 330.84787 -18.028095 2.3509886e-038
-47.959526 328.66934 -17.909388 2.3509886e-038
-43.07262 326.77234 -17.806017 2.3509886e-038
-38.271412 325.14856 -17.717537 2.3509886e-038
-33.470753 323.08786 -17.605249 2.3509886e-038
-28.688126 320.57892 -17.468536 2.3509886e-038
-24.016533 318.60388 -17.360914 2.3509886e-038
-19.510244 318.41718 -17.350739 2.3509886e-038
-15.081859 319.77042 -17.424479 2.3509886e-038
-10.909136 322.4498 -17.57048 2.3509886e-038
-143.57727 369.46118 -25.344496 3.5733111e-043
-142.11975 368.41934 -25.273029 3.5733111e-043
-135.15639 363.6683 -24.947115 3.5733111e-043
-129.00458 360.81216 -24.751186 3.5733111e-043
-123.74819 360.32855 -24.718012 3.5733111e-043
-118.70375 360.44717 -24.726149 3.5733111e-043
-115.85956 360.62277 -24.738194 3.5733111e-043
-96.973 355.04141 -24.355322 2.3509886e-038
-96.852425 354.91141 -24.346403 2.3509886e-038
-89.910759 347.4357 -23.833582 2.3509886e-038
-83.747742 342.28027 -23.479925 2.3509886e-038
-78.279671 339.508 -23.289753 2.3509886e-038
-73.12233 337.80984 -23.173262 2.3509886e-038
-68.066536 336.37677 -23.074955 2.3509886e-038
-63.032532 334.8446 -22.969849 2.3509886e-038
-57.970829 332.90512 -22.836803 2.3509886e-038
-52.914284 330.65594 -22.682514 2.3509886e-038
-47.93959 328.53271 -22.536865 2.3509886e-038
-43.081196 326.83737 -22.420565 2.3509886e-038
-38.289623 325.30325 -22.315329 2.3509886e-038
-33.482822 323.20438 -22.171347 2.3509886e-038
-28.694576 320.65103 -21.996191 2.3509886e-038
-24.020809 318.66061 -21.859653 2.3509886e-038
-19.505051 318.33237 -21.837135 2.3509886e-038
-15.059843 319.30362 -21.903763 2.3509886e-038
-11.129822 321.1217 -22.028481 2.3509886e-038
-140.20567 367.6955 -30.410805 3.5733111e-043
-135.32243 364.11505 -30.114679 3.5733111e-043
-129.10435 361.09122 -29.864588 3.5733111e-043
-123.60196 359.90277 -29.766294 3.5733111e-043
-118.14774 358.75885 -29.671684 3.5733111e-043
-112.74193 357.66602 -29.581301 3.5733111e-043
-110.10828 357.51682 -29.56896 3.5733111e-043
-97.766899 355.70203 -29.418865 2.3509886e-038
-96.825859 354.81409 -29.345427 2.3509886e-038
-90.023582 347.8717 -28.771246 2.3509886e-038
-83.819077 342.57181 -28.332909 2.3509886e-038
-78.254784 339.40005 -28.070585 2.3509886e-038
-73.027596 337.37219 -27.90287 2.3509886e-038
-67.966049 335.88019 -27.77947 2.3509886e-038
-62.971161 334.51859 -27.666857 2.3509886e-038
-57.939068 332.72272 -27.518328 2.3509886e-038
-52.893749 330.52762 -27.336779 2.3509886e-038
-47.923027 328.41922 -27.162399 2.3509886e-038
-43.069767 326.75067 -27.024399 2.3509886e-038
-38.284412 325.259 -26.90103 2.3509886e-038
-33.487259 323.24719 -26.73464 2.3509886e-038
-28.699034 320.70084 -26.524038 2.3509886e-038
-24.011572 318.53806 -26.345165 2.3509886e-038
-19.484144 317.99118 -26.299932 2.3509886e-038
-15.042408 318.93399 -26.377911 2.3509886e-038
-10.799145 321.07629 -26.555094 2.3509886e-038
-136.034 366.37891 -35.470768 3.5733111e-043
-129.85692 363.19601 -35.162617 3.5733111e-043
-123.88987 360.74112 -34.924946 3.5733111e-043
-118.0069 358.33118 -34.691631 3.5733111e-043
-112.47955 356.83365 -34.546646 3.5733111e-043
-107.54382 357.16058 -34.5783 3.5733111e-043
-102.77048 358.08557 -34.667854 3.5733111e-043
-96.772461 354.61841 -34.332184 2.3509886e-038
-90.107857 348.19733 -33.710533 2.3509886e-038
-83.882828 342.8324 -33.191124 2.3509886e-038
-78.235367 339.31583 -32.85067 2.3509886e-038
-72.951149 337.01898 -32.628304 2.3509886e-038
-67.890755 335.50809 -32.482029 2.3509886e-038
-62.938915 334.34729 -32.369644 2.3509886e-038
-57.951355 332.79327 -32.219193 2.3509886e-038
-52.918964 330.68518 -32.015099 2.3509886e-038
-47.926159 328.44067 -31.7978 2.3509886e-038
-43.045296 326.56503 -31.616211 2.3509886e-038
-38.262447 325.07239 -31.471699 2.3509886e-038
-33.482269 323.19904 -31.290333 2.3509886e-038
-28.694517 320.65036 -31.043585 2.3509886e-038
-23.988665 318.23416 -30.809664 2.3509886e-038
-19.453295 317.4877 -30.737392 2.3509886e-038
-15.029951 318.66986 -30.851843 2.3509886e-038
-10.62838 321.51974 -31.127752 2.3509886e-038
-10.261801 321.95822 -31.170204 2.3509886e-038
-132.32401 367.97388 -40.816544 3.5733111e-043
-131.32364 367.29828 -40.741604 3.5733111e-043
-124.57388 362.73279 -40.235188 3.5733111e-043
-118.2067 358.93787 -39.814243 3.5733111e-043
-112.49238 356.87436 -39.585354 3.5733111e-043
-107.34609 356.50394 -39.54427 3.5733111e-043
-102.17907 356.0249 -39.491131 3.5733111e-043
-96.257065 352.72977 -39.125629 3.5733111e-043
-89.933723 347.52444 -38.548237 2.3509886e-038
-83.86927 342.77695 -38.021641 2.3509886e-038
-78.229057 339.28848 -37.634689 2.3509886e-038
-72.916176 336.85745 -37.365032 2.3509886e-038
-67.850769 335.31046 -37.193436 2.3509886e-038
-62.928177 334.29022 -37.080273 2.3509886e-038
-57.989326 333.01132 -36.938412 2.3509886e-038
-52.972347 331.01874 -36.717388 2.3509886e-038
-47.949997 328.60403 -36.449543 2.3509886e-038
-43.028492 326.43753 -36.209229 2.3509886e-038
-38.234226 324.83261 -36.031208 2.3509886e-038
-33.46027 322.98666 -35.82645 2.3509886e-038
-28.679398 320.48138 -35.548561 2.3509886e-038
-23.97378 318.03671 -35.277393 2.3509886e-038
-19.436871 317.2196 -35.186756 2.3509886e-038
-15.024787 318.56036 -35.335476 2.3509886e-038
-10.636816 321.77493 -35.692043 2.3509886e-038
-9.919816 322.69684 -35.794304 2.3509886e-038
-127.31321 366.97565 -45.883091 3.5733111e-043
-125.47475 365.35593 -45.680576 3.5733111e-043
-118.79292 360.7179 -45.100681 3.5733111e-043
-112.93811 358.28842 -44.796921 3.5733111e-043
-107.42467 356.76489 -44.606434 3.5733111e-043
-101.77894 354.63071 -44.339596 3.5733111e-043
-95.77594 350.96671 -43.881485 3.5733111e-043
-89.657471 346.45694 -43.317631 2.3509886e-038
-83.762856 342.34201 -42.803139 2.3509886e-038
-78.201424 339.16861 -42.406364 2.3509886e-038
-72.901566 336.78998 -42.108963 2.3509886e-038
-67.828537 335.20062 -41.910248 2.3509886e-038
-62.908531 334.18588 -41.783375 2.3509886e-038
-57.985291 332.98816 -41.633625 2.3509886e-038
-52.981544 331.07623 -41.394573 2.3509886e-038
-47.954567 328.63538 -41.08939 2.3509886e-038
-43.014168 326.32889 -40.80101 2.3509886e-038
-38.20631 324.59546 -40.584282 2.3509886e-038
-33.42794 322.67456 -40.344112 2.3509886e-038
-28.660593 320.27127 -40.043625 2.3509886e-038
-23.976194 318.06876 -39.768242 2.3509886e-038
-19.445805 317.36545 -39.680309 2.3509886e-038
-15.039785 318.87839 -39.869473 2.3509886e-038
-10.65576 322.34799 -40.30328 2.3509886e-038
-9.7936621 323.48587 -40.445549 2.3509886e-038
-122.55593 365.89838 -50.910469 3.5733111e-043
-119.91646 364.12958 -50.66436 3.5733111e-043
-113.78943 360.98917 -50.227409 3.5733111e-043
-107.71063 357.7146 -49.771793 3.5733111e-043
-101.54272 353.80765 -49.228188 3.5733111e-043
-95.351967 349.41306 -48.616734 3.5733111e-043
-89.302231 345.08423 -48.014423 3.5733111e-043
-83.532646 341.40115 -47.501968 2.3509886e-038
-78.068695 338.59299 -47.111244 2.3509886e-038
-72.83152 336.46637 -46.815353 2.3509886e-038
-67.790092 335.01059 -46.612801 2.3509886e-038
-62.875263 334.00916 -46.473457 2.3509886e-038
-57.947445 332.77081 -46.301159 2.3509886e-038
-52.966084 330.97961 -46.051933 2.3509886e-038
-47.963696 328.69788 -45.734459 2.3509886e-038
-43.018333 326.36047 -45.409233 2.3509886e-038
-38.186749 324.42923 -45.140526 2.3509886e-038
-33.395466 322.36111 -44.852772 2.3509886e-038
-28.641748 320.0607 -44.532696 2.3509886e-038
-23.982235 318.1489 -44.266689 2.3509886e-038
-19.460449 317.60446 -44.190937 2.3509886e-038
-15.052115 319.1398 -44.404568 2.3509886e-038
-10.658341 322.42612 -44.861816 2.3509886e-038
-9.7687445 323.51291 -45.013031 2.3509886e-038
-119.14012 366.95609 -56.234638 3.5733111e-043
-114.68207 363.82101 -55.7542 3.5733111e-043
-107.92358 358.42184 -54.926796 3.5733111e-043
-101.26134 352.82721 -54.069443 3.5733111e-043
-94.877892 347.67584 -53.280014 3.5733111e-043
-88.847702 343.32782 -52.613697 3.5733111e-043
-83.166023 339.90277 -52.088818 2.3509886e-038
-77.781242 337.34625 -51.697044 2.3509886e-038
-72.628624 335.52902 -51.41856 2.3509886e-038
-67.659752 334.36649 -51.240402 2.3509886e-038
-62.787018 333.54037 -51.113811 2.3509886e-038
-57.89212 332.45313 -50.947193 2.3509886e-038
-52.965405 330.97537 -50.720734 2.3509886e-038
-48.007408 328.9975 -50.417629 2.3509886e-038
-43.05917 326.67026 -50.060989 2.3509886e-038
-38.191513 324.46973 -49.723763 2.3509886e-038
-33.383789 322.24844 -49.383362 2.3509886e-038
-28.643795 320.08356 -49.051601 2.3509886e-038
-24.004313 318.44174 -48.799999 2.3509886e-038
-19.486456 318.0289 -48.736732 2.3509886e-038
-15.072108 319.56369 -48.971931 2.3509886e-038
-10.666834 322.68301 -49.449959 2.3509886e-038
-9.7715654 323.71271 -49.607754 2.3509886e-038
-115.72865 366.17139 -61.280315 2.3509886e-038
-115.28634 365.73798 -61.207779 2.3509886e-038
-107.92545 358.42801 -59.984425 3.5733111e-043
-100.92982 351.67212 -58.853798 3.5733111e-043
-94.387825 345.88 -57.884464 3.5733111e-043
-88.332169 341.33569 -57.123955 2.3509886e-038
-82.707169 338.02737 -56.570293 2.3509886e-038
-77.379379 335.6033 -56.164616 2.3509886e-038
-72.288567 333.95804 -55.889271 2.3509886e-038
-67.38678 333.01746 -55.731865 2.3509886e-038
-62.59354 332.51257 -55.647373 2.3509886e-038
-57.807285 331.96594 -55.555893 2.3509886e-038
-52.981606 331.0766 -55.407051 2.3509886e-038
-48.083534 329.51917 -55.146408 2.3509886e-038
-43.139847 327.28232 -54.772064 2.3509886e-038
-38.236183 324.84924 -54.36488 2.3509886e-038
-33.411266 322.51367 -53.97401 2.3509886e-038
-28.685869 320.55371 -53.646008 2.3509886e-038
-24.065283 319.25058 -53.427921 2.3509886e-038
-19.547371 319.02307 -53.389843 2.3509886e-038
-15.134058 320.87717 -53.700134 2.3509886e-038
-10.733268 324.69272 -54.338688 2.3509886e-038
-9.8216724 325.93909 -54.547268 2.3509886e-038
-111.69613 362.65518 -65.808182 2.3509886e-038
-107.93081 358.44583 -65.044342 3.5733111e-043
-100.71375 350.91922 -63.678555 3.5733111e-043
-94.011612 344.5014 -62.513962 3.5733111e-043
-87.870613 339.55209 -61.615852 2.3509886e-038
-82.269745 336.23959 -61.014755 2.3509886e-038
-76.99012 333.91507 -60.592937 2.3509886e-038
-71.933708 332.31866 -60.303257 2.3509886e-038
-67.062866 331.41675 -60.139591 2.3509886e-038
-62.334663 331.13736 -60.088894 2.3509886e-038
-57.670353 331.1796 -60.096558 2.3509886e-038
-52.968933 330.99744 -60.063503 2.3509886e-038
-48.15443 330.005 -59.883415 2.3509886e-038
-43.237267 328.02136 -59.52346 2.3509886e-038
-38.312622 325.49866 -59.065685 2.3509886e-038
-33.46524 323.03464 -58.618557 2.3509886e-038
-28.742527 321.18686 -58.283257 2.3509886e-038
-24.139311 320.23267 -58.110104 2.3509886e-038
-19.629475 320.36304 -58.133762 2.3509886e-038
-15.224193 322.78824 -58.573845 2.3509886e-038
-10.837374 327.84201 -59.490913 2.3509886e-038
-9.7747736 329.75076 -59.83728 2.3509886e-038
-107.21989 358.3674 -70.085945 2.3509886e-038
-100.86848 351.4584 -68.734749 3.5733111e-043
-93.98452 344.40213 -67.354752 2.3509886e-038
-87.653015 338.7113 -66.241791 2.3509886e-038
-81.96701 335.00232 -65.516434 2.3509886e-038
-76.693474 332.62848 -65.052185 2.3509886e-038
-71.663795 331.07175 -64.747726 2.3509886e-038
-66.797676 330.1062 -64.558891 2.3509886e-038
-62.073353 329.74921 -64.489075 2.3509886e-038
-57.466595 330.00949 -64.539986 2.3509886e-038
-52.858391 330.30664 -64.598099 2.3509886e-038
-48.135307 329.87399 -64.513481 2.3509886e-038
-43.277473 328.32645 -64.210823 2.3509886e-038
-38.370079 325.98685 -63.753269 2.3509886e-038
-33.518646 323.55017 -63.27673 2.3509886e-038
-28.803591 321.86923 -62.94799 2.3509886e-038
-24.225775 321.3797 -62.852257 2.3509886e-038
-19.737564 322.12711 -62.998421 2.3509886e-038
-15.348804 325.43027 -63.644424 2.3509886e-038
-10.992308 332.52893 -65.032707 2.3509886e-038
-9.3049774 336.75958 -65.860092 2.3509886e-038
-102.92351 355.91455 -74.627457 2.3509886e-038
-101.7882 354.66299 -74.365036 2.3509886e-038
-94.622391 346.73956 -72.703667 2.3509886e-038
-87.898964 339.66165 -71.219589 2.3509886e-038
-81.923859 334.82596 -70.205643 2.3509886e-038
-76.550949 332.01028 -69.615257 2.3509886e-038
-71.512199 330.37137 -69.271614 2.3509886e-038
-66.630272 329.27893 -69.042557 2.3509886e-038
-61.874249 328.6915 -68.919388 2.3509886e-038
-57.276432 328.91745 -68.966759 2.3509886e-038
-52.715645 329.41464 -69.071007 2.3509886e-038
-48.056648 329.3349 -69.054291 2.3509886e-038
-43.261765 328.20728 -68.817856 2.3509886e-038
-38.406437 326.29572 -68.417038 2.3509886e-038
-33.586685 324.20691 -67.979065 2.3509886e-038
-28.89378 322.87704 -67.700226 2.3509886e-038
-24.339655 322.89044 -67.703033 2.3509886e-038
-19.872635 324.33154 -68.005196 2.3509886e-038
-15.493985 328.50845 -68.881004 2.3509886e-038
-11.154965 337.44952 -70.755753 2.3509886e-038
-7.7601686 347.59967 -72.884018 2.3509886e-038
-99.372047 356.87555 -79.863739 2.3509886e-038
-96.279663 352.81259 -78.954514 2.3509886e-038
-88.838608 343.29266 -76.824081 2.3509886e-038
-82.29995 336.36307 -75.273346 2.3509886e-038
-76.64772 332.43002 -74.393181 2.3509886e-038
-71.499969 330.31485 -73.91983 2.3509886e-038
-66.575348 329.00748 -73.627266 2.3509886e-038
-61.809212 328.34601 -73.479233 2.3509886e-038
-57.233932 328.6734 -73.552498 2.3509886e-038
-52.697308 329.30008 -73.692741 2.3509886e-038
-48.056206 329.33191 -73.69986 2.3509886e-038
-43.288651 328.41125 -73.493828 2.3509886e-038
-38.482849 326.94489 -73.165688 2.3509886e-038
-33.711823 325.41483 -72.82328 2.3509886e-038
-29.041618 324.52908 -72.625053 2.3509886e-038
-24.488186 324.86084 -72.699303 2.3509886e-038
-20.01972 326.73203 -73.11805 2.3509886e-038
-15.622663 331.23676 -74.126137 2.3509886e-038
-11.246861 340.22946 -76.13858 2.3509886e-038
-6.6787586 352.46442 -78.876595 2.3509886e-038
-4.541832 357.36026 -79.972221 2.3509886e-038
-95.354904 357.41827 -85.027634 2.3509886e-038
-90.64415 350.26971 -83.327034 2.3509886e-038
-83.262428 340.29678 -80.954536 2.3509886e-038
-77.103569 334.40714 -79.553429 2.3509886e-038
-71.733299 331.39279 -78.836327 2.3509886e-038
-66.743935 329.84061 -78.467079 2.3509886e-038
-61.964249 329.16959 -78.307449 2.3509886e-038
-57.381836 329.52274 -78.391457 2.3509886e-038
-52.839409 330.18805 -78.549728 2.3509886e-038
-48.204685 330.34946 -78.588127 2.3509886e-038
-43.453632 329.6629 -78.424797 2.3509886e-038
-38.659424 328.44504 -78.135078 2.3509886e-038
-33.903919 327.26913 -77.855339 2.3509886e-038
-29.23661 326.70804 -77.721855 2.3509886e-038
-24.66452 327.20007 -77.838913 2.3509886e-038
-20.167215 329.13922 -78.300224 2.3509886e-038
-15.724888 333.40411 -79.314812 2.3509886e-038
-11.284666 341.37308 -81.210587 2.3509886e-038
-6.6729407 352.15735 -83.776093 2.3509886e-038
-1.7530048 362.13141 -86.148865 2.3509886e-038
-0.8217358 363.92441 -86.575401 2.3509886e-038
-89.016861 352.82736 -88.913155 2.3509886e-038
-84.729439 346.29248 -87.266365 2.3509886e-038
-77.976913 338.19489 -85.225746 2.3509886e-038
-72.309303 334.0538 -84.18219 2.3509886e-038
-67.208168 332.13483 -83.698601 2.3509886e-038
-62.372749 331.33966 -83.498215 2.3509886e-038
-57.718178 331.45422 -83.527084 2.3509886e-038
-53.118649 331.93298 -83.647736 2.3509886e-038
-48.475311 332.20404 -83.716042 2.3509886e-038
-43.753105 331.93484 -83.648209 2.3509886e-038
-38.982315 331.18829 -83.460068 2.3509886e-038
-34.2323 330.43896 -83.27124 2.3509886e-038
-29.543661 330.13922 -83.195702 2.3509886e-038
-24.924309 330.64645 -83.323532 2.3509886e-038
-20.365677 332.37823 -83.759941 2.3509886e-038
-15.853073 336.12198 -84.703369 2.3509886e-038
-11.333622 342.85406 -86.399872 2.3509886e-038
-6.6791344 352.48422 -88.826683 2.3509886e-038
-1.7587447 363.31717 -91.55661 2.3509886e-038
2.7735717 372.92905 -93.978821 2.3509886e-038
-79.153404 343.43021 -91.390144 2.3509886e-038
-73.246178 338.38202 -90.046776 2.3509886e-038
-68.028732 336.18991 -89.46344 2.3509886e-038
-63.106716 335.23868 -89.210304 2.3509886e-038
-58.265495 334.59729 -89.039627 2.3509886e-038
-53.510429 334.38116 -88.982109 2.3509886e-038
-48.815777 334.53726 -89.023659 2.3509886e-038
-44.129284 334.7887 -89.090561 2.3509886e-038
-39.424786 334.94745 -89.132797 2.3509886e-038
-34.69994 334.953 -89.134285 2.3509886e-038
-29.97616 334.97223 -89.139404 2.3509886e-038
-25.281807 335.38904 -89.25032 2.3509886e-038
-20.634403 336.76398 -89.616203 2.3509886e-038
-16.027292 339.8158 -90.428322 2.3509886e-038
-11.414715 345.30719 -91.889641 2.3509886e-038
-6.7033372 353.76151 -94.139412 2.3509886e-038
-1.7653121 364.67383 -97.043282 2.3509886e-038
3.4754031 375.0239 -99.797546 2.3509886e-038
6.3423815 379.49353 -100.98695 2.3509886e-038
-66.954285 342.26364 -95.908348 2.3509886e-038
-64.279976 341.47131 -95.686333 2.3509886e-038
-59.060928 339.16516 -95.0401 2.3509886e-038
-54.022465 337.58084 -94.596146 2.3509886e-038
-49.228035 337.36249 -94.534966 2.3509886e-038
-44.556622 338.03076 -94.722229 2.3509886e-038
-39.919933 339.15414 -95.037018 2.3509886e-038
-35.220459 339.97751 -95.267738 2.3509886e-038
-30.452503 340.2952 -95.356766 2.3509886e-038
-25.67119 340.5546 -95.429451 2.3509886e-038
-20.925589 341.5163 -95.698929 2.3509886e-038
-16.211645 343.72455 -96.317726 2.3509886e-038
-11.49931 347.8663 -97.478317 2.3509886e-038
-6.7227054 354.78366 -99.416679 2.3509886e-038
-1.7645916 364.52499 -102.14638 2.3509886e-038
3.4651654 373.91916 -104.77879 2.3509886e-038
8.9043045 380.93118 -106.74368 2.3509886e-038
9.9086552 381.98862 -107.03999 2.3509886e-038
-53.725098 341.80298 -100.60138 2.3509886e-038
-49.822941 341.43942 -100.49438 2.3509886e-038
-45.120628 342.3096 -100.75049 2.3509886e-038
-40.479294 343.9064 -101.22047 2.3509886e-038
-35.736893 344.96252 -101.53132 2.3509886e-038
-30.887976 345.16144 -101.58987 2.3509886e-038
-26.014484 345.10873 -101.57436 2.3509886e-038
-21.178844 345.64957 -101.73354 2.3509886e-038
-16.377066 347.23184 -102.19923 2.3509886e-038
-11.581009 350.33777 -103.11339 2.3509886e-038
-6.7391019 355.64893 -104.67661 2.3509886e-038
-1.7595196 363.47723 -106.98067 2.3509886e-038
3.44733 371.9946 -109.48755 2.3509886e-038
8.8680992 379.38229 -111.66193 2.3509886e-038
12.37593 383.27127 -112.80656 2.3509886e-038
-44.602322 348.9278 -107.62108 2.3509886e-038
-41.212875 350.13882 -107.9946 2.3509886e-038
-36.342285 350.8063 -108.20048 2.3509886e-038
-31.345434 350.27338 -108.03611 2.3509886e-038
-26.354652 349.62143 -107.83501 2.3509886e-038
-21.425194 349.67007 -107.85003 2.3509886e-038
-16.542849 350.7468 -108.18211 2.3509886e-038
-11.670574 353.04721 -108.89165 2.3509886e-038
-6.763166 356.91891 -110.08581 2.3509886e-038
-1.7560529 362.76108 -111.88774 2.3509886e-038
3.4298356 370.10678 -114.1534 2.3509886e-038
8.8249512 377.53638 -116.44494 2.3509886e-038
12.846098 382.3956 -117.94368 2.3509886e-038
-39.093983 358.64072 -115.67654 2.3509886e-038
-37.088985 358.0141 -115.47443 2.3509886e-038
-31.872292 356.1608 -114.87666 2.3509886e-038
-26.747324 354.83063 -114.44762 2.3509886e-038
-21.70315 354.20648 -114.24631 2.3509886e-038
-16.722872 354.56369 -114.36153 2.3509886e-038
-11.769649 356.04431 -114.83909 2.3509886e-038
-6.7982683 358.77139 -115.71868 2.3509886e-038
-1.7571931 362.99664 -117.0815 2.3509886e-038
3.4176402 368.7908 -118.95036 2.3509886e-038
8.7738333 375.34952 -121.06583 2.3509886e-038
11.260141 378.52155 -122.08892 2.3509886e-038
-32.081223 362.68469 -122.09765 2.3509886e-038
-27.193285 360.74673 -121.44523 2.3509886e-038
-22.006395 359.15561 -120.90958 2.3509886e-038
-16.905308 358.43179 -120.66591 2.3509886e-038
-11.867602 359.00754 -120.85973 2.3509886e-038
-6.837985 360.8674 -121.48586 2.3509886e-038
-1.7615324 363.89304 -122.50443 2.3509886e-038
3.4118555 368.1666 -123.94313 2.3509886e-038
7.747138 372.43839 -125.38122 2.3509886e-038
-24.052895 364.9238 -127.99974 2.3509886e-038
-22.300945 363.9628 -127.66266 2.3509886e-038
-17.077133 362.07489 -127.00047 2.3509886e-038
-11.959353 361.78308 -126.89811 2.3509886e-038
-6.8751569 362.82913 -127.26502 2.3509886e-038
-1.7659638 364.80844 -127.95928 2.3509886e-038
2.6118846 367.37259 -128.85867 2.3509886e-038
-13.853512 364.67258 -133.05643 2.3509886e-038
-12.047999 364.46472 -132.98061 2.3509886e-038
-6.9118152 364.7637 -133.08969 2.3509886e-038
-5.7954302 364.95679 -133.16014 2.3509886e-038
-142.01808 368.15579 -16.182459 3.5733111e-043
-142.33348 368.97342 -27.677679 3.5733111e-043
-136.17561 366.41074 -14.27002 3.5733111e-043
-136.16132 366.37225 -35.305065 3.5733111e-043
-130.10849 363.89966 -15.087764 3.5733111e-043
-131.62239 368.13388 -41.685448 3.5733111e-043
-124.51481 362.56082 -17.701797 3.5733111e-043
-125.82201 366.36707 -47.267273 3.5733111e-043
-119.21425 361.99731 -21.855122 3.5733111e-043
-120.68782 366.47183 -53.70248 3.5733111e-043
-111.32097 353.15814 72.519958 2.3509528e-038
-111.36232 353.28934 44.150124 2.3509528e-038
-113.15083 358.96326 -26.98917 3.5733111e-043
-115.34181 365.914 -61.773388 2.3509886e-038
-106.02005 352.10004 70.24894 2.3509528e-038
-105.04958 348.87704 25.801441 2.3509528e-038
-107.62727 357.43777 -31.701904 3.5733111e-043
-108.15137 359.17831 -69.210136 2.3509886e-038
-100.52396 350.25797 60.447983 2.3509528e-038
-100.67535 350.78543 11.204008 2.3509528e-038
-102.83096 358.2963 -33.901604 3.5733111e-043
-102.12534 355.83771 -75.647507 2.3509886e-038
-94.120361 344.8999 47.726246 2.3509886e-038
-97.575691 357.56183 -82.513763 2.3509886e-038
-88.990334 343.87897 36.674061 2.3509886e-038
-92.001579 355.51514 -87.533531 2.3509886e-038
-84.7211 346.25842 23.074667 2.3509886e-038
-85.441216 349.20157 -90.015923 2.3509886e-038
-79.31443 343.99588 16.409702 2.3509886e-038
-79.190178 343.45697 -91.382118 2.3509886e-038
-73.639664 340.1998 15.160227 2.3509886e-038
-73.802361 340.95145 -92.744354 2.3509886e-038
-68.679489 339.40588 89.323647 2.3418052e-038
-69.078003 341.37534 -94.727623 2.3509886e-038
-63.980034 339.87799 87.831093 2.3418052e-038
-64.592201 343.13 -97.178612 2.3509886e-038
-59.624214 342.3999 64.956718 2.3418052e-038
-59.668068 342.65173 -98.892754 2.3509886e-038
-53.676674 335.42001 32.168453 2.3418052e-038
-54.690353 341.75439 -100.27689 2.3509886e-038
-48.400997 331.69479 32.294125 2.3418409e-038
-50.038555 342.91702 -102.27541 2.3509886e-038
-42.778721 324.5426 47.208969 2.3418409e-038
-45.743668 347.03632 -106.09357 2.3509886e-038
-38.152256 324.1362 65.999474 2.3418409e-038
-41.732513 354.55359 -112.03741 2.3509886e-038
-33.783596 326.10767 79.471519 2.3418409e-038
-37.323719 360.27994 -117.62158 2.3509886e-038
-29.233957 326.67841 76.812294 2.3418409e-038
-29.350706 327.98303 53.310871 2.3418409e-038
-29.608936 330.86865 12.778417 2.3509886e-038
-32.444645 362.55661 -121.81654 2.3509886e-038
-24.313311 322.54092 10.52181 9.1476764e-041
-27.466419 364.37018 -125.65838 2.3509886e-038
-19.336824 315.58682 12.786403 9.1476764e-041
-22.358522 364.90247 -129.02731 2.3509886e-038
-14.582903 309.19141 17.205986 9.1476764e-041
-17.19198 364.50989 -131.66248 2.3509886e-038
-10.22208 309.22876 22.673309 9.1476764e-041
-10.686213 323.26923 -15.56852 2.3509886e-038
-10.622057 321.32846 -28.047239 2.3509886e-038
-12.058997 364.79745 -133.4747 2.3509886e-038
-5.8138261 306.81848 28.401052 9.1476764e-041
-6.0819125 320.96649 1.7643274 9.1476764e-041
-6.6696053 351.98135 -75.7659 2.3509886e-038
-6.9152417 364.94455 -133.40234 2.3509886e-038
-1.4713317 303.94409 35.472069 9.1476764e-041
-1.5415585 318.45139 11.655886 9.1476764e-041
-1.7530215 362.13489 -84.839554 2.3509886e-038
-1.7686436 365.36206 -131.43265 2.3509886e-038
2.8383527 306.28104 41.79554 9.1476764e-041
2.9491489 318.23682 20.035496 2.3509886e-038
3.4716806 374.62219 -95.439659 2.3509886e-038
3.4098427 367.9494 -128.34373 2.3509886e-038
7.222929 309.00098 45.12326 9.1476764e-041
7.2692323 310.98184 26.774263 9.1476764e-041
8.915802 381.423 -105.30656 2.3509886e-038
8.7394552 373.87885 -124.57839 2.3509886e-038
11.711871 312.4584 45.429203 9.1476764e-041
11.621017 310.03452 35.771114 9.1476764e-041
