# .PCD v0.7 - Point Cloud Data file format
VERSION 0.7
FIELDS x y z rgb
SIZE 4 4 4 4
TYPE F F F F
COUNT 1 1 1 1
WIDTH 897
HEIGHT 1
VIEWPOINT 0 0 0 1 0 0 0
POINTS 897
DATA ascii
-101.51316 342.12677 85.399963 2.3418052e-038
-23.195456 328.33478 46.390911 9.1476764e-041
-169.89433 334.01071 -22.02334 3.5733111e-043
-140.55791 335.32855 63.172096 2.3509528e-038
-73.727806 340.31317 75.330589 2.3418409e-038
-106.76605 341.50336 88.098633 2.3418052e-038
-103.38859 341.64502 88.135178 2.3418052e-038
-98.705093 341.55307 88.11145 2.3418052e-038
-108.15887 341.59845 83.216522 2.3418052e-038
-103.28592 341.30576 83.145226 2.3418052e-038
-98.174629 340.58124 82.968727 2.3418052e-038
-96.816864 340.50916 82.951164 2.3418052e-038
-77.14061 341.92349 83.295708 2.3418409e-038
-73.920738 341.53394 83.200813 2.3418409e-038
-70.975014 341.45404 83.181343 2.3418409e-038
-108.11843 341.3989 78.264145 2.3418052e-038
-103.06913 340.58939 78.078568 2.3418052e-038
-98.114204 340.37161 78.028641 2.3418052e-038
-95.766838 340.90405 78.150703 2.3418052e-038
-78.997192 340.34656 78.022896 2.3418409e-038
-78.541229 340.29822 78.011818 2.3418409e-038
-73.579338 339.95657 77.933495 2.3418409e-038
-68.751106 340.22784 77.995689 2.3418409e-038
-68.190483 340.5455 78.068512 2.3418409e-038
-107.2855 341.08151 73.292191 2.3418052e-038
-102.97427 340.27591 73.11908 2.3418052e-038
-98.103256 340.33362 73.131477 2.3418052e-038
-94.762779 341.3497 73.349815 2.3418052e-038
-78.881073 339.89734 73.037735 2.3418409e-038
-78.440567 339.86209 73.030159 2.3418409e-038
-73.442017 339.32211 72.914131 2.3418409e-038
-68.472946 338.85129 72.812958 2.3418409e-038
-67.33812 339.38513 72.927666 2.3418409e-038
-144.89641 334.08929 66.990913 2.3509528e-038
-144.35988 334.24872 67.022881 2.3509528e-038
-140.14317 335.64832 67.303528 2.3509528e-038
-136.80199 337.31213 67.637154 2.3509528e-038
-106.29095 340.76532 68.329582 2.3418052e-038
-103.02886 340.45633 68.267624 2.3418052e-038
-98.176323 340.5871 68.293846 2.3418052e-038
-93.543747 341.28299 68.43338 2.3418052e-038
-78.45388 339.7218 68.120338 2.3418409e-038
-78.407852 339.72034 68.120041 2.3418409e-038
-73.381592 339.04294 67.984207 2.3418409e-038
-68.277802 337.88559 67.752136 2.3418409e-038
-67.00338 338.26743 67.828705 2.3418409e-038
-144.98253 333.23315 62.032768 2.3509528e-038
-144.04164 333.51193 62.08466 2.3509528e-038
-139.9444 335.17227 62.393742 2.3509528e-038
-135.85452 336.96918 62.728241 2.3509528e-038
-134.08644 338.16928 62.951645 2.3509528e-038
-105.57386 340.66858 63.416904 2.3418052e-038
-103.09945 340.68961 63.420818 2.3418052e-038
-98.243858 340.82138 63.445343 2.3418052e-038
-93.377769 340.92865 63.465313 2.3418052e-038
-92.220467 340.88828 63.457794 2.3418052e-038
-78.233978 338.97119 63.100925 2.3418409e-038
-73.279778 338.57251 63.026711 2.3418409e-038
-68.217628 337.5878 62.843403 2.3418409e-038
-66.875107 338.02655 62.925079 2.3418409e-038
-143.92012 333.02957 57.211323 2.3509528e-038
-143.84067 333.0466 57.214249 2.3509528e-038
-139.70303 334.59418 57.48011 2.3509528e-038
-135.62416 336.39777 57.789948 2.3509528e-038
-131.87862 338.87759 58.215958 2.3509528e-038
-105.18239 340.72495 58.533318 2.3418052e-038
-103.06027 340.56015 58.505005 2.3418052e-038
-98.054474 340.1644 58.437019 2.3418052e-038
-93.102356 339.92313 58.395573 2.3418052e-038
-90.72168 339.70032 58.357296 2.3418052e-038
-78.376793 337.54086 57.986324 2.3418409e-038
-77.908722 337.55774 57.98922 2.3418409e-038
-73.041573 337.47192 57.97448 2.3418409e-038
-68.139061 337.19901 57.927593 2.3418409e-038
-66.624802 337.91583 58.050739 2.3418409e-038
-142.63416 333.40613 52.487049 2.3509528e-038
-139.53307 334.1871 52.609997 2.3509528e-038
-135.38452 335.80334 52.864441 2.3509528e-038
-131.42569 338.02701 53.2145 2.3509528e-038
-129.89688 339.92139 53.512726 2.3509528e-038
-105.01845 340.78305 53.64838 2.3418052e-038
-102.92652 340.11813 53.543701 2.3418052e-038
-97.677223 338.85565 53.344955 2.3418052e-038
-92.726471 338.55072 53.296947 2.3418052e-038
-89.283318 338.39099 53.271805 2.3418052e-038
-78.860176 336.27649 52.938923 2.3418409e-038
-77.591591 336.18369 52.924316 2.3418409e-038
-72.731796 336.04068 52.901802 2.3418409e-038
-67.969002 336.35745 52.951668 2.3418409e-038
-66.027176 337.42822 53.120235 2.3418409e-038
-23.8508 326.53735 51.40572 9.1476764e-041
-23.770498 326.51736 51.402576 9.1476764e-041
-20.784849 325.82138 51.293007 9.1476764e-041
-141.50911 334.25757 47.819897 2.3509528e-038
-139.56461 334.26263 47.820625 2.3509528e-038
-135.15479 335.23355 47.959526 2.3509528e-038
-131.01031 336.95862 48.206318 2.3509528e-038
-127.29272 339.62732 48.588112 2.3509528e-038
-104.75828 340.14221 48.661777 2.3509886e-038
-102.65857 339.23273 48.531658 2.3418052e-038
-97.319679 337.6153 48.300262 2.3418052e-038
-92.486099 337.6731 48.308533 2.3418052e-038
-88.16198 337.90729 48.342037 2.3418052e-038
-79.656563 335.75717 48.034435 2.3418409e-038
-77.370415 335.22537 47.958355 2.3418409e-038
-72.468147 334.82257 47.90073 2.3418409e-038
-67.850174 335.76938 48.036182 2.3418409e-038
-65.34967 337.51877 48.286457 2.3418409e-038
-28.531511 325.39987 46.552692 9.1476764e-041
-28.363001 325.3988 46.552536 9.1476764e-041
-23.704165 325.6062 46.582207 9.1476764e-041
-19.048862 325.97644 46.635174 9.1476764e-041
-19.042809 325.97748 46.635323 9.1476764e-041
-140.14069 334.35757 43.031586 2.3509528e-038
-139.57129 334.27866 43.021431 2.3509528e-038
-134.9437 334.70993 43.076935 2.3509528e-038
-130.63751 335.99979 43.242939 2.3509528e-038
-126.49761 337.83273 43.478836 2.3509528e-038
-124.4359 339.05771 43.63649 2.3509528e-038
-104.2591 338.75116 43.597038 2.3509886e-038
-102.30986 338.08041 43.510712 2.3509886e-038
-97.123619 336.93509 43.363316 2.3418052e-038
-92.445389 337.52448 43.439163 2.3418052e-038
-87.720924 338.00085 43.500477 2.3418052e-038
-86.308434 337.71362 43.463509 2.3418052e-038
-81.547119 336.04013 43.248131 2.3418052e-038
-77.190804 334.44717 43.043118 2.3418409e-038
-72.243454 333.78439 42.957821 2.3418409e-038
-67.735992 335.20438 43.140568 2.3418409e-038
-65.071846 337.74454 43.467484 2.3418409e-038
-31.274345 325.52295 41.894577 9.1476764e-041
-28.373428 325.51843 41.893997 9.1476764e-041
-23.755989 326.31808 41.99691 9.1476764e-041
-19.524233 327.63593 42.166512 9.1476764e-041
-138.38654 333.75702 38.160294 2.3509528e-038
-134.75208 334.23468 38.214912 2.3509528e-038
-130.438 335.48666 38.358055 2.3509528e-038
-126.21002 337.06467 38.538475 2.3509528e-038
-122.13377 339.18997 38.781475 2.3509528e-038
-122.05992 339.24216 38.787445 2.3509528e-038
-103.60077 337.48706 38.586773 2.3509886e-038
-102.05946 337.25296 38.560005 2.3509886e-038
-97.123451 336.93454 38.523598 2.3418052e-038
-92.513512 337.77316 38.619484 2.3418052e-038
-87.701317 337.92532 38.636879 2.3418052e-038
-82.333023 335.82709 38.396976 2.3418409e-038
-77.011345 333.66965 38.150303 2.3418409e-038
-72.070602 332.98578 38.072117 2.3418409e-038
-67.582458 334.44458 38.238911 2.3418409e-038
-65.218788 337.00385 38.531525 2.3418409e-038
-33.742603 325.86594 37.258064 9.1476764e-041
-33.069538 325.71991 37.241371 9.1476764e-041
-28.433636 326.2092 37.29731 9.1476764e-041
-23.853268 327.65433 37.46254 9.1476764e-041
-21.019594 329.19119 37.63826 9.1476764e-041
-136.74695 333.84067 33.374657 2.3509528e-038
-134.6666 334.02264 33.392845 2.3509528e-038
-130.25899 335.02625 33.493179 2.3509528e-038
-125.92905 336.31433 33.621952 2.3509528e-038
-121.71379 338.02356 33.792828 2.3509528e-038
-119.83884 338.98608 33.889053 2.3509528e-038
-102.9305 337.26962 33.717453 2.3509886e-038
-102.058 337.24814 33.715309 2.3509886e-038
-97.291222 337.51657 33.742142 2.3418052e-038
-92.677834 338.37314 33.827774 2.3418052e-038
-87.718307 337.99078 33.789551 2.3418052e-038
-82.246727 335.4751 33.538052 2.3418409e-038
-76.979004 333.52951 33.343548 2.3418409e-038
-72.181427 333.49783 33.340378 2.3418409e-038
-67.754845 335.29764 33.520309 2.3418409e-038
-65.887138 337.27258 33.717751 2.3418409e-038
-36.197525 324.77054 32.467899 9.1476764e-041
-32.978928 324.82739 32.473583 9.1476764e-041
-28.429951 326.1669 32.607494 9.1476764e-041
-23.909075 328.4209 32.832832 9.1476764e-041
-23.037138 329.07336 32.89806 9.1476764e-041
-135.11554 334.1698 28.607641 2.3509528e-038
-134.71799 334.15015 28.605957 2.3509528e-038
-130.19228 334.85468 28.666269 2.3509528e-038
-125.78603 335.93237 28.758532 2.3509528e-038
-121.46355 337.32861 28.878059 2.3509528e-038
-117.73215 338.8598 29.009142 2.3509886e-038
-102.38143 337.68646 28.908693 2.3509886e-038
-102.18736 337.6756 28.907764 2.3509886e-038
-97.433311 338.00952 28.93635 2.3509886e-038
-92.841866 338.97205 29.018751 2.3418052e-038
-87.845139 338.47949 28.976583 2.3418052e-038
-82.331726 335.82178 28.749062 2.3418409e-038
-77.080147 333.96771 28.59034 2.3418409e-038
-72.38324 334.43024 28.629936 2.3418409e-038
-68.043144 336.72433 28.82633 2.3418409e-038
-66.530304 338.27664 28.959221 2.3418409e-038
-38.927399 324.40521 27.771713 9.1476764e-041
-37.593014 324.38184 27.769711 9.1476764e-041
-33.00309 325.0654 27.82823 9.1476764e-041
-28.468077 326.60431 27.959972 9.1476764e-041
-25.107471 328.79227 28.14728 9.1476764e-041
-133.38071 334.39041 23.823425 2.3509528e-038
-130.22801 334.94656 23.863049 2.3509528e-038
-125.80476 335.98239 23.936846 2.3509528e-038
-121.37164 337.07336 24.01457 2.3509528e-038
-117.05338 338.58725 24.122427 2.3509528e-038
-115.48418 339.07571 24.157227 2.3509886e-038
-102.2173 337.88196 24.072178 2.3509886e-038
-97.363113 337.76596 24.063915 2.3509886e-038
-92.730751 338.56638 24.120937 2.3509886e-038
-87.770905 338.19345 24.094372 2.3509886e-038
-82.341583 335.86197 23.928267 2.3509886e-038
-77.124245 334.15881 23.806927 2.3418409e-038
-72.4198 334.59918 23.838299 2.3418409e-038
-68.118927 337.0994 24.016424 2.3418409e-038
-66.48143 338.80789 24.138145 2.3418409e-038
-42.078114 325.55963 23.194281 9.1476764e-041
-37.757851 325.80417 23.211704 9.1476764e-041
-33.203106 327.03549 23.299429 9.1476764e-041
-28.659969 328.80585 23.425556 9.1476764e-041
-27.285488 330.02475 23.512398 9.1476764e-041
-131.65958 334.85483 19.046741 2.3509528e-038
-130.26904 335.05206 19.057959 2.3509528e-038
-125.79818 335.96481 19.109875 2.3509528e-038
-121.2447 336.72083 19.15288 2.3509528e-038
-116.75912 337.73611 19.210629 2.3509528e-038
-112.24594 338.75607 19.268644 2.3509886e-038
-111.9718 338.79697 19.270971 2.3509886e-038
-103.48496 337.6377 19.205032 2.3509886e-038
-102.05786 337.24768 19.182846 2.3509886e-038
-97.00869 336.53644 19.142391 2.3509886e-038
-92.205139 336.64731 19.148697 2.3509886e-038
-87.251633 336.19263 19.122835 2.3509886e-038
-82.029892 334.59064 19.031713 2.3509886e-038
-76.962517 333.45807 18.967291 2.3509886e-038
-72.229942 333.72198 18.982304 2.3418409e-038
-67.873665 335.88565 19.105373 2.3418409e-038
-65.412148 338.05969 19.229034 2.3418409e-038
-45.870232 327.8779 18.649889 9.1476764e-041
-42.617767 327.18713 18.610596 9.1476764e-041
-38.029213 328.14569 18.665119 9.1476764e-041
-33.51601 330.11746 18.777275 9.1476764e-041
-29.653553 332.1926 18.895311 9.1476764e-041
-129.75606 335.27985 14.255052 2.3509528e-038
-125.64051 335.5437 14.26627 2.3509528e-038
-120.91078 335.79346 14.276889 2.3509528e-038
-116.16989 336.03171 14.287018 2.3509528e-038
-111.46884 336.41083 14.303138 2.3509886e-038
-106.62202 336.36447 14.301167 2.3509886e-038
-101.52294 335.48007 14.263565 2.3509886e-038
-96.473999 334.68152 14.229612 2.3509886e-038
-91.575165 334.34726 14.215401 2.3509886e-038
-86.651566 333.88049 14.195555 2.3509886e-038
-81.617546 332.90875 14.154241 2.3509886e-038
-76.695389 332.30069 14.128387 2.3509886e-038
-71.962738 332.4874 14.136326 2.3509886e-038
-67.45536 333.81558 14.192796 2.3509886e-038
-62.991783 335.58038 14.267829 2.3509886e-038
-62.63139 335.6712 14.271691 2.3509886e-038
-51.13657 331.25827 14.084066 9.1476764e-041
-47.63121 329.35709 14.003235 9.1476764e-041
-42.846497 328.94315 13.985635 9.1476764e-041
-38.325493 330.70221 14.060425 9.1476764e-041
-33.860409 333.50958 14.179786 9.1476764e-041
-32.05946 334.98663 14.242585 9.1476764e-041
-127.60805 335.01978 9.4318542 2.3509528e-038
-125.37949 334.84659 9.4269772 2.3509528e-038
-120.46004 334.54166 9.4183922 2.3509528e-038
-115.55528 334.25388 9.4102907 2.3509886e-038
-110.74499 334.22626 9.4095135 2.3509886e-038
-105.95148 334.24911 9.4101572 2.3509886e-038
-101.04577 333.90323 9.4004192 2.3509886e-038
-96.084915 333.33173 9.3843307 2.3509886e-038
-91.187874 332.9332 9.3731098 2.3509886e-038
-86.297775 332.51727 9.3614006 2.3509886e-038
-81.36058 331.8606 9.3429136 2.3509886e-038
-76.497681 331.44406 9.3311863 2.3509886e-038
-71.723663 331.38284 9.3294621 2.3509886e-038
-67.013329 331.62811 9.3363686 2.3509886e-038
-62.268433 331.72681 9.3391466 2.3509886e-038
-57.380047 331.01407 9.3190804 2.3509886e-038
-52.459641 329.97116 9.2897196 9.1476764e-041
-47.645489 329.45581 9.2752113 9.1476764e-041
-43.001057 330.1297 9.2941828 9.1476764e-041
-38.497166 332.18353 9.352005 9.1476764e-041
-34.168354 335.99789 9.4593916 9.1476764e-041
-126.03049 335.21515 4.622407 2.3509528e-038
-125.46275 335.06897 4.6203909 2.3509528e-038
-120.2663 334.00363 4.6057005 2.3509886e-038
-115.2477 333.36417 4.5968828 2.3509886e-038
-110.38898 333.15182 4.593955 2.3509886e-038
-105.59437 333.1225 4.5935502 2.3509886e-038
-100.7487 332.9216 4.5907798 2.3509886e-038
-95.870682 332.58853 4.5861874 2.3509886e-038
-91.010109 332.28415 4.5819902 2.3509886e-038
-86.127373 331.86069 4.5761509 2.3509886e-038
-81.209473 331.24426 4.5676508 2.3509886e-038
-76.350693 330.80722 4.5616241 2.3509886e-038
-71.5224 330.45294 4.5567393 2.3509886e-038
-66.682678 329.99185 4.5503807 2.3509886e-038
-61.837849 329.43292 4.5426741 2.3509886e-038
-57.036499 329.03223 4.537148 2.3509886e-038
-52.31369 329.05313 4.5374365 9.1476764e-041
-47.674519 329.65656 4.5457573 9.1476764e-041
-43.087147 330.79068 4.5613956 9.1476764e-041
-38.542679 332.57626 4.5860186 9.1476764e-041
-35.890984 334.65967 4.614747 9.1476764e-041
-125.38853 336.59909 -0.19332287 2.3509886e-038
-120.50782 334.67435 -0.19221741 2.3509886e-038
-115.29725 333.50751 -0.19154724 2.3509886e-038
-110.32124 332.94742 -0.19122556 2.3509886e-038
-105.42296 332.58173 -0.19101553 2.3509886e-038
-100.54259 332.24051 -0.19081956 2.3509886e-038
-95.706154 332.01776 -0.19069162 2.3509886e-038
-90.87326 331.78455 -0.19055767 2.3509886e-038
-85.980766 331.29578 -0.19027697 2.3509886e-038
-81.050049 330.59396 -0.18987389 2.3509886e-038
-76.188843 330.10593 -0.18959357 2.3509886e-038
-71.351212 329.66202 -0.18933862 2.3509886e-038
-66.522423 329.19876 -0.18907253 2.3509886e-038
-61.736679 328.89398 -0.18889751 2.3509886e-038
-57.020138 328.93784 -0.18892269 2.3509886e-038
-52.350216 329.28287 -0.18912087 9.1476764e-041
-47.736626 330.08603 -0.18958215 9.1476764e-041
-43.142811 331.21802 -0.19023228 9.1476764e-041
-38.556725 332.69748 -0.19108202 9.1476764e-041
-37.425194 333.33994 -0.191451 9.1476764e-041
-125.1619 338.06671 -5.0500717 2.3509886e-038
-120.83954 335.59561 -5.0131583 2.3509886e-038
-115.41916 333.86014 -4.9872336 2.3509886e-038
-110.33801 332.99799 -4.9743547 2.3509886e-038
-105.34937 332.34958 -4.9646688 2.3509886e-038
-100.41544 331.82034 -4.9567633 2.3509886e-038
-95.583702 331.59296 -4.9533663 2.3509886e-038
-90.786552 331.46796 -4.951499 2.3509886e-038
-85.917824 331.05325 -4.9453044 2.3509886e-038
-80.978294 330.3013 -4.9340715 2.3509886e-038
-76.096275 329.7049 -4.9251618 2.3509886e-038
-71.266357 329.26999 -4.9186654 2.3509886e-038
-66.5009 329.09225 -4.9160109 2.3509886e-038
-61.810612 329.28784 -4.9189324 2.3509886e-038
-57.15451 329.71298 -4.925283 2.3509886e-038
-52.472267 330.0506 -4.9303265 2.3509886e-038
-47.810139 330.59433 -4.9384489 9.1476764e-041
-43.194607 331.61566 -4.9537053 9.1476764e-041
-38.777893 333.24777 -4.9780865 9.1476764e-041
-124.4727 337.92416 -9.9018011 2.3509886e-038
-120.87412 335.69165 -9.8363848 2.3509886e-038
-115.45174 333.95438 -9.7854786 2.3509886e-038
-110.36707 333.08569 -9.760025 2.3509886e-038
-105.33561 332.30618 -9.7371845 2.3509886e-038
-100.33945 331.56921 -9.7155895 2.3509886e-038
-95.508278 331.33127 -9.7086182 2.3509886e-038
-90.792488 331.48959 -9.7132568 2.3509886e-038
-86.017906 331.4389 -9.711771 2.3509886e-038
-81.109207 330.8353 -9.6940832 2.3509886e-038
-76.196419 330.13876 -9.6736746 2.3509886e-038
-71.354996 329.67947 -9.6602163 2.3509886e-038
-66.622475 329.69391 -9.6606398 2.3509886e-038
-61.976814 330.17325 -9.6746855 2.3509886e-038
-57.337315 330.76755 -9.6920986 2.3509886e-038
-52.643288 331.12631 -9.7026119 2.3509886e-038
-47.955864 331.60199 -9.7165499 2.3509886e-038
-43.354996 332.84698 -9.7530308 9.1476764e-041
-39.714539 334.82883 -9.8111029 9.1476764e-041
-123.93567 337.7139 -14.746466 3.5733111e-043
-120.90122 335.76691 -14.66145 3.5733111e-043
-115.44489 333.93454 -14.581438 2.3509886e-038
-110.35001 333.03421 -14.542125 2.3509886e-038
-105.31728 332.24832 -14.507809 2.3509886e-038
-100.30807 331.46555 -14.473628 2.3509886e-038
-95.498779 331.29831 -14.466326 2.3509886e-038
-90.854492 331.716 -14.484565 2.3509886e-038
-86.159576 331.9848 -14.496302 2.3509886e-038
-81.288628 331.56711 -14.478064 2.3509886e-038
-76.370377 330.89249 -14.448605 2.3509886e-038
-71.529213 330.48438 -14.430785 2.3509886e-038
-66.796005 330.55267 -14.433766 2.3509886e-038
-62.127598 330.97653 -14.452276 2.3509886e-038
-57.459042 331.46979 -14.473813 2.3509886e-038
-52.760197 331.86163 -14.490924 2.3509886e-038
-48.083641 332.48553 -14.518166 2.3509886e-038
-43.513489 334.06381 -14.587082 2.3509886e-038
-39.9688 336.55649 -14.695928 2.3509886e-038
-178.99107 334.2691 -19.397417 3.5733111e-043
-177.77763 333.89252 -19.375565 3.5733111e-043
-172.98083 333.89084 -19.375465 3.5733111e-043
-168.88376 335.2782 -19.455975 3.5733111e-043
-164.61172 336.38956 -19.520468 3.5733111e-043
-161.16525 337.01312 -19.55665 3.5733111e-043
-124.18081 338.26544 -19.629322 3.5733111e-043
-121.02657 336.11502 -19.504536 3.5733111e-043
-115.43404 333.9032 -19.376184 3.5733111e-043
-110.28461 332.83679 -19.314302 2.3509886e-038
-105.28531 332.14749 -19.274302 2.3509886e-038
-100.33945 331.56921 -19.240744 2.3509886e-038
-95.56852 331.54028 -19.239067 2.3509886e-038
-90.928757 331.98715 -19.264996 2.3509886e-038
-86.228745 332.25128 -19.280323 2.3509886e-038
-81.368629 331.89343 -19.25956 2.3509886e-038
-76.478958 331.36295 -19.228775 2.3509886e-038
-71.664787 331.11081 -19.214144 2.3509886e-038
-66.919167 331.16214 -19.217125 2.3509886e-038
-62.194298 331.33188 -19.226973 2.3509886e-038
-57.470016 331.53308 -19.238647 2.3509886e-038
-52.751865 331.80927 -19.254673 2.3509886e-038
-48.097614 332.58215 -19.299524 2.3509886e-038
-43.563648 334.44888 -19.40785 2.3509886e-038
-39.618767 337.4592 -19.582539 2.3509886e-038
-178.35527 332.75067 -24.088839 3.5733111e-043
-176.94046 332.32019 -24.057674 3.5733111e-043
-172.09988 332.19043 -24.048283 3.5733111e-043
-168.03546 333.59412 -24.149899 3.5733111e-043
-164.00703 335.15387 -24.262814 3.5733111e-043
-159.69427 336.20923 -24.339216 3.5733111e-043
-155.58253 337.76685 -24.451977 3.5733111e-043
-153.62733 339.01547 -24.54237 3.5733111e-043
-124.96328 338.08743 -24.475183 3.5733111e-043
-120.87361 335.69022 -24.301643 3.5733111e-043
-115.37042 333.71918 -24.158951 3.5733111e-043
-110.25171 332.73755 -24.087889 2.3509886e-038
-105.3132 332.23547 -24.051544 2.3509886e-038
-100.45164 331.93997 -24.030149 2.3509886e-038
-95.707512 332.02246 -24.036123 2.3509886e-038
-91.02256 332.32962 -24.058359 2.3509886e-038
-86.270119 332.41071 -24.064228 2.3509886e-038
-81.408012 332.05405 -24.038408 2.3509886e-038
-76.545624 331.65179 -24.009289 2.3509886e-038
-71.738838 331.45297 -23.994894 2.3509886e-038
-66.970085 331.41412 -23.992085 2.3509886e-038
-62.202835 331.37735 -23.98942 2.3509886e-038
-57.426483 331.28192 -23.982512 2.3509886e-038
-52.667614 331.2793 -23.982323 2.3509886e-038
-48.03503 332.14938 -24.045311 2.3509886e-038
-43.569279 334.4921 -24.214905 2.3509886e-038
-39.198002 338.2309 -24.485569 2.3509886e-038
-38.819775 338.61264 -24.513205 2.3509886e-038
-174.65678 331.60696 -28.769148 3.5733111e-043
-171.81123 331.63327 -28.771433 3.5733111e-043
-167.65895 332.84668 -28.876703 3.5733111e-043
-163.57594 334.27292 -29.000441 3.5733111e-043
-159.23105 335.23401 -29.083822 3.5733111e-043
-154.96812 336.43298 -29.187841 3.5733111e-043
-150.81714 337.96005 -29.320324 3.5733111e-043
-146.70473 339.67798 -29.469368 3.5733111e-043
-145.74782 340.12708 -29.508327 3.5733111e-043
-127.23283 337.97754 -29.32184 3.5733111e-043
-126.38763 337.53903 -29.283796 3.5733111e-043
-120.65501 335.08316 -29.070734 3.5733111e-043
-115.34991 333.65982 -28.94725 3.5733111e-043
-110.31807 332.93781 -28.884609 2.3509886e-038
-105.43038 332.60516 -28.855751 2.3509886e-038
-100.62318 332.50681 -28.847218 2.3509886e-038
-95.884636 332.63693 -28.858505 2.3509886e-038
-91.152458 332.80389 -28.872993 2.3509886e-038
-86.359253 332.75415 -28.868677 2.3509886e-038
-81.500702 332.43213 -28.840738 2.3509886e-038
-76.641975 332.06924 -28.809258 2.3509886e-038
-71.798355 331.72794 -28.779644 2.3509886e-038
-66.996468 331.54471 -28.763748 2.3509886e-038
-62.222435 331.48178 -28.758289 2.3509886e-038
-57.419067 331.23917 -28.737242 2.3509886e-038
-52.620914 330.98557 -28.71524 2.3509886e-038
-47.99176 331.85019 -28.790253 2.3509886e-038
-43.580097 334.57513 -29.026659 2.3509886e-038
-39.276127 338.90503 -29.402308 2.3509886e-038
-37.838081 340.71066 -29.558958 2.3509886e-038
-169.12111 332.28159 -33.600502 3.5733111e-043
-167.52902 332.58871 -33.631557 3.5733111e-043
-163.22244 333.55054 -33.728821 3.5733111e-043
-158.77818 334.28055 -33.802635 3.5733111e-043
-154.35457 335.10098 -33.885597 3.5733111e-043
-149.95508 336.02835 -33.979374 3.5733111e-043
-145.53479 336.96912 -34.074505 3.5733111e-043
-141.07629 337.88318 -34.166935 3.5733111e-043
-136.36371 338.23212 -34.202221 3.5733111e-043
-131.25566 337.58969 -34.137257 3.5733111e-043
-125.87169 336.1611 -33.992802 3.5733111e-043
-120.51122 334.68381 -33.843414 3.5733111e-043
-115.36848 333.71356 -33.745304 3.5733111e-043
-110.41094 333.21811 -33.695202 2.3509886e-038
-105.56848 333.04083 -33.677277 2.3509886e-038
-100.8034 333.10236 -33.683498 2.3509886e-038
-96.074654 333.29611 -33.703091 2.3509886e-038
-91.334923 333.47006 -33.72068 2.3509886e-038
-86.54409 333.46634 -33.720303 2.3509886e-038
-81.697151 333.23343 -33.696747 2.3509886e-038
-76.82505 332.86246 -33.659237 2.3509886e-038
-71.934212 332.35562 -33.607986 2.3509886e-038
-67.091415 332.01453 -33.573498 2.3509886e-038
-62.300903 331.89978 -33.561893 2.3509886e-038
-57.476799 331.5722 -33.528767 2.3509886e-038
-52.655922 331.20575 -33.491711 2.3509886e-038
-48.003971 331.93463 -33.565418 2.3509886e-038
-43.566479 334.47064 -33.821857 2.3509886e-038
-39.251862 338.69565 -34.249092 2.3509886e-038
-36.993954 342.03656 -34.586929 2.3509886e-038
-162.16496 333.49292 -38.513191 2.3509886e-038
-158.51057 333.71719 -38.539089 3.5733111e-043
-153.90759 334.13062 -38.586834 3.5733111e-043
-149.30827 334.57892 -38.638607 3.5733111e-043
-144.75169 335.15598 -38.705246 3.5733111e-043
-140.21257 335.81451 -38.781296 3.5733111e-043
-135.49292 336.07224 -38.811058 3.5733111e-043
-130.58749 335.87112 -38.787834 3.5733111e-043
-125.54391 335.28571 -38.720222 3.5733111e-043
-120.41727 334.42288 -38.620583 3.5733111e-043
-115.36859 333.71387 -38.5387 3.5733111e-043
-110.45898 333.36307 -38.498188 2.3509886e-038
-105.67072 333.36334 -38.498226 2.3509886e-038
-100.95435 333.60114 -38.525684 2.3509886e-038
-96.25988 333.93869 -38.564667 2.3509886e-038
-91.552223 334.26346 -38.602169 2.3509886e-038
-86.790222 334.41473 -38.61964 2.3509886e-038
-81.957664 334.29605 -38.605934 2.3509886e-038
-77.080444 333.96902 -38.568172 2.3509886e-038
-72.163795 333.41638 -38.504349 2.3509886e-038
-67.275665 332.92633 -38.447758 2.3509886e-038
-62.435474 332.61673 -38.412003 2.3509886e-038
-57.582672 332.18298 -38.361912 2.3509886e-038
-52.756279 331.83704 -38.321957 2.3509886e-038
-48.079384 332.45609 -38.393448 2.3509886e-038
-43.568295 334.48456 -38.627705 2.3509886e-038
-39.149624 337.81348 -39.012142 2.3509886e-038
-36.554466 341.16943 -39.399704 2.3509886e-038
-155.29753 334.17639 -43.392132 2.3509886e-038
-153.81505 333.92969 -43.3601 2.3509886e-038
-148.95952 333.79739 -43.342922 3.5733111e-043
-144.3324 334.18509 -43.393261 3.5733111e-043
-139.75192 334.71127 -43.461586 3.5733111e-043
-135.03455 334.9353 -43.490673 3.5733111e-043
-130.20061 334.8761 -43.482986 3.5733111e-043
-125.28628 334.59769 -43.446835 3.5733111e-043
-120.29246 334.07626 -43.379128 3.5733111e-043
-115.31496 333.55875 -43.311932 2.3509886e-038
-110.46057 333.36789 -43.287151 2.3509886e-038
-105.72876 333.54645 -43.310337 2.3509886e-038
-101.05308 333.9274 -43.359802 2.3509886e-038
-96.404556 334.44058 -43.426437 2.3509886e-038
-91.737267 334.93906 -43.491161 2.3509886e-038
-87.00766 335.25256 -43.531868 2.3509886e-038
-82.204865 335.30432 -43.538593 2.3509886e-038
-77.347244 335.12497 -43.515301 2.3509886e-038
-72.41864 334.59381 -43.446331 2.3509886e-038
-67.487045 333.97238 -43.365643 2.3509886e-038
-62.595627 333.46991 -43.300392 2.3509886e-038
-57.715065 332.94672 -43.232464 2.3509886e-038
-52.895824 332.71475 -43.202343 2.3509886e-038
-48.22607 333.47037 -43.300457 2.3509886e-038
-43.683422 335.36841 -43.546913 2.3509886e-038
-39.172237 338.00858 -43.889736 2.3509886e-038
-36.867115 340.00601 -44.149097 2.3509886e-038
-149.22781 333.74744 -48.130314 2.3509886e-038
-148.9088 333.68372 -48.121124 2.3509886e-038
-144.10393 333.65613 -48.117146 2.3509886e-038
-139.48517 334.07236 -48.17717 2.3509886e-038
-134.75325 334.23761 -48.201004 2.3509886e-038
-129.93414 334.19073 -48.194241 2.3509886e-038
-125.05442 333.97845 -48.163628 2.3509886e-038
-120.11039 333.57062 -48.104816 2.3509886e-038
-115.20289 333.23456 -48.056351 2.3509886e-038
-110.40885 333.21179 -48.053062 2.3509886e-038
-105.71065 333.48932 -48.09309 2.3509886e-038
-101.05418 333.93103 -48.156792 2.3509886e-038
-96.433144 334.53976 -48.244576 2.3509886e-038
-91.807205 335.1944 -48.338982 2.3509886e-038
-87.151222 335.80573 -48.427143 2.3509886e-038
-82.434441 336.24075 -48.489876 2.3509886e-038
-77.599907 336.2197 -48.486843 2.3509886e-038
-72.644135 335.63565 -48.402618 2.3509886e-038
-67.679092 334.92279 -48.299812 2.3509886e-038
-62.766373 334.37955 -48.221474 2.3509886e-038
-57.872444 333.85461 -48.145771 2.3509886e-038
-53.080353 333.87546 -48.148773 2.3509886e-038
-48.441517 334.96017 -48.305202 2.3509886e-038
-43.888512 336.94293 -48.591145 2.3509886e-038
-39.313263 339.22546 -48.920311 2.3509886e-038
-37.470333 340.33209 -49.079899 2.3509886e-038
-144.27882 334.0275 -52.968575 2.3509886e-038
-144.26393 334.02661 -52.96843 2.3509886e-038
-139.43069 333.94193 -52.955006 2.3509886e-038
-134.52826 333.67957 -52.913399 2.3509886e-038
-129.59212 333.31107 -52.854961 2.3509886e-038
-124.69765 333.02563 -52.809704 2.3509886e-038
-119.80997 332.73633 -52.763824 2.3509886e-038
-114.98379 332.6008 -52.742336 2.3509886e-038
-110.23524 332.68787 -52.756138 2.3509886e-038
-105.54812 332.97659 -52.801926 2.3509886e-038
-100.91245 333.46271 -52.879013 2.3509886e-038
-96.338661 334.21201 -52.997829 2.3509886e-038
-91.785515 335.11523 -53.14106 2.3509886e-038
-87.229126 336.1059 -53.298157 2.3509886e-038
-82.601639 336.92273 -53.427689 2.3509886e-038
-77.772911 336.9693 -53.43507 2.3509886e-038
-72.77594 336.2446 -53.320156 2.3509886e-038
-67.778679 335.41559 -53.188694 2.3509886e-038
-62.871635 334.94031 -53.113323 2.3509886e-038
-58.021168 334.71255 -53.077209 2.3509886e-038
-53.300724 335.2616 -53.164268 2.3509886e-038
-48.710037 336.81686 -53.410904 2.3509886e-038
-44.160755 339.03302 -53.762325 2.3509886e-038
-39.575577 341.48892 -54.151772 2.3509886e-038
-37.860615 342.60291 -54.328423 2.3509886e-038
-139.82396 334.93359 -57.923149 2.3509886e-038
-134.48865 333.58127 -57.689281 2.3509886e-038
-129.25348 332.44006 -57.49192 2.3509886e-038
-124.30115 331.96674 -57.410065 2.3509886e-038
-119.47649 331.81015 -57.382984 2.3509886e-038
-114.71245 331.81589 -57.38398 2.3509886e-038
-109.98699 331.93863 -57.405205 2.3509886e-038
-105.30923 332.22293 -57.454372 2.3509886e-038
-100.70829 332.78806 -57.552101 2.3509886e-038
-96.202011 333.73795 -57.716377 2.3509886e-038
-91.727409 334.90308 -57.91787 2.3509886e-038
-87.237534 336.13831 -58.131493 2.3509886e-038
-82.646378 337.10522 -58.29871 2.3509886e-038
-77.816864 337.15976 -58.308144 2.3509886e-038
-72.81266 336.41431 -58.179226 2.3509886e-038
-67.821342 335.62668 -58.043015 2.3509886e-038
-62.951653 335.36658 -57.998032 2.3509886e-038
-58.185478 335.66043 -58.048847 2.3509886e-038
-53.562889 336.91061 -58.265053 2.3509886e-038
-49.025635 338.99918 -58.626251 2.3509886e-038
-44.506378 341.68646 -59.090988 2.3509886e-038
-40.014904 345.27979 -59.712414 2.3509886e-038
-37.814907 347.88449 -60.162868 2.3509886e-038
-134.76292 334.30521 -62.616364 2.3509886e-038
-129.16602 332.21512 -62.224888 2.3509886e-038
-124.15348 331.57236 -62.104492 2.3509886e-038
-119.31489 331.36136 -62.064972 2.3509886e-038
-114.54412 331.32901 -62.058914 2.3509886e-038
-109.81862 331.43045 -62.077919 2.3509886e-038
-105.15235 331.72803 -62.133656 2.3509886e-038
-100.58331 332.37509 -62.254845 2.3509886e-038
-96.132782 333.4978 -62.465134 2.3509886e-038
-91.700523 334.80493 -62.709965 2.3509886e-038
-87.216965 336.05902 -62.944859 2.3509886e-038
-82.614845 336.97662 -63.11673 2.3509886e-038
-77.802338 337.09677 -63.139236 2.3509886e-038
-72.854607 336.60812 -63.047707 2.3509886e-038
-67.930046 336.16464 -62.964649 2.3509886e-038
-63.118538 336.25568 -62.981693 2.3509886e-038
-58.416164 336.99121 -63.119465 2.3509886e-038
-53.863552 338.80176 -63.458584 2.3509886e-038
-49.359333 341.30661 -63.927746 2.3509886e-038
-44.891216 344.64093 -64.552277 2.3509886e-038
-40.585541 350.20367 -65.594193 2.3509886e-038
-37.068985 358.03638 -67.061279 2.3509886e-038
-129.61517 333.24036 -67.203484 2.3509886e-038
-129.55817 333.22369 -67.200134 2.3509886e-038
-124.4796 332.4433 -67.042747 2.3509886e-038
-119.47375 331.80255 -66.913528 2.3509886e-038
-114.5975 331.48343 -66.849174 2.3509886e-038
-109.83366 331.47586 -66.847641 2.3509886e-038
-105.14799 331.71429 -66.895729 2.3509886e-038
-100.58765 332.3894 -67.031883 2.3509886e-038
-96.19371 333.70914 -67.298027 2.3509886e-038
-91.804535 335.18466 -67.595589 2.3509886e-038
-87.324295 336.47256 -67.855324 2.3509886e-038
-82.718506 337.39941 -68.042236 2.3509886e-038
-77.940544 337.69559 -68.101967 2.3509886e-038
-73.056351 337.54022 -68.070625 2.3509886e-038
-68.176216 337.38287 -68.038895 2.3509886e-038
-63.379726 337.64713 -68.092186 2.3509886e-038
-58.699615 338.62637 -68.289665 2.3509886e-038
-54.159359 340.66238 -68.700264 2.3509886e-038
-49.639523 343.24405 -69.220901 2.3509886e-038
-45.19952 347.00787 -69.979935 2.3509886e-038
-41.036755 354.09711 -71.409599 2.3509886e-038
-37.039169 364.81897 -73.571838 2.3509886e-038
-34.965073 370.42316 -74.702026 2.3509886e-038
-125.91645 335.66833 -72.514572 2.3509886e-038
-125.6487 335.56558 -72.492386 2.3509886e-038
-120.05072 333.40491 -72.025604 2.3509886e-038
-114.88802 332.32376 -71.792046 2.3509886e-038
-110.04646 332.1181 -71.74762 2.3509886e-038
-105.34254 332.32806 -71.792976 2.3509886e-038
-100.79511 333.07495 -71.954323 2.3509886e-038
-96.445305 334.58197 -72.279884 2.3509886e-038
-92.08387 336.20456 -72.630417 2.3509886e-038
-87.597221 337.52423 -72.915512 2.3509886e-038
-82.988029 338.49878 -73.12603 2.3509886e-038
-78.258797 339.07452 -73.250412 2.3509886e-038
-73.43441 339.28696 -73.29631 2.3509886e-038
-68.569077 339.32703 -73.30497 2.3509886e-038
-63.752689 339.634 -73.371284 2.3509886e-038
-59.070835 340.76788 -73.616234 2.3509886e-038
-54.504211 342.83151 -74.062042 2.3509886e-038
-49.938305 345.31003 -74.597481 2.3509886e-038
-45.501572 349.32678 -75.465218 2.3509886e-038
-41.415478 357.36502 -77.201714 2.3509886e-038
-37.436352 368.73102 -79.65712 2.3509886e-038
-33.068745 379.3862 -81.958961 2.3509886e-038
-31.716339 381.97614 -82.518463 2.3509886e-038
-121.00716 335.9483 -77.400543 2.3509886e-038
-120.95538 335.91733 -77.393402 2.3509886e-038
-115.46863 334.00323 -76.952415 2.3509886e-038
-110.58327 333.73819 -76.89135 2.3509886e-038
-105.83292 333.87506 -76.922882 2.3509886e-038
-101.26316 334.62161 -77.094879 2.3509886e-038
-96.906403 336.18158 -77.454292 2.3509886e-038
-92.551743 337.91281 -77.853149 2.3509886e-038
-88.071655 339.35229 -78.184799 2.3509886e-038
-83.472946 340.47668 -78.443863 2.3509886e-038
-78.79184 341.38406 -78.652908 2.3509886e-038
-74.02758 342.02759 -78.801178 2.3509886e-038
-69.184853 342.37433 -78.881065 2.3509886e-038
-64.349663 342.81433 -78.982437 2.3509886e-038
-59.646088 344.0864 -79.27552 2.3509886e-038
-55.038006 346.18909 -79.759964 2.3509886e-038
-50.435638 348.74899 -80.349754 2.3509886e-038
-45.964947 352.88425 -81.302483 2.3509886e-038
-41.803993 360.71741 -83.107201 2.3509886e-038
-37.708363 371.41022 -85.57077 2.3509886e-038
-33.271946 381.71741 -87.94548 2.3509886e-038
-28.361763 389.58414 -89.757927 2.3509886e-038
-27.780506 390.33499 -89.930923 2.3509886e-038
-115.26016 337.98914 -82.725517 2.3509886e-038
-111.78873 337.37625 -82.575516 2.3509886e-038
-106.79166 336.8996 -82.458855 2.3509886e-038
-102.07669 337.30991 -82.559273 2.3509886e-038
-97.644005 338.74042 -82.909409 2.3509886e-038
-93.266296 340.52167 -83.345375 2.3509886e-038
-88.803535 342.17233 -83.74939 2.3509886e-038
-84.236687 343.59192 -84.096848 2.3509886e-038
-79.576881 344.78543 -84.388969 2.3509886e-038
-74.857048 345.85992 -84.651962 2.3509886e-038
-70.057671 346.6936 -84.85601 2.3509886e-038
-65.220467 347.4534 -85.041969 2.3509886e-038
-60.465691 348.81451 -85.375122 2.3509886e-038
-55.792336 350.93381 -85.893837 2.3509886e-038
-51.14241 353.63608 -86.555237 2.3509886e-038
-46.567932 357.51352 -87.504265 2.3509886e-038
-42.16024 363.79141 -89.040833 2.3509886e-038
-37.796497 372.27829 -91.118065 2.3509886e-038
-33.238209 381.33038 -93.333633 2.3509886e-038
-28.332973 389.18866 -95.257004 2.3509886e-038
-23.788311 394.51642 -96.56102 2.3509886e-038
-104.78877 341.90668 -88.595421 2.3509886e-038
-103.46604 341.90097 -88.593948 2.3509886e-038
-98.874756 343.01007 -88.881332 2.3509886e-038
-94.383148 344.59937 -89.293159 2.3509886e-038
-89.834534 346.1449 -89.693634 2.3509886e-038
-85.250885 347.7287 -90.104034 2.3509886e-038
-80.552872 349.0141 -90.437111 2.3509886e-038
-75.835747 350.38181 -90.791512 2.3509886e-038
-71.064003 351.67368 -91.126266 2.3509886e-038
-66.209473 352.7222 -91.397964 2.3509886e-038
-61.3633 353.99268 -91.727165 2.3509886e-038
-56.559326 355.75818 -92.184647 2.3509886e-038
-51.760754 357.9118 -92.742699 2.3509886e-038
-47.006901 360.88361 -93.512749 2.3509886e-038
-42.366848 365.57419 -94.728188 2.3509886e-038
-37.745152 371.77255 -96.33432 2.3509886e-038
-33.053162 379.20737 -98.260841 2.3509886e-038
-28.170153 386.95212 -100.26768 2.3509886e-038
-22.99498 393.50497 -101.96566 2.3509886e-038
-21.377192 395.08804 -102.37587 2.3509886e-038
-91.608879 351.75467 -96.199776 2.3509886e-038
-91.300827 351.79474 -96.210732 2.3509886e-038
-86.471451 352.70728 -96.460297 2.3509886e-038
-81.632599 353.69229 -96.729691 2.3509886e-038
-76.924751 355.41327 -97.20034 2.3509886e-038
-72.171104 357.15237 -97.675964 2.3509886e-038
-67.212906 358.06787 -97.926338 2.3509886e-038
-62.189754 358.76028 -98.115715 2.3509886e-038
-57.186993 359.70621 -98.374397 2.3509886e-038
-52.208755 361.00958 -98.730865 2.3509886e-038
-47.30006 363.13425 -99.31192 2.3509886e-038
-42.499901 366.72226 -100.29319 2.3509886e-038
-37.691429 371.24341 -101.52966 2.3509886e-038
-32.872383 377.13336 -103.14048 2.3509886e-038
-27.973297 384.24808 -105.08624 2.3509886e-038
-22.85243 391.06558 -106.95073 2.3509886e-038
-21.070658 392.95193 -107.46662 2.3509886e-038
-78.235245 362.03201 -104.21062 2.3509886e-038
-73.534386 363.89877 -104.74796 2.3509886e-038
-68.352448 364.13861 -104.81699 2.3509886e-038
-63.053967 363.74576 -104.70391 2.3509886e-038
-57.812073 363.63794 -104.67288 2.3509886e-038
-52.663822 364.15625 -104.82207 2.3509886e-038
-47.628975 365.65942 -105.25475 2.3509886e-038
-42.700512 368.45328 -106.05896 2.3509886e-038
-37.754089 371.8606 -107.03976 2.3509886e-038
-32.799603 376.29837 -108.31717 2.3509886e-038
-27.816223 382.09045 -109.98441 2.3509886e-038
-22.781017 388.59668 -111.85723 2.3509886e-038
-68.986069 371.39807 -112.24129 2.3509886e-038
-64.056252 369.5278 -111.67607 2.3509886e-038
-58.556641 368.32129 -111.31145 2.3509886e-038
-53.255611 368.24832 -111.2894 2.3509886e-038
-48.07946 369.11789 -111.55219 2.3509886e-038
-43.004128 371.07312 -112.14309 2.3509886e-038
-37.927235 373.56604 -112.89648 2.3509886e-038
-32.822678 376.56311 -113.80224 2.3509886e-038
-27.70422 380.55197 -115.00772 2.3509886e-038
-26.12081 382.17966 -115.49963 2.3509886e-038
-60.933914 373.6279 -118.28187 2.3509886e-038
-59.326801 373.16562 -118.13552 2.3509886e-038
-53.879623 372.56317 -117.94481 2.3509886e-038
-48.544506 372.68817 -117.98438 2.3509886e-038
-43.302631 373.64886 -118.28851 2.3509886e-038
-38.090969 375.17871 -118.77283 2.3509886e-038
-32.855297 376.93735 -119.32957 2.3509886e-038
-31.159472 377.63815 -119.55143 2.3509886e-038
-49.524693 375.8829 -124.39482 2.3509886e-038
-48.95388 375.83099 -124.37766 2.3509886e-038
-43.554939 375.82596 -124.37598 2.3509886e-038
-41.000725 376.10529 -124.46841 2.3509886e-038
-178.06416 334.43066 -18.028219 3.5733111e-043
-176.72321 331.91217 -26.395544 3.5733111e-043
-174.06593 335.98532 -16.007702 3.5733111e-043
-171.84908 331.7063 -31.365355 3.5733111e-043
-169.90958 337.31473 -16.300676 3.5733111e-043
-167.59859 332.72681 -34.804859 3.5733111e-043
-164.94368 337.06793 -17.770874 3.5733111e-043
-163.15059 333.40372 -37.860687 2.3509886e-038
-160.13496 337.13708 -20.149488 3.5733111e-043
-158.65308 334.01718 -40.988102 2.3509886e-038
-155.79904 338.23694 -23.001514 3.5733111e-043
-153.85835 334.02368 -44.40416 2.3509886e-038
-151.58342 339.67722 -25.975021 3.5733111e-043
-148.93167 333.73499 -48.387089 2.3509886e-038
-144.48926 334.54831 68.4142 2.3509528e-038
-143.83563 333.03491 56.908337 2.3509528e-038
-146.92903 340.19733 -28.87476 3.5733111e-043
-144.26578 334.03082 -52.983387 2.3509886e-038
-140.37045 336.19266 70.518715 2.3509528e-038
-139.49791 334.10287 41.229378 2.3509528e-038
-141.8562 339.7511 -31.346443 3.5733111e-043
-139.84343 334.93045 -57.901859 2.3509886e-038
-136.11536 337.61612 66.656502 2.3509528e-038
-134.74776 334.22397 27.571983 2.3509528e-038
-136.7437 339.17462 -32.847992 3.5733111e-043
-134.78381 334.31339 -62.600216 2.3509886e-038
-131.78041 338.93936 57.976196 2.3509528e-038
-130.32823 335.20438 15.618092 2.3509528e-038
-131.61502 338.51398 -32.479507 3.5733111e-043
-129.56844 333.25015 -67.257576 2.3509886e-038
-127.15387 339.58539 48.354752 2.3509528e-038
-125.68108 335.65204 2.7489331 2.3509886e-038
-126.53587 337.93491 -28.314932 3.5733111e-043
-125.73636 335.79965 -72.780182 2.3509886e-038
-122.15158 339.23941 38.982834 2.3509528e-038
-120.96389 335.94095 -77.433159 2.3509886e-038
-117.16355 338.90598 27.679785 2.3509886e-038
-116.52766 337.06656 -81.480934 2.3509886e-038
-112.2782 338.85345 19.565563 2.3509886e-038
-112.56083 339.70642 -84.986618 2.3509886e-038
-107.06487 337.76154 16.999512 2.3509886e-038
-108.11653 341.07922 -87.294289 2.3509886e-038
-103.33871 341.48019 91.529404 2.3418052e-038
-102.22972 337.81558 27.07135 2.3509886e-038
-102.24837 337.87723 23.688351 2.3509886e-038
-103.6134 342.38794 -89.106659 2.3509886e-038
-98.412033 341.40482 87.434227 2.3418052e-038
-99.566071 345.40833 -91.482574 2.3509886e-038
-93.473396 341.2778 68.154251 2.3418052e-038
-95.596611 349.02982 -94.082405 2.3509886e-038
-87.700005 337.92026 46.408058 2.3418052e-038
-91.334625 351.92496 -96.333954 2.3509886e-038
-82.450249 336.30524 42.274162 2.3418052e-038
-86.899872 354.45471 -98.4319 2.3509886e-038
-78.66478 340.83353 80.070602 2.3418409e-038
-78.39164 339.65009 67.305824 2.3418409e-038
-78.233429 338.96457 63.072117 2.3418409e-038
-82.40731 357.04892 -100.74561 2.3509886e-038
-74.064041 342.19601 84.585785 2.3418409e-038
-78.32682 361.8912 -104.11939 2.3509886e-038
-68.852692 340.73059 80.029816 2.3418409e-038
-74.273911 367.5585 -108.08063 2.3509886e-038
-63.067333 335.98285 14.737218 2.3509886e-038
-69.654602 371.07565 -111.74754 2.3509886e-038
-57.677395 332.7294 11.514011 2.3509886e-038
-64.617958 372.76816 -115.48748 2.3509886e-038
-52.743587 331.7572 12.986429 2.3509886e-038
-59.469894 374.06567 -119.37907 2.3509886e-038
-47.60313 329.16293 16.938557 9.1476764e-041
-54.304535 375.50137 -122.7019 2.3509886e-038
-42.42738 325.72546 22.735302 9.1476764e-041
-48.962601 375.89798 -124.51662 2.3509886e-038
-37.587463 324.33392 29.966293 9.1476764e-041
-38.609871 333.15604 -4.2749605 9.1476764e-041
-39.179707 338.07303 -22.593233 2.3509886e-038
-43.574165 375.99185 -124.84029 2.3509886e-038
-33.088039 325.90213 38.528603 9.1476764e-041
-34.114418 336.01147 9.596096 9.1476764e-041
-36.665287 361.13638 -68.917198 2.3509886e-038
-38.207047 376.32202 -123.65296 2.3509886e-038
-28.366568 325.43973 46.787521 9.1476764e-041
-28.888151 331.42368 20.362064 9.1476764e-041
-32.95536 378.08536 -79.751793 2.3509886e-038
-32.866413 377.06488 -120.77126 2.3509886e-038
-23.771074 326.5253 51.422821 9.1476764e-041
-23.937851 328.81616 30.821102 9.1476764e-041
-28.353371 389.46884 -88.964249 2.3509886e-038
-27.669416 380.07388 -116.7935 2.3509886e-038
-19.048077 325.96298 46.685463 9.1476764e-041
-19.064724 326.24789 45.737431 9.1476764e-041
-23.078621 394.93625 -97.986832 2.3509886e-038
-22.716 388.73087 -111.76969 2.3509886e-038
