# .PCD v0.7 - Point Cloud Data file format
VERSION 0.7
FIELDS x y z rgb
SIZE 4 4 4 4
TYPE F F F F
COUNT 1 1 1 1
WIDTH 899
HEIGHT 1
VIEWPOINT 0 0 0 1 0 0 0
POINTS 899
DATA ascii
-77.45295 335.61945 82.194962 2.3418052e-038
1.5414386 327.28903 40.077404 9.1476764e-041
-147.7592 326.8049 -23.087376 3.5733111e-043
-115.57166 327.18649 63.17918 2.3509528e-038
-49.080845 336.16739 74.412895 2.3418409e-038
-81.438042 333.3219 85.318375 2.3418052e-038
-78.60743 333.28653 85.309319 2.3418052e-038
-74.021027 334.16339 85.53376 2.3418052e-038
-73.752647 334.29932 85.568558 2.3418052e-038
-83.028137 334.52988 80.829086 2.3418052e-038
-78.96447 334.80032 80.894432 2.3418052e-038
-74.459938 336.14487 81.219299 2.3418052e-038
-72.170448 337.56812 81.563179 2.3418052e-038
-83.407684 334.98035 76.132996 2.3418052e-038
-79.045464 335.14374 76.170128 2.3418052e-038
-74.536285 336.48953 76.475998 2.3418052e-038
-71.333076 338.10107 76.84227 2.3418052e-038
-54.015366 337.20352 76.638275 2.3418409e-038
-50.386909 336.37949 76.450989 2.3418409e-038
-45.454311 335.58524 76.270477 2.3418409e-038
-43.135456 335.56992 76.266998 2.3418409e-038
-117.59734 327.47995 69.73098 2.3509528e-038
-115.03381 328.09912 69.862831 2.3509528e-038
-114.76095 328.23959 69.892731 2.3509528e-038
-83.460472 335.08902 71.351204 2.3418052e-038
-79.093483 335.34732 71.406204 2.3418052e-038
-74.661804 337.05615 71.770065 2.3418052e-038
-71.034615 339.07703 72.200371 2.3418052e-038
-54.907162 338.23813 72.021736 2.3418409e-038
-50.558681 337.52628 71.870163 2.3418409e-038
-45.628197 336.86902 71.730217 2.3418409e-038
-42.060623 337.27338 71.816315 2.3418409e-038
-121.09712 327.73315 65.083923 2.3509528e-038
-119.48922 327.4119 65.020119 2.3509528e-038
-114.99423 327.98627 65.134186 2.3509528e-038
-111.34755 331.13239 65.758965 2.3509528e-038
-111.06104 331.62741 65.857269 2.3509528e-038
-83.550392 335.43814 66.614037 2.3418052e-038
-79.176987 335.70139 66.666313 2.3418052e-038
-74.780296 337.59106 67.04158 2.3418052e-038
-70.525024 340.00217 67.520401 2.3418052e-038
-55.156109 338.90585 67.302681 2.3418409e-038
-50.693913 338.42908 67.208 2.3418409e-038
-45.763653 337.86908 67.096794 2.3418409e-038
-41.86414 338.36761 67.195793 2.3418409e-038
-121.65649 328.5936 60.541477 2.3509528e-038
-119.69611 327.97876 60.428196 2.3509528e-038
-115.0923 328.26596 60.48111 2.3509528e-038
-111.36196 331.17523 61.017124 2.3509528e-038
-109.67352 334.37427 61.606529 2.3509528e-038
-83.751205 336.2504 61.952194 2.3418052e-038
-79.232231 335.93561 61.894192 2.3418052e-038
-74.699493 337.22629 62.132 2.3418052e-038
-70.210533 338.90698 62.441654 2.3418052e-038
-69.219711 339.24481 62.503895 2.3418052e-038
-55.113621 338.53598 62.373302 2.3418409e-038
-50.64735 338.11819 62.296326 2.3418409e-038
-45.715496 337.51355 62.184921 2.3418409e-038
-41.758938 337.8967 62.255516 2.3418409e-038
-121.05102 329.53436 55.987976 2.3509528e-038
-120.10393 329.09622 55.913536 2.3509528e-038
-115.27037 328.77386 55.858765 2.3509528e-038
-111.347 331.13074 56.259205 2.3509528e-038
-108.10707 335.49619 57.000889 2.3509528e-038
-83.999489 337.30167 57.307644 2.3418052e-038
-79.198647 335.79318 57.051353 2.3418052e-038
-74.4132 335.93387 57.075256 2.3418052e-038
-69.71434 336.51184 57.173454 2.3418052e-038
-67.348442 336.81683 57.225273 2.3418052e-038
-54.917992 337.0126 57.258526 2.3418409e-038
-50.406746 336.51193 57.17347 2.3418409e-038
-45.504211 335.95364 57.078613 2.3418409e-038
-41.568993 336.40085 57.154591 2.3418409e-038
-119.64632 329.90332 51.31855 2.3509528e-038
-115.50334 329.43832 51.246216 2.3509528e-038
-111.2585 330.86755 51.46854 2.3509528e-038
-107.28258 333.25955 51.84063 2.3509528e-038
-105.72581 334.44852 52.025581 2.3509528e-038
-84.066154 337.95557 52.571125 2.3418052e-038
-79.093773 335.34857 52.165588 2.3418052e-038
-74.134804 334.67703 52.061131 2.3418052e-038
-69.41272 335.05594 52.120071 2.3418052e-038
-65.970238 335.72556 52.224232 2.3509886e-038
-54.764763 334.82358 52.083923 2.3418409e-038
-50.052509 334.14706 51.978687 2.3418409e-038
-45.23513 333.96704 51.950684 2.3418409e-038
-41.374271 334.82635 52.084358 2.3418409e-038
-117.98154 329.85345 46.579411 2.3509528e-038
-115.56876 329.62491 46.547138 2.3509528e-038
-111.03789 330.21149 46.629971 2.3509528e-038
-106.67735 331.37952 46.794907 2.3509528e-038
-103.07131 333.45395 47.087845 2.3509528e-038
-83.572159 337.34195 47.636883 2.3418052e-038
-78.955681 334.76306 47.272705 2.3418052e-038
-73.948402 333.83557 47.141735 2.3418052e-038
-69.282402 334.42691 47.225235 2.3418052e-038
-65.326851 335.76233 47.413815 2.3509886e-038
-54.976669 333.24454 47.058273 2.3418409e-038
-54.680984 333.14484 47.044197 2.3418409e-038
-49.742233 332.07568 46.893215 2.3418409e-038
-45.000523 332.23495 46.915707 2.3418409e-038
-41.217815 333.56042 47.102879 2.3418409e-038
-116.57925 329.84384 41.84679 2.3509528e-038
-115.58963 329.68448 41.826569 2.3509528e-038
-110.87213 329.71857 41.830894 2.3509528e-038
-106.42799 330.60489 41.94334 2.3509528e-038
-102.39684 332.9166 42.236622 2.3509528e-038
-100.89988 334.73511 42.467335 2.3509528e-038
-82.657875 336.26202 42.661053 2.3418052e-038
-78.872269 334.40942 42.426018 2.3418052e-038
-73.866539 333.46597 42.306324 2.3418052e-038
-69.225548 334.1525 42.393421 2.3418052e-038
-64.889381 336.0831 42.638355 2.3509886e-038
-55.7356 333.34482 42.290951 2.3418409e-038
-54.627811 332.82086 42.22448 2.3418409e-038
-49.610519 331.19638 42.018379 2.3418409e-038
-44.874142 331.30191 42.031769 2.3418409e-038
-41.133755 332.87997 42.231976 2.3418409e-038
-4.6476736 327.43665 41.541393 9.1476764e-041
-2.0832181 327.93466 41.604576 9.1476764e-041
2.6384354 330.15887 41.886753 9.1476764e-041
5.3203402 331.96957 42.116474 9.1476764e-041
-115.56814 330.39124 37.17712 2.3509528e-038
-110.94831 329.9451 37.126919 2.3509528e-038
-106.48511 330.78229 37.221123 2.3509528e-038
-102.57125 333.48361 37.525089 2.3509528e-038
-99.402328 338.43933 38.082729 2.3509528e-038
-81.79734 336.32312 37.844601 2.3418052e-038
-78.978012 334.85773 37.67971 2.3418052e-038
-73.906006 333.64417 37.543152 2.3418052e-038
-69.221138 334.1312 37.597954 2.3418052e-038
-64.844345 336.28842 37.840698 2.3509886e-038
-64.320732 336.46268 37.860306 2.3509886e-038
-56.504467 334.5556 37.645714 2.3509886e-038
-54.771965 333.69913 37.549339 2.3418409e-038
-49.684891 331.69287 37.323586 2.3418409e-038
-44.892719 331.43906 37.295025 2.3418409e-038
-41.136742 332.90414 37.459881 2.3418409e-038
-7.6380067 325.4216 36.617912 9.1476764e-041
-6.7344208 325.39059 36.614426 9.1476764e-041
-2.0759468 326.79004 36.771896 9.1476764e-041
2.6395204 330.29465 37.166248 9.1476764e-041
5.2531199 333.18976 37.492023 9.1476764e-041
-114.67773 331.3815 32.53524 2.3509528e-038
-111.19636 330.68274 32.46664 2.3509528e-038
-106.60096 331.14218 32.511745 2.3509528e-038
-102.69157 333.87482 32.780037 2.3509528e-038
-99.473633 339.23285 33.306091 2.3509528e-038
-98.075684 342.24225 33.601555 2.3509528e-038
-81.139763 337.61752 33.147499 2.3418052e-038
-79.337456 336.38174 33.026165 2.3418052e-038
-74.074875 334.40649 32.832237 2.3418052e-038
-69.271118 334.37244 32.828892 2.3418052e-038
-64.822685 336.17609 33.005978 2.3509886e-038
-63.515678 336.52939 33.040661 2.3509886e-038
-56.91029 335.36835 32.92667 2.3418409e-038
-54.923634 334.6232 32.853516 2.3418409e-038
-49.876877 332.97455 32.69165 2.3418409e-038
-45.0364 332.49982 32.645039 2.3418409e-038
-41.210964 333.505 32.743729 2.3418409e-038
-10.196428 324.18835 31.829014 9.1476764e-041
-6.7092438 324.1741 31.827614 9.1476764e-041
-2.0721989 326.20001 32.02652 9.1476764e-041
2.6434832 330.79053 32.477219 9.1476764e-041
3.855659 332.64969 32.659752 9.1476764e-041
-113.47079 332.27298 27.856672 2.3509528e-038
-111.54127 331.70847 27.809343 2.3509528e-038
-106.70537 331.46652 27.789063 2.3509528e-038
-102.60677 333.59912 27.967852 2.3509528e-038
-99.130646 338.06317 28.342104 2.3509528e-038
-96.40818 343.78278 28.821615 2.3509528e-038
-80.420326 338.39786 28.370161 2.3418052e-038
-79.685539 337.85757 28.324865 2.3418052e-038
-74.224869 335.08365 28.092308 2.3418052e-038
-69.292732 334.47678 28.04143 2.3418052e-038
-64.758995 335.84576 28.156202 2.3509886e-038
-62.438717 336.33276 28.197031 2.3509886e-038
-57.374306 335.91772 28.162233 2.3509886e-038
-55.056721 335.43402 28.121681 2.3418409e-038
-50.09103 334.40427 28.035353 2.3418409e-038
-45.225971 333.89941 27.993025 2.3418409e-038
-41.339794 334.59445 28.051296 2.3418409e-038
-13.039487 323.96198 27.159904 9.1476764e-041
-11.348116 323.85828 27.151213 9.1476764e-041
-6.7175446 324.5752 27.211313 9.1476764e-041
-2.0770929 326.97043 27.412125 9.1476764e-041
1.4160476 330.27255 27.688963 9.1476764e-041
-112.07566 333.36829 23.166681 2.3509528e-038
-106.89507 332.05582 23.07547 2.3509528e-038
-102.45574 333.10806 23.148596 2.3509528e-038
-98.510902 335.94965 23.346066 2.3509528e-038
-95.048203 340.81235 23.683987 2.3509528e-038
-94.146919 342.41098 23.795082 2.3509528e-038
-79.729973 338.07947 23.49407 2.3418052e-038
-74.203758 334.98834 23.279263 2.3509886e-038
-69.220963 334.13031 23.219633 2.3509886e-038
-64.653 335.29608 23.300648 2.3509886e-038
-59.951408 335.90045 23.342648 2.3509886e-038
-55.050827 335.3981 23.307737 2.3509886e-038
-50.134914 334.6972 23.259031 2.3418409e-038
-45.297188 334.42517 23.240126 2.3418409e-038
-41.360634 335.18484 23.292915 2.3418409e-038
-16.257839 324.70181 22.564423 9.1476764e-041
-16.032187 324.64124 22.560211 9.1476764e-041
-11.379351 324.74966 22.567749 9.1476764e-041
-6.7524242 326.2605 22.672741 9.1476764e-041
-2.0916004 329.25415 22.880775 9.1476764e-041
-1.0397714 330.3609 22.957685 9.1476764e-041
-110.64247 334.60965 18.453331 2.3509528e-038
-107.2408 333.12976 18.371717 2.3509528e-038
-102.37666 332.85095 18.356342 2.3509528e-038
-97.958641 334.06631 18.423367 2.3509528e-038
-93.942657 336.84821 18.576784 2.3509528e-038
-91.025993 339.40961 18.718044 2.3509528e-038
-79.668236 336.73758 18.570684 2.3509886e-038
-79.384552 336.58142 18.562071 2.3509886e-038
-73.995522 334.04828 18.422373 2.3509886e-038
-69.055588 333.33206 18.382874 2.3509886e-038
-64.458336 334.28653 18.435513 2.3509886e-038
-59.741516 334.72446 18.459663 2.3509886e-038
-54.850437 334.17722 18.429483 2.3509886e-038
-49.962013 333.54294 18.394505 2.3509886e-038
-45.182327 333.57721 18.396395 2.3418409e-038
-40.987301 334.46133 18.445152 2.3418409e-038
-19.730131 326.47046 18.004465 9.1476764e-041
-16.081593 325.64163 17.958757 9.1476764e-041
-11.441075 326.5112 18.006712 9.1476764e-041
-6.7999535 328.55698 18.119534 9.1476764e-041
-3.3893092 330.90652 18.249107 9.1476764e-041
-109.02182 335.05582 13.671926 2.3509528e-038
-107.60119 334.24927 13.639014 2.3509528e-038
-102.33941 332.72986 13.577014 2.3509528e-038
-97.556732 332.69568 13.575621 2.3509528e-038
-93.052994 333.65817 13.614894 2.3509528e-038
-88.616882 334.98068 13.66886 2.3509528e-038
-83.845177 335.11349 13.674279 2.3509886e-038
-83.815895 335.11035 13.674151 2.3509886e-038
-83.594772 335.08548 13.673136 2.3509886e-038
-78.810722 334.14844 13.6349 2.3509886e-038
-73.761459 332.99164 13.587696 2.3509886e-038
-68.884956 332.50842 13.567979 2.3509886e-038
-64.181038 332.84845 13.581854 2.3509886e-038
-59.430618 332.98254 13.587326 2.3509886e-038
-54.591507 332.5997 13.571704 2.3509886e-038
-49.753723 332.1524 13.553452 2.3509886e-038
-44.988438 332.14572 13.553179 2.3509886e-038
-40.271416 332.53595 13.569102 2.3509886e-038
-39.623787 332.59589 13.571548 2.3509886e-038
-23.619551 328.45535 13.402595 9.1476764e-041
-20.864927 327.40491 13.359731 9.1476764e-041
-16.152815 327.08383 13.346629 9.1476764e-041
-11.518924 328.73288 13.413918 9.1476764e-041
-6.8603673 331.47604 13.525853 9.1476764e-041
-5.6712766 332.2059 13.555634 9.1476764e-041
-107.05922 334.08093 8.8401041 2.3509886e-038
-102.26038 332.4729 8.797554 2.3509528e-038
-97.350708 331.9931 8.7848587 2.3509528e-038
-92.619675 332.1044 8.7878036 2.3509886e-038
-87.959862 332.4971 8.7981939 2.3509886e-038
-83.275925 332.83829 8.8072233 2.3509886e-038
-78.525024 332.93713 8.8098373 2.3509886e-038
-73.704941 332.73645 8.8045282 2.3509886e-038
-68.860962 332.39261 8.7954292 2.3509886e-038
-64.054321 332.19128 8.790103 2.3509886e-038
-59.25412 331.99365 8.7848721 2.3509886e-038
-54.429985 331.61563 8.7748699 2.3509886e-038
-49.604904 331.15891 8.762784 2.3509886e-038
-44.819321 330.89716 8.7558584 2.3509886e-038
-40.031162 330.55209 8.7467279 2.3509886e-038
-35.315399 329.70584 8.7243347 2.3509886e-038
-29.550549 328.57022 8.6942854 2.3509886e-038
-25.631912 328.31052 8.6874132 9.1476764e-041
-20.90023 327.95889 8.6781082 9.1476764e-041
-16.223822 328.5217 8.6930008 9.1476764e-041
-11.60113 331.07892 8.7606688 9.1476764e-041
-7.9592447 334.8118 8.8594437 9.1476764e-041
-105.19761 333.21909 4.0376315 2.3509886e-038
-102.22382 332.354 4.0271497 2.3509886e-038
-97.314758 331.87048 4.0212913 2.3509886e-038
-92.527954 331.77554 4.0201406 2.3509886e-038
-87.805962 331.91531 4.0218339 2.3509886e-038
-83.142433 332.30475 4.0265527 2.3509886e-038
-78.46743 332.69293 4.0312562 2.3509886e-038
-73.706192 332.74213 4.0318522 2.3509886e-038
-68.864647 332.41037 4.027833 2.3509886e-038
-64.027893 332.05423 4.0235176 2.3509886e-038
-59.205147 331.71924 4.0194583 2.3509886e-038
-54.365459 331.2225 4.0134392 2.3509886e-038
-49.522575 330.60925 4.0060086 2.3509886e-038
-44.718166 330.15033 4.0004478 2.3509886e-038
-39.90226 329.48767 3.9924183 2.3509886e-038
-35.075283 328.54337 3.9809761 2.3509886e-038
-30.305338 327.92267 3.9734552 9.1476764e-041
-25.624247 328.21234 3.976965 9.1476764e-041
-20.944111 328.64743 3.9822371 9.1476764e-041
-16.284489 329.75012 3.9955983 9.1476764e-041
-11.666792 332.95282 4.0344057 9.1476764e-041
-10.256698 334.80478 4.0568457 9.1476764e-041
-103.64418 332.97208 -0.74149662 2.3509886e-038
-102.28191 332.54291 -0.74054092 2.3509886e-038
-97.360634 332.02692 -0.73939192 2.3509886e-038
-92.554474 331.87061 -0.73904377 2.3509886e-038
-87.811905 331.93777 -0.73919326 2.3509886e-038
-83.134872 332.27457 -0.73994327 2.3509886e-038
-78.434776 332.55447 -0.74056661 2.3509886e-038
-73.643211 332.45782 -0.74035138 2.3509886e-038
-68.793091 332.06497 -0.73947662 2.3509886e-038
-63.979946 331.80557 -0.73889899 2.3509886e-038
-59.171276 331.52948 -0.73828411 2.3509886e-038
-54.331146 331.01343 -0.73713493 2.3509886e-038
-49.488861 330.38419 -0.73573363 2.3509886e-038
-44.694206 329.97345 -0.73481899 2.3509886e-038
-39.900242 329.47104 -0.73370016 2.3509886e-038
-35.099659 328.77167 -0.73214275 2.3509886e-038
-30.341898 328.31827 -0.73113304 9.1476764e-041
-25.655989 328.61893 -0.73180252 9.1476764e-041
-20.984583 329.2825 -0.73328024 9.1476764e-041
-16.328861 330.64868 -0.73632264 9.1476764e-041
-12.404819 333.6926 -0.74310118 9.1476764e-041
-102.38101 332.85266 -5.5156417 2.3509886e-038
-102.37672 332.85117 -5.5156169 2.3509886e-038
-97.405602 332.1803 -5.5044994 2.3509886e-038
-92.590164 331.9986 -5.5014887 2.3509886e-038
-87.865524 332.14047 -5.50384 2.3509886e-038
-83.169342 332.41229 -5.5083442 2.3509886e-038
-78.409996 332.44943 -5.5089598 2.3509886e-038
-73.571945 332.13605 -5.5037661 2.3509886e-038
-68.717842 331.70178 -5.4965706 2.3509886e-038
-63.91272 331.45694 -5.4925132 2.3509886e-038
-59.111992 331.1973 -5.4882102 2.3509886e-038
-54.296665 330.80338 -5.4816828 2.3509886e-038
-49.495171 330.42633 -5.4754353 2.3509886e-038
-44.734467 330.27069 -5.4728556 2.3509886e-038
-39.976772 330.10297 -5.470077 2.3509886e-038
-35.198692 329.69928 -5.4633875 2.3509886e-038
-30.428778 329.25839 -5.4560809 9.1476764e-041
-25.705751 329.25629 -5.4560466 9.1476764e-041
-21.015959 329.77484 -5.4646392 9.1476764e-041
-16.356279 331.20389 -5.4883199 9.1476764e-041
-13.944913 333.2475 -5.5221839 9.1476764e-041
-101.62313 332.89722 -10.291441 2.3509886e-038
-97.456619 332.35428 -10.274657 2.3509886e-038
-92.639366 332.17502 -10.269114 2.3509886e-038
-87.940353 332.42334 -10.276792 2.3509886e-038
-83.219048 332.61096 -10.282592 2.3509886e-038
-78.411774 332.45694 -10.277831 2.3509886e-038
-73.560364 332.08377 -10.266294 2.3509886e-038
-68.72229 331.72324 -10.255149 2.3509886e-038
-63.900471 331.39343 -10.244952 2.3509886e-038
-59.086658 331.05536 -10.234501 2.3509886e-038
-54.294868 330.79242 -10.226373 2.3509886e-038
-49.532867 330.67798 -10.222835 2.3509886e-038
-44.790051 330.68106 -10.22293 2.3509886e-038
-40.060421 330.79367 -10.226411 2.3509886e-038
-35.302155 330.6684 -10.222538 2.3509886e-038
-30.523834 330.28696 -10.210746 2.3509886e-038
-25.775318 330.1474 -10.206431 9.1476764e-041
-21.061672 330.49213 -10.21709 9.1476764e-041
-16.374483 331.57248 -10.250487 9.1476764e-041
-14.734156 333.02206 -10.2953 9.1476764e-041
-101.40274 333.09671 -15.075532 2.3509886e-038
-97.491997 332.47491 -15.04739 2.3509886e-038
-92.663658 332.26212 -15.03776 2.3509886e-038
-87.983574 332.5867 -15.05245 2.3509886e-038
-83.245415 332.71634 -15.058317 2.3509886e-038
-78.429054 332.53021 -15.049892 2.3509886e-038
-73.603371 332.27792 -15.038474 2.3509886e-038
-68.797318 332.08539 -15.029761 2.3509886e-038
-63.971073 331.75955 -15.015014 2.3509886e-038
-59.141285 331.36145 -14.996996 2.3509886e-038
-54.344921 331.09735 -14.985044 2.3509886e-038
-49.582546 331.00961 -14.981073 2.3509886e-038
-44.831295 330.98553 -14.979983 2.3509886e-038
-40.114944 331.2439 -14.991676 2.3509886e-038
-35.367966 331.28485 -14.993529 2.3509886e-038
-30.584759 330.94617 -14.978201 2.3509886e-038
-25.829939 330.84698 -14.973712 2.3509886e-038
-21.110386 331.25653 -14.992249 9.1476764e-041
-16.407318 332.23737 -15.036639 9.1476764e-041
-15.01172 333.57239 -15.09706 9.1476764e-041
-156.49654 327.21683 -19.502975 3.5733111e-043
-152.16858 326.99231 -19.489592 3.5733111e-043
-147.8898 327.90488 -19.543985 3.5733111e-043
-143.71236 329.10944 -19.615778 3.5733111e-043
-140.00095 331.4993 -19.758223 3.5733111e-043
-139.18977 332.37939 -19.810678 3.5733111e-043
-101.62822 333.45831 -19.874983 2.3509886e-038
-97.507027 332.52618 -19.819426 2.3509886e-038
-92.635979 332.16287 -19.797771 2.3509886e-038
-87.96106 332.50162 -19.817961 2.3509886e-038
-83.236656 332.68137 -19.828676 2.3509886e-038
-78.456642 332.64719 -19.826637 2.3509886e-038
-73.673561 332.59479 -19.823515 2.3509886e-038
-68.893051 332.54752 -19.820698 2.3509886e-038
-64.078445 332.31641 -19.806923 2.3509886e-038
-59.235706 331.89047 -19.781536 2.3509886e-038
-54.41 331.49387 -19.757896 2.3509886e-038
-49.623344 331.28198 -19.74527 2.3509886e-038
-44.867424 331.25229 -19.743498 2.3509886e-038
-40.157631 331.59641 -19.764009 2.3509886e-038
-35.406796 331.64853 -19.767115 2.3509886e-038
-30.610106 331.22046 -19.7416 2.3509886e-038
-25.849829 331.10175 -19.734526 2.3509886e-038
-21.13335 331.61691 -19.765232 2.3509886e-038
-16.434408 332.78592 -19.834908 2.3509886e-038
-15.077766 334.22925 -19.920935 2.3509886e-038
-156.69518 326.95529 -24.177217 3.5733111e-043
-151.71942 326.02713 -24.108583 3.5733111e-043
-147.36716 326.74603 -24.161745 3.5733111e-043
-143.30852 328.1846 -24.268122 3.5733111e-043
-139.58414 330.51236 -24.440252 3.5733111e-043
-135.94847 333.22125 -24.640566 3.5733111e-043
-132.15685 335.73138 -24.82618 2.3509886e-038
-131.9949 335.83374 -24.833748 2.3509886e-038
-102.71203 334.16266 -24.710178 2.3509886e-038
-97.517174 332.56079 -24.591724 2.3509886e-038
-92.583954 331.97632 -24.548506 2.3509886e-038
-87.894691 332.25073 -24.568798 2.3509886e-038
-83.213554 332.58899 -24.593811 2.3509886e-038
-78.495193 332.81067 -24.610203 2.3509886e-038
-73.74575 332.92068 -24.618338 2.3509886e-038
-68.969803 332.918 -24.618139 2.3509886e-038
-64.167068 332.776 -24.607639 2.3509886e-038
-59.315128 332.33548 -24.575064 2.3509886e-038
-54.461876 331.80991 -24.5362 2.3509886e-038
-49.663818 331.55222 -24.517145 2.3509886e-038
-44.928696 331.70465 -24.528418 2.3509886e-038
-40.222687 332.13361 -24.560137 2.3509886e-038
-35.452736 332.07886 -24.556087 2.3509886e-038
-30.632236 331.45993 -24.510323 2.3509886e-038
-25.855225 331.17087 -24.488945 2.3509886e-038
-21.12849 331.54065 -24.516291 2.3509886e-038
-16.427813 332.65237 -24.598497 2.3509886e-038
-15.077497 334.12271 -24.707224 2.3509886e-038
-153.59581 326.80682 -28.853941 3.5733111e-043
-151.91335 326.44385 -28.821896 3.5733111e-043
-147.29362 326.58304 -28.834183 3.5733111e-043
-143.02673 327.53934 -28.918615 3.5733111e-043
-139.01569 329.16638 -29.062269 3.5733111e-043
-135.08775 331.1116 -29.234015 3.5733111e-043
-131.0768 332.98764 -29.399649 2.3509886e-038
-126.97717 334.77179 -29.557173 2.3509886e-038
-124.8221 335.7807 -29.646252 2.3509886e-038
-105.26922 335.00638 -29.577885 2.3509886e-038
-102.73521 334.01669 -29.490505 2.3509886e-038
-97.527412 332.5957 -29.365046 2.3509886e-038
-92.579605 331.96072 -29.308985 2.3509886e-038
-87.856575 332.10666 -29.321867 2.3509886e-038
-83.199913 332.53448 -29.35964 2.3509886e-038
-78.526108 332.94174 -29.395597 2.3509886e-038
-73.795776 333.14651 -29.413675 2.3509886e-038
-69.02623 333.19034 -29.417547 2.3509886e-038
-64.260605 333.26108 -29.42379 2.3509886e-038
-59.429653 332.97711 -29.39872 2.3509886e-038
-54.566143 332.44513 -29.351751 2.3509886e-038
-49.754082 332.15482 -29.326118 2.3509886e-038
-45.021313 332.38846 -29.346746 2.3509886e-038
-40.297485 332.75125 -29.378777 2.3509886e-038
-35.501675 332.53726 -29.359884 2.3509886e-038
-30.665846 331.82361 -29.296877 2.3509886e-038
-25.880663 331.49667 -29.268011 2.3509886e-038
-21.144199 331.78717 -29.293659 2.3509886e-038
-16.435446 332.80695 -29.383698 2.3509886e-038
-15.083059 334.24277 -29.510464 2.3509886e-038
-149.26688 328.40256 -33.705395 3.5733111e-043
-148.03496 328.22672 -33.687351 3.5733111e-043
-143.17366 327.87576 -33.651329 3.5733111e-043
-138.66086 328.32623 -33.697563 3.5733111e-043
-134.44125 329.52695 -33.820801 3.5733111e-043
-130.34294 331.12335 -33.984642 3.5733111e-043
-126.16618 332.63364 -34.139652 3.5733111e-043
-121.77473 333.67441 -34.246471 2.3509886e-038
-117.30063 334.56458 -34.33783 2.3509886e-038
-112.68725 335.11646 -34.394474 2.3509886e-038
-107.7655 334.75967 -34.357857 2.3509886e-038
-102.6782 333.83133 -34.262577 2.3509886e-038
-97.611351 332.88196 -34.165138 2.3509886e-038
-92.683525 332.33334 -34.108833 2.3509886e-038
-87.911812 332.31543 -34.106991 2.3509886e-038
-83.228355 332.64819 -34.141144 2.3509886e-038
-78.561829 333.09317 -34.186813 2.3509886e-038
-73.856476 333.42053 -34.220417 2.3509886e-038
-69.116783 333.62747 -34.24165 2.3509886e-038
-64.381721 333.88919 -34.268513 2.3509886e-038
-59.572788 333.77908 -34.257214 2.3509886e-038
-54.707203 333.3046 -34.208515 2.3509886e-038
-49.865978 332.90179 -34.167175 2.3509886e-038
-45.091618 332.9075 -34.167759 2.3509886e-038
-40.328968 333.01117 -34.178398 2.3509886e-038
-35.516579 332.67688 -34.144089 2.3509886e-038
-30.687309 332.05588 -34.080353 2.3509886e-038
-25.914879 331.93497 -34.067944 2.3509886e-038
-21.184458 332.41885 -34.117611 2.3509886e-038
-16.47053 333.51733 -34.23035 2.3509886e-038
-15.114496 334.9346 -34.375809 2.3509886e-038
-143.69453 329.79868 -38.5793 3.5733111e-043
-138.95363 329.01944 -38.488148 3.5733111e-043
-134.39226 329.40689 -38.53347 3.5733111e-043
-130.03377 330.33792 -38.64238 3.5733111e-043
-125.69256 331.38495 -38.764862 3.5733111e-043
-121.2303 332.18262 -38.858173 3.5733111e-043
-116.70148 332.85568 -38.936905 2.3509886e-038
-112.13643 333.47842 -39.009754 2.3509886e-038
-107.46776 333.83478 -39.051437 2.3509886e-038
-102.63822 333.70139 -39.035835 2.3509886e-038
-97.736778 333.30969 -38.990013 2.3509886e-038
-92.85611 332.95221 -38.948196 2.3509886e-038
-88.0354 332.78259 -38.928356 2.3509886e-038
-83.279449 332.85239 -38.936523 2.3509886e-038
-78.584747 333.19031 -38.976051 2.3509886e-038
-73.915466 333.68686 -39.034134 2.3509886e-038
-69.238113 334.2131 -39.095695 2.3509886e-038
-64.532066 334.66891 -39.149014 2.3509886e-038
-59.724182 334.62732 -39.14415 2.3509886e-038
-54.840763 334.11829 -39.084602 2.3509886e-038
-49.959053 333.52316 -39.014984 2.3509886e-038
-45.124207 333.1481 -38.971111 2.3509886e-038
-40.319206 332.93057 -38.945663 2.3509886e-038
-35.500755 332.52866 -38.898651 2.3509886e-038
-30.692152 332.10825 -38.849472 2.3509886e-038
-25.946388 332.33853 -38.876411 2.3509886e-038
-21.23542 333.21854 -38.979351 2.3509886e-038
-16.522991 334.57965 -39.138569 2.3509886e-038
-15.172928 336.02127 -39.307209 2.3509886e-038
-138.10909 332.12003 -43.614765 3.5733111e-043
-135.22676 331.45227 -43.527073 3.5733111e-043
-130.29622 331.00461 -43.468285 3.5733111e-043
-125.62372 331.20346 -43.4944 3.5733111e-043
-120.99697 331.54327 -43.539021 3.5733111e-043
-116.35567 331.86932 -43.581844 2.3509886e-038
-111.74376 332.31064 -43.639797 2.3509886e-038
-107.16801 332.90366 -43.71767 2.3509886e-038
-102.50524 333.26904 -43.765652 2.3509886e-038
-97.750801 333.35751 -43.777271 2.3509886e-038
-92.937759 333.24496 -43.762493 2.3509886e-038
-88.100151 333.0274 -43.733921 2.3509886e-038
-83.287842 332.88593 -43.715343 2.3509886e-038
-78.565224 333.10757 -43.74445 2.3509886e-038
-73.937248 333.78519 -43.833435 2.3509886e-038
-69.346985 334.73865 -43.958645 2.3509886e-038
-64.697784 335.52838 -44.062359 2.3509886e-038
-59.878361 335.49118 -44.057468 2.3509886e-038
-54.953495 334.80515 -43.967377 2.3509886e-038
-50.031754 334.00851 -43.862762 2.3509886e-038
-45.14996 333.33823 -43.774742 2.3509886e-038
-40.310078 332.85519 -43.711308 2.3509886e-038
-35.487579 332.40524 -43.652218 2.3509886e-038
-30.702177 332.21674 -43.627464 2.3509886e-038
-25.984928 332.83218 -43.708286 2.3509886e-038
-21.289047 334.06003 -43.869534 2.3509886e-038
-16.576149 335.65607 -44.079124 2.3509886e-038
-15.284472 337.06833 -44.264584 2.3509886e-038
-132.46744 333.76767 -48.618664 3.5733111e-043
-131.1199 333.09717 -48.520988 3.5733111e-043
-125.8436 331.78314 -48.329586 3.5733111e-043
-120.94545 331.4021 -48.274078 3.5733111e-043
-116.13408 331.2373 -48.250076 3.5733111e-043
-111.44534 331.42322 -48.277153 3.5733111e-043
-106.86517 331.96295 -48.355774 2.3509886e-038
-102.22839 332.3689 -48.414909 2.3509886e-038
-97.510231 332.53711 -48.439415 2.3509886e-038
-92.741943 332.54285 -48.440243 2.3509886e-038
-87.957413 332.48782 -48.432232 2.3509886e-038
-83.195045 332.51505 -48.436195 2.3509886e-038
-78.504753 332.8512 -48.485165 2.3509886e-038
-73.92672 333.73764 -48.614288 2.3509886e-038
-69.422272 335.10208 -48.813042 2.3509886e-038
-64.842781 336.2803 -48.984669 2.3509886e-038
-60.028358 336.3316 -48.992142 2.3509886e-038
-55.076607 335.55518 -48.87904 2.3509886e-038
-50.125443 334.63397 -48.744854 2.3509886e-038
-45.199913 333.70703 -48.609829 2.3509886e-038
-40.322861 332.96075 -48.501122 2.3509886e-038
-35.497898 332.50189 -48.43428 2.3509886e-038
-30.742744 332.6557 -48.456684 2.3509886e-038
-26.054134 333.71863 -48.611519 2.3509886e-038
-21.353516 335.07166 -48.808609 2.3509886e-038
-16.625505 336.65549 -49.039318 2.3509886e-038
-15.570354 337.75827 -49.199959 2.3509886e-038
-127.09319 333.42838 -53.351921 3.5733111e-043
-126.35889 333.14172 -53.306049 3.5733111e-043
-121.06499 331.72964 -53.080105 3.5733111e-043
-116.04433 330.98135 -52.960365 3.5733111e-043
-111.2282 330.77747 -52.927742 3.5733111e-043
-106.54078 330.95523 -52.956188 2.3509886e-038
-101.81419 331.02225 -52.966911 2.3509886e-038
-97.058128 330.9953 -52.962601 2.3509886e-038
-92.32354 331.0426 -52.970169 2.3509886e-038
-87.633736 331.26428 -53.005642 2.3509886e-038
-82.989418 331.69318 -53.074268 2.3509886e-038
-78.376183 332.30606 -53.172337 2.3509886e-038
-73.843872 333.36365 -53.34156 2.3509886e-038
-69.387428 334.93387 -53.592812 2.3509886e-038
-64.858498 336.36179 -53.821297 2.3509886e-038
-60.111633 336.79819 -53.891121 2.3509886e-038
-55.212448 336.38281 -53.824657 2.3509886e-038
-50.264805 335.56433 -53.693691 2.3509886e-038
-45.302647 334.46552 -53.517868 2.3509886e-038
-40.393578 333.54468 -53.370525 2.3509886e-038
-35.570587 333.18274 -53.312614 2.3509886e-038
-30.841925 333.72888 -53.400002 2.3509886e-038
-26.170799 335.21295 -53.637466 2.3509886e-038
-21.46047 336.74994 -53.8834 2.3509886e-038
-16.722467 338.6189 -54.182453 2.3509886e-038
-16.207767 339.13483 -54.265003 2.3509886e-038
-122.61501 333.32306 -58.116234 3.5733111e-043
-121.42844 332.72552 -58.012054 3.5733111e-043
-116.10036 331.14114 -57.735809 3.5733111e-043
-111.09516 330.38181 -57.603416 3.5733111e-043
-106.23286 329.99872 -57.536625 3.5733111e-043
-101.38794 329.63638 -57.47345 2.3509886e-038
-96.589012 329.39551 -57.43145 2.3509886e-038
-91.864731 329.3974 -57.431778 2.3509886e-038
-87.221619 329.70642 -57.485661 2.3509886e-038
-82.673653 330.43112 -57.612019 2.3509886e-038
-78.154434 331.36588 -57.77499 2.3509886e-038
-73.677582 332.61298 -57.992424 2.3509886e-038
-69.248383 334.2627 -58.280067 2.3509886e-038
-64.766449 335.88446 -58.562824 2.3509886e-038
-60.134655 336.92719 -58.744629 2.3509886e-038
-55.344543 337.18759 -58.790031 2.3509886e-038
-50.436127 336.7081 -58.706429 2.3509886e-038
-45.468227 335.68796 -58.528564 2.3509886e-038
-40.537754 334.7352 -58.362442 2.3509886e-038
-35.704216 334.43445 -58.310009 2.3509886e-038
-30.984819 335.27509 -58.456577 2.3509886e-038
-26.333578 337.29791 -58.809265 2.3509886e-038
-21.642136 339.60056 -59.210743 2.3509886e-038
-16.958645 342.70367 -59.751781 2.3509886e-038
-118.26584 333.25516 -62.884567 3.5733111e-043
-116.55499 332.43784 -62.730343 3.5733111e-043
-111.22345 330.76334 -62.414371 3.5733111e-043
-106.10144 329.59048 -62.193054 2.3509886e-038
-101.12697 328.78793 -62.041611 2.3509886e-038
-96.297493 328.40134 -61.968662 2.3509886e-038
-91.557297 328.29504 -61.948608 2.3509886e-038
-86.889526 328.45111 -61.978054 2.3509886e-038
-82.368843 329.21286 -62.121796 2.3509886e-038
-77.919258 330.36874 -62.339912 2.3509886e-038
-73.498108 331.80273 -62.6105 2.3509886e-038
-69.094757 333.52112 -62.934757 2.3509886e-038
-64.664673 335.3566 -63.281105 2.3509886e-038
-60.134193 336.92459 -63.576981 2.3509886e-038
-55.44022 337.77048 -63.736603 2.3509886e-038
-50.588207 337.72336 -63.727707 2.3509886e-038
-45.654854 337.06586 -63.603638 2.3509886e-038
-40.722916 336.26413 -63.452354 2.3509886e-038
-35.868645 335.97461 -63.39772 2.3509886e-038
-31.147995 337.04074 -63.5989 2.3509886e-038
-26.540337 339.94623 -64.147163 2.3509886e-038
-21.924623 344.03329 -64.918381 2.3509886e-038
-17.319666 350.04047 -66.051926 2.3509886e-038
-113.82342 334.18826 -67.854218 3.5733111e-043
-112.03401 333.17383 -67.648254 3.5733111e-043
-106.38527 330.47217 -67.099701 2.3509886e-038
-101.17999 328.9603 -66.792725 2.3509886e-038
-96.288277 328.3699 -66.672852 2.3509886e-038
-91.534309 328.21265 -66.640923 2.3509886e-038
-86.85054 328.30371 -66.659416 2.3509886e-038
-82.308945 328.97348 -66.795403 2.3509886e-038
-77.855598 330.09885 -67.023895 2.3509886e-038
-73.437019 331.52695 -67.313866 2.3509886e-038
-69.030701 333.21194 -67.655998 2.3509886e-038
-64.613167 335.08948 -68.037201 2.3509886e-038
-60.128014 336.88995 -68.402779 2.3509886e-038
-55.490189 338.07492 -68.643379 2.3509886e-038
-50.686302 338.37827 -68.704971 2.3509886e-038
-45.796093 338.10858 -68.650208 2.3509886e-038
-40.892136 337.66147 -68.559433 2.3509886e-038
-36.04538 337.63007 -68.553055 2.3509886e-038
-31.33712 339.08719 -68.848907 2.3509886e-038
-26.787273 343.10916 -69.665535 2.3509886e-038
-22.2869 349.71799 -71.007408 2.3509886e-038
-17.778921 360.01141 -73.097404 2.3509886e-038
-16.641703 363.40268 -73.785965 2.3509886e-038
-109.12757 334.4809 -72.711418 2.3509886e-038
-107.2472 333.14966 -72.422028 2.3509886e-038
-101.71416 330.69699 -71.888847 2.3509886e-038
-96.716446 329.83008 -71.700394 2.3509886e-038
-91.881355 329.45703 -71.619301 2.3509886e-038
-87.12149 329.32797 -71.59124 2.3509886e-038
-82.49086 329.70056 -71.672241 2.3509886e-038
-77.991409 330.67468 -71.883995 2.3509886e-038
-73.555603 332.06229 -72.185646 2.3509886e-038
-69.120865 333.64713 -72.530167 2.3509886e-038
-64.679245 335.43219 -72.918213 2.3509886e-038
-60.217098 337.38907 -73.343613 2.3509886e-038
-55.621403 338.87436 -73.666496 2.3509886e-038
-50.840889 339.41025 -73.78299 2.3509886e-038
-45.960716 339.32397 -73.764236 2.3509886e-038
-41.075714 339.17734 -73.732353 2.3509886e-038
-36.246891 339.51758 -73.806313 2.3509886e-038
-31.547949 341.3685 -74.208687 2.3509886e-038
-27.016224 346.04172 -75.224571 2.3509886e-038
-22.564005 354.06622 -76.968987 2.3509886e-038
-18.080976 366.12781 -79.591011 2.3509886e-038
-14.424098 377.4986 -82.062859 2.3509886e-038
-104.07544 335.5506 -77.75708 2.3509886e-038
-103.05726 335.06375 -77.644264 2.3509886e-038
-97.767647 333.41495 -77.262184 2.3509886e-038
-92.712502 332.43726 -77.035622 2.3509886e-038
-87.790146 331.85553 -76.900826 2.3509886e-038
-82.979309 331.65277 -76.853836 2.3509886e-038
-78.357033 332.22488 -76.986412 2.3509886e-038
-73.863579 333.45261 -77.27092 2.3509886e-038
-69.391716 334.95456 -77.618958 2.3509886e-038
-64.925926 336.71149 -78.026093 2.3509886e-038
-60.477097 338.84583 -78.520676 2.3509886e-038
-55.917164 340.67627 -78.944855 2.3509886e-038
-51.156895 341.51987 -79.140335 2.3509886e-038
-46.264 341.56311 -79.15036 2.3509886e-038
-41.362942 341.5491 -79.14711 2.3509886e-038
-36.524719 342.11993 -79.279396 2.3509886e-038
-31.810656 344.21115 -79.763992 2.3509886e-038
-27.247561 349.00482 -80.874832 2.3509886e-038
-22.752495 357.02396 -82.733093 2.3509886e-038
-18.189054 368.31631 -85.349876 2.3509886e-038
-13.345252 380.85358 -88.255127 2.3509886e-038
-11.091533 385.86389 -89.416168 2.3509886e-038
-97.884293 338.93893 -83.403954 2.3509886e-038
-94.193451 337.7475 -83.110771 2.3509886e-038
-89.081993 336.73886 -82.862572 2.3509886e-038
-84.015945 335.79599 -82.630562 2.3509886e-038
-79.120827 335.46329 -82.548691 2.3509886e-038
-74.442085 336.06424 -82.696571 2.3509886e-038
-69.894844 337.38315 -83.021118 2.3509886e-038
-65.39666 339.15274 -83.456566 2.3509886e-038
-60.928589 341.37549 -84.003532 2.3509886e-038
-56.381317 343.50415 -84.527336 2.3509886e-038
-51.652725 344.83002 -84.853592 2.3509886e-038
-46.757694 345.20798 -84.946602 2.3509886e-038
-41.823513 345.3522 -84.982086 2.3509886e-038
-36.939945 346.00925 -85.143776 2.3509886e-038
-32.169079 348.08951 -85.655678 2.3509886e-038
-27.522821 352.53055 -86.748489 2.3509886e-038
-22.914053 359.55905 -88.478027 2.3509886e-038
-18.230001 369.14548 -90.836998 2.3509886e-038
-13.311642 379.89438 -93.48201 2.3509886e-038
-8.0592127 389.40128 -95.821411 2.3509886e-038
-7.5790644 390.1246 -95.999397 2.3509886e-038
-89.901573 344.80191 -89.792496 2.3509886e-038
-85.87825 343.23932 -89.385567 2.3509886e-038
-80.489738 341.26727 -88.872025 2.3509886e-038
-75.436531 340.55362 -88.686165 2.3509886e-038
-70.747437 341.49866 -88.932266 2.3509886e-038
-66.160248 343.11279 -89.352623 2.3509886e-038
-61.59502 345.10941 -89.872574 2.3509886e-038
-56.996033 347.2493 -90.42984 2.3509886e-038
-52.277039 348.99789 -90.885208 2.3509886e-038
-47.388824 349.86758 -91.111687 2.3509886e-038
-42.433842 350.39194 -91.248238 2.3509886e-038
-37.492142 351.18161 -91.45388 2.3509886e-038
-32.619404 352.96234 -91.917618 2.3509886e-038
-27.828129 356.44113 -92.823555 2.3509886e-038
-23.051617 361.71765 -94.197655 2.3509886e-038
-18.228838 369.12195 -96.125862 2.3509886e-038
-13.258203 378.36932 -98.53405 2.3509886e-038
-8.0268269 387.83652 -100.99947 2.3509886e-038
-4.7574334 392.48224 -102.2093 2.3509886e-038
-77.371773 347.29431 -95.423134 2.3509886e-038
-76.916313 347.23401 -95.40657 2.3509886e-038
-72.117874 348.11374 -95.648285 2.3509886e-038
-67.409554 349.5918 -96.054398 2.3509886e-038
-62.607655 350.78308 -96.381714 2.3509886e-038
-57.822636 352.2854 -96.794502 2.3509886e-038
-53.03685 354.07034 -97.284927 2.3509886e-038
-48.089306 355.03918 -97.551132 2.3509886e-038
-43.06926 355.63876 -97.715874 2.3509886e-038
-38.045803 356.36765 -97.916138 2.3509886e-038
-33.058022 357.70844 -98.284538 2.3509886e-038
-28.117712 360.1503 -98.955467 2.3509886e-038
-23.186121 363.82825 -99.966026 2.3509886e-038
-18.23749 369.29715 -101.46867 2.3509886e-038
-13.211668 377.04129 -103.59647 2.3509886e-038
-7.989994 386.05685 -106.07359 2.3509886e-038
-3.2287817 392.3219 -107.79498 2.3509886e-038
-63.997173 358.66315 -103.69151 2.3509886e-038
-58.978191 359.32565 -103.88304 2.3509886e-038
-54.095493 361.13776 -104.40693 2.3509886e-038
-48.94907 361.38675 -104.47892 2.3509886e-038
-43.749817 361.25839 -104.4418 2.3509886e-038
-38.597733 361.53745 -104.52249 2.3509886e-038
-33.488525 362.36679 -104.76225 2.3509886e-038
-28.411442 363.9126 -105.20915 2.3509886e-038
-23.349482 366.39163 -105.92586 2.3509886e-038
-18.290701 370.37463 -107.07736 2.3509886e-038
-13.188874 376.39078 -108.81667 2.3509886e-038
-7.9422669 383.75073 -110.94447 2.3509886e-038
-3.2864263 389.06281 -112.48022 2.3509886e-038
-54.016071 370.69003 -112.48567 2.3509886e-038
-49.987747 369.05521 -111.98959 2.3509886e-038
-44.487179 367.34708 -111.47125 2.3509886e-038
-39.16917 366.88998 -111.33255 2.3509886e-038
-33.931587 367.16095 -111.41477 2.3509886e-038
-28.724342 367.92044 -111.64524 2.3509886e-038
-23.545233 369.46329 -112.11343 2.3509886e-038
-18.38402 372.26428 -112.96339 2.3509886e-038
-13.190535 376.43817 -114.22995 2.3509886e-038
-7.8939013 381.41385 -115.73981 2.3509886e-038
-5.0299072 384.00732 -116.5268 2.3509886e-038
-45.06728 373.33286 -118.64272 2.3509886e-038
-39.727489 372.11966 -118.25717 2.3509886e-038
-34.356735 371.76132 -118.1433 2.3509886e-038
-29.023434 371.75137 -118.14013 2.3509886e-038
-23.738869 372.50177 -118.3786 2.3509886e-038
-18.483644 374.28162 -118.94423 2.3509886e-038
-13.206579 376.89606 -119.77508 2.3509886e-038
-8.9959087 379.45682 -120.58887 2.3509886e-038
-33.591503 375.7507 -124.80084 2.3509886e-038
-29.279463 375.03079 -124.56173 2.3509886e-038
-23.900135 375.03229 -124.56223 2.3509886e-038
-18.572771 376.08636 -124.91232 2.3509886e-038
-18.312696 376.16373 -124.93802 2.3509886e-038
-152.77191 328.28879 -16.707453 3.5733111e-043
-152.21242 327.08652 -30.463358 3.5733111e-043
-148.57269 329.41901 -16.467445 3.5733111e-043
-148.35779 328.9425 -34.679581 3.5733111e-043
-144.03458 329.84732 -17.41567 3.5733111e-043
-143.99631 329.75967 -38.341103 3.5733111e-043
-140.05481 331.62683 -19.234436 3.5733111e-043
-139.86217 331.17072 -41.956528 3.5733111e-043
-136.52916 334.64462 -21.74365 3.5733111e-043
-135.87682 333.04565 -45.636311 3.5733111e-043
-132.19341 335.82425 -24.703255 2.3509886e-038
-131.3821 333.76321 -49.538342 3.5733111e-043
-127.42707 335.95795 -27.944763 2.3509886e-038
-126.48949 333.48602 -53.996788 3.5733111e-043
-119.49892 327.43845 68.306831 2.3509528e-038
-120.36304 329.80624 53.492786 2.3509528e-038
-122.45322 335.53354 -31.069805 2.3509886e-038
-121.59554 333.18341 -59.191875 3.5733111e-043
-115.04059 328.11847 69.997612 2.3509528e-038
-115.77312 330.20779 38.24902 2.3509528e-038
-117.51408 335.17337 -33.406071 2.3509886e-038
-116.88365 333.37524 -64.383675 3.5733111e-043
-111.35983 331.16888 66.515121 2.3509528e-038
-112.09412 333.3526 23.227144 2.3509528e-038
-112.73892 335.27014 -34.127693 2.3509886e-038
-112.47533 334.48627 -69.353127 3.5733111e-043
-108.00181 335.49374 56.741341 2.3509528e-038
-107.66193 334.43796 10.295427 2.3509886e-038
-107.96692 335.38538 -32.284874 2.3509886e-038
-107.68643 334.51404 -74.114517 2.3509886e-038
-102.5786 333.50751 46.129475 2.3509528e-038
-102.37714 332.85254 -5.5349669 2.3509886e-038
-102.79205 334.20148 -24.950073 2.3509886e-038
-103.33741 335.97458 -78.501366 2.3509886e-038
-99.318817 338.7049 37.808472 2.3509528e-038
-99.217705 338.36008 -82.3526 2.3509886e-038
-95.831779 343.62201 27.424887 2.3509528e-038
-95.005112 340.65784 -85.690979 2.3509886e-038
-89.386475 337.88983 16.779657 2.3509528e-038
-91.011177 344.03134 -88.998405 2.3509886e-038
-83.846382 335.11832 13.680798 2.3509886e-038
-86.636421 346.26959 -91.743454 2.3509886e-038
-78.423431 332.50638 87.287216 2.3418052e-038
-79.744682 338.10834 23.66704 2.3418052e-038
-79.557869 337.31625 20.365227 2.3509886e-038
-81.766853 346.6821 -93.709778 2.3509886e-038
-73.983879 333.9957 85.81942 2.3418052e-038
-76.974205 347.49536 -95.626312 2.3509886e-038
-70.44146 340.0217 67.030327 2.3418052e-038
-72.791565 351.36566 -98.349213 2.3509886e-038
-64.81633 336.14316 41.943909 2.3509886e-038
-68.562492 355.57108 -101.13557 2.3509886e-038
-59.965515 335.97949 23.886185 2.3509886e-038
-64.012238 358.65277 -103.68237 2.3509886e-038
-54.802219 333.88345 49.576248 2.3418409e-038
-59.580013 362.99225 -106.92621 2.3509886e-038
-50.362663 336.21765 80.279236 2.3418409e-038
-55.335262 369.41437 -111.30876 2.3509886e-038
-45.440269 335.48157 79.146187 2.3418409e-038
-50.432243 372.33685 -115.13706 2.3509886e-038
-40.393475 333.54382 15.754033 2.3509886e-038
-45.208076 373.2998 -118.54967 2.3509886e-038
-35.193008 329.64606 8.6491003 2.3509886e-038
-40.012966 374.79364 -121.91962 2.3509886e-038
-30.36437 328.56146 8.3831787 2.3509886e-038
-34.725143 375.74774 -124.47712 2.3509886e-038
-25.67034 328.80273 11.36114 9.1476764e-041
-29.32074 375.55948 -125.64892 2.3509886e-038
-20.848646 327.14944 16.620222 9.1476764e-041
-23.930393 375.50708 -125.76471 2.3509886e-038
-16.031214 324.62146 22.875433 9.1476764e-041
-16.899471 342.20316 -59.174545 2.3509886e-038
-17.307844 350.47241 -66.333817 2.3509886e-038
-18.574272 376.11676 -125.00037 2.3509886e-038
-11.353024 323.99832 29.828411 9.1476764e-041
-11.702047 333.95898 0.93037695 9.1476764e-041
-13.351204 381.02344 -84.722412 2.3509886e-038
-13.221679 377.32697 -123.06569 2.3509886e-038
-6.748024 326.04788 38.249893 9.1476764e-041
-6.9071627 333.73706 11.027113 9.1476764e-041
-8.0644455 389.65411 -95.055511 2.3509886e-038
-7.8721886 380.36472 -119.61158 2.3509886e-038
-2.0876172 328.62711 44.485638 9.1476764e-041
-2.1006002 330.67087 20.864513 9.1476764e-041
2.6427257 330.69571 46.475441 9.1476764e-041
2.6475646 331.30124 30.084587 9.1476764e-041
