# .PCD v0.7 - Point Cloud Data file format
VERSION 0.7
FIELDS x y z rgb
SIZE 4 4 4 4
TYPE F F F F
COUNT 1 1 1 1
WIDTH 907
HEIGHT 1
VIEWPOINT 0 0 0 1 0 0 0
POINTS 907
DATA ascii
-1.5430064 327.62195 83.322342 2.3418052e-038
76.145264 317.01364 35.833065 9.1476764e-041
-80.201347 309.61661 -17.498476 3.5733111e-043
-41.163033 312.14368 67.624977 2.3509528e-038
27.547142 324.94455 71.92865 2.3418409e-038
-6.7204332 327.21094 85.323341 2.3418052e-038
-4.0395851 326.99493 85.267014 2.3418052e-038
0.79498917 325.88965 84.978806 2.3418052e-038
3.8694813 324.72183 84.674286 2.3418052e-038
-7.8045416 329.53537 81.054604 2.3418052e-038
-4.0590038 328.5668 80.816368 2.3418052e-038
0.79606497 326.33066 80.266357 2.3418052e-038
5.1305346 323.85419 79.657227 2.3418052e-038
-46.6842 314.25385 72.647057 2.3509528e-038
-45.55814 313.13193 72.387703 2.3509528e-038
-40.460567 309.57141 71.564606 2.3509528e-038
-37.277077 308.87497 71.40361 2.3509528e-038
-7.9056473 332.34415 76.829056 2.3418052e-038
-4.0708137 329.52283 76.176834 2.3418052e-038
0.79399562 325.48236 75.242798 2.3418052e-038
5.5522408 322.19363 74.482529 2.3418052e-038
5.8402853 322.11728 74.464874 2.3418052e-038
23.531971 331.93094 76.733528 2.3418409e-038
25.164804 329.36023 76.139252 2.3418409e-038
29.481834 323.27203 74.731827 2.3418409e-038
31.939707 320.7164 74.141029 2.3418409e-038
-48.23756 316.75684 68.539856 2.3509528e-038
-45.717205 314.22522 67.992065 2.3509528e-038
-40.637653 310.92636 67.278259 2.3509528e-038
-36.004585 310.6373 67.215714 2.3509528e-038
-34.337074 311.20999 67.33963 2.3509528e-038
-7.4242406 331.14865 71.653961 2.3418052e-038
-4.04985 327.82584 70.934975 2.3418052e-038
0.78870922 323.31531 69.958984 2.3418052e-038
5.5172033 320.16043 69.276329 2.3418052e-038
6.7360396 320.0249 69.247009 2.3418052e-038
22.172783 335.06949 72.502342 2.3418409e-038
25.185205 329.62723 71.324753 2.3418409e-038
29.464882 323.08615 69.909393 2.3418409e-038
33.233242 320.34341 69.315918 2.3418409e-038
-48.459251 319.12991 64.332428 2.3509528e-038
-46.081818 316.73129 63.848896 2.3509528e-038
-40.946278 313.28772 63.154713 2.3509528e-038
-36.239105 312.66068 63.028305 2.3509528e-038
-32.731403 313.83429 63.264893 2.3509528e-038
-6.6530347 328.44821 66.210876 2.3418052e-038
-4.0278239 326.04288 65.72599 2.3418052e-038
0.78559083 322.03702 64.918457 2.3418052e-038
5.4949746 318.87051 64.280128 2.3418052e-038
7.7935586 318.36505 64.178238 2.3418052e-038
21.674755 334.52893 67.436668 2.3418409e-038
25.141417 329.05408 66.333008 2.3418409e-038
29.477066 323.21976 65.156883 2.3418409e-038
33.615036 321.18643 64.746994 2.3418409e-038
-48.114822 321.41861 60.039005 2.3509528e-038
-46.498493 319.59518 59.698399 2.3509528e-038
-41.214737 315.34171 58.903877 2.3509528e-038
-36.386402 313.93149 58.640457 2.3509528e-038
-31.751535 314.02206 58.657375 2.3509528e-038
-31.393669 314.1492 58.681122 2.3509528e-038
-5.9545035 328.29071 61.32267 2.3418052e-038
-4.0362277 326.72314 61.029861 2.3418052e-038
0.78758126 322.85294 60.306931 2.3418052e-038
5.4984856 319.07425 59.601089 2.3418052e-038
8.8073101 317.66599 59.338039 2.3418052e-038
21.400822 332.13565 62.040882 2.3418409e-038
25.059717 327.9848 61.265533 2.3418409e-038
29.477949 323.22943 60.377254 2.3418409e-038
33.731537 321.62909 60.07832 2.3418409e-038
-47.24271 321.99466 55.383293 2.3509528e-038
-46.757725 321.37695 55.27705 2.3509528e-038
-41.332912 316.24588 54.394501 2.3509528e-038
-36.416782 314.19363 54.041512 2.3509528e-038
-31.638567 312.90479 53.819828 2.3509528e-038
-29.919756 312.62482 53.771675 2.3509528e-038
-5.5869799 329.44955 56.665543 2.3418052e-038
-4.054852 328.23071 56.455898 2.3418052e-038
0.79116458 324.32184 55.783569 2.3418052e-038
5.5223799 320.46078 55.119469 2.3418052e-038
9.6164665 319.09036 54.883755 2.3418052e-038
21.311041 331.02432 56.936401 2.3418409e-038
25.004557 327.26285 56.289429 2.3418409e-038
29.436932 322.77966 55.518314 2.3418409e-038
33.800865 321.08994 55.227676 2.3418409e-038
-46.093872 322.08875 50.634781 2.3509528e-038
-41.433937 317.01886 49.837761 2.3509528e-038
-36.40601 314.10068 49.378998 2.3509528e-038
-31.549763 312.02652 49.052929 2.3509528e-038
-28.149462 310.95026 48.883724 2.3509528e-038
-5.477036 330.02057 51.881725 2.3418052e-038
-4.0636873 328.94592 51.712784 2.3418052e-038
0.79322517 325.16656 51.118637 2.3418052e-038
5.5385699 321.40033 50.526554 2.3418052e-038
10.085135 320.186 50.335659 2.3418052e-038
21.240196 330.59369 51.971825 2.3509886e-038
24.9641 326.73334 51.364952 2.3418409e-038
29.366774 322.01041 50.622467 2.3418409e-038
33.888248 319.72638 50.263401 2.3418409e-038
33.994499 319.75931 50.268574 2.3418409e-038
-44.839088 322.90216 45.985924 2.3509528e-038
-41.751556 319.44901 45.494141 2.3509528e-038
-36.563656 315.46082 44.926163 2.3509528e-038
-31.598923 312.5127 44.50631 2.3509528e-038
-26.830616 310.82996 44.266663 2.3509528e-038
-26.150284 310.84253 44.268456 2.3509528e-038
-5.4565873 330.34912 47.046474 2.3509886e-038
-4.0673971 329.24622 46.889404 2.3418052e-038
0.79342169 325.2471 46.319874 2.3418052e-038
5.5355983 321.22787 45.747478 2.3418052e-038
10.219929 319.82312 45.547417 2.3418052e-038
21.014191 329.93872 46.988026 2.3509886e-038
24.920877 326.16763 46.450974 2.3418409e-038
29.313736 321.4288 45.776093 2.3418409e-038
33.78516 318.75378 45.39513 2.3418409e-038
34.524315 318.73254 45.392105 2.3418409e-038
-43.532001 324.76245 41.446598 2.3509528e-038
-42.265541 323.38162 41.27037 2.3509528e-038
-36.908192 318.43335 40.638863 2.3509528e-038
-31.7978 314.47958 40.134281 2.3509528e-038
-26.949787 312.21057 39.844707 2.3509528e-038
-24.089394 312.10034 39.830639 2.3509528e-038
-5.4796271 331.81326 42.346428 2.3509886e-038
-4.0821738 330.44241 42.171474 2.3509886e-038
0.7940281 325.4957 41.540173 2.3418052e-038
5.5277858 320.77454 40.937653 2.3418052e-038
10.220876 319.22461 40.739845 2.3418052e-038
20.509487 329.2449 42.018654 2.3418052e-038
24.868399 325.4808 41.538273 2.3418409e-038
29.275457 321.00909 40.967587 2.3418409e-038
33.758327 318.50061 40.647449 2.3418409e-038
35.192421 318.26208 40.617012 2.3418409e-038
-42.144627 325.98993 36.780846 2.3509528e-038
-37.19207 320.88257 36.20459 2.3509528e-038
-31.994637 316.4263 35.701801 2.3509528e-038
-27.095922 313.90353 35.41716 2.3509528e-038
-22.421484 313.47253 35.36853 2.3509528e-038
-22.222214 313.50473 35.372166 2.3509528e-038
-5.5163012 334.03403 37.688446 2.3509886e-038
-4.1068101 332.43661 37.508217 2.3509886e-038
0.79634649 326.44604 36.83231 2.3418052e-038
5.53125 320.97556 36.21508 2.3418052e-038
10.234469 319.57028 36.056526 2.3418052e-038
10.241753 319.57318 36.056858 2.3418052e-038
19.718098 329.30026 37.154343 2.3418052e-038
20.283155 329.20779 37.143913 2.3418052e-038
24.828415 324.95749 36.664356 2.3418409e-038
29.223986 320.4447 36.155186 2.3418409e-038
33.682114 317.78159 35.854717 2.3418409e-038
35.420185 317.30756 35.801231 2.3418409e-038
71.927505 322.77255 36.417835 9.1476764e-041
72.296768 322.26947 36.361073 9.1476764e-041
75.800323 316.98441 35.764771 9.1476764e-041
79.33316 312.43042 35.25095 9.1476764e-041
79.728058 312.19986 35.224937 9.1476764e-041
-40.284359 324.03232 31.766527 2.3509528e-038
-37.167442 320.6701 31.436913 2.3509528e-038
-32.018497 316.66232 31.044008 2.3509528e-038
-27.168856 314.74844 30.856382 2.3509528e-038
-22.488674 314.4119 30.823391 2.3509528e-038
-20.525337 315.05902 30.886829 2.3509528e-038
-5.5350833 334.69214 32.811562 2.3509886e-038
-4.1184874 333.38187 32.683113 2.3509886e-038
0.79838026 327.27975 32.084888 2.3418052e-038
5.5402427 321.49741 31.518021 2.3418052e-038
10.257602 320.29257 31.399902 2.3418052e-038
10.33796 320.33115 31.403683 2.3418052e-038
18.915592 329.91605 32.343338 2.3509886e-038
20.323931 329.86963 32.338787 2.3509886e-038
24.843948 325.1608 31.877159 2.3418409e-038
29.185987 320.02805 31.373966 2.3418409e-038
33.531223 316.35794 31.01417 2.3418409e-038
35.010368 315.5184 30.931866 2.3418409e-038
68.782448 323.07202 31.672384 9.1476764e-041
71.946434 320.70782 31.440613 9.1476764e-041
75.547951 315.92902 30.972122 9.1476764e-041
78.764847 311.83362 30.570627 9.1476764e-041
-37.720566 319.76657 26.617983 2.3509528e-038
-36.99017 319.14066 26.56588 2.3509528e-038
-31.974203 316.22421 26.323111 2.3509528e-038
-27.204355 315.1597 26.234499 2.3509528e-038
-22.540773 315.14032 26.232883 2.3509528e-038
-18.824303 317.01593 26.389011 2.3509528e-038
-5.6128058 335.43585 27.922325 2.3509886e-038
-4.130723 334.37231 27.833792 2.3509886e-038
0.80019605 328.02411 27.305357 2.3509886e-038
5.5497236 322.04755 26.807856 2.3418052e-038
10.274643 320.82468 26.706062 2.3418052e-038
10.777217 321.10153 26.729109 2.3418052e-038
18.157892 330.04538 27.47361 2.3509886e-038
20.360233 330.45886 27.508028 2.3509886e-038
24.89097 325.77621 27.118238 2.3418409e-038
29.212799 320.32202 26.664219 2.3418409e-038
33.544109 316.47952 26.344362 2.3418409e-038
34.43993 316.04868 26.308496 2.3418409e-038
65.010445 320.47174 26.676682 9.1476764e-041
67.090195 320.17343 26.651852 9.1476764e-041
71.45076 318.49832 26.512411 9.1476764e-041
75.362144 315.15201 26.233858 9.1476764e-041
77.194275 313.47693 26.094419 9.1476764e-041
-35.469349 317.91602 21.760962 2.3509528e-038
-31.996519 316.44495 21.660269 2.3509528e-038
-27.2467 315.6503 21.605875 2.3509528e-038
-22.583065 315.7316 21.611441 2.3509528e-038
-18.02161 317.65625 21.743179 2.3509528e-038
-16.730482 319.25217 21.852419 2.3509528e-038
-6.0046997 334.82309 22.918232 2.3509886e-038
-4.1256561 333.96213 22.859299 2.3509886e-038
0.79923105 327.62851 22.42577 2.3509886e-038
5.5461502 321.84021 22.029568 2.3509886e-038
10.270712 320.70193 21.951653 2.3509886e-038
12.174037 322.20258 22.054371 2.3509886e-038
17.000597 328.87585 22.51115 2.3509886e-038
20.363485 330.51163 22.623116 2.3509886e-038
24.902897 325.93231 22.309668 2.3509886e-038
29.206915 320.25751 21.921234 2.3418409e-038
33.596684 316.97556 21.696589 2.3418409e-038
33.908604 316.9679 21.696064 2.3418409e-038
61.009392 318.87509 21.826611 9.1476764e-041
62.038422 318.55399 21.80463 9.1476764e-041
66.545227 317.57269 21.737459 9.1476764e-041
70.937103 316.20862 21.644093 9.1476764e-041
75.065453 315.1633 21.572544 9.1476764e-041
-34.245075 319.62576 17.149733 2.3509528e-038
-32.210155 318.5578 17.09243 2.3509528e-038
-27.378641 317.17877 17.018438 2.3509528e-038
-22.660448 316.81345 16.998837 2.3509528e-038
-18.004532 317.35522 17.027906 2.3509528e-038
-13.467626 321.11688 17.229742 2.3509886e-038
-12.546799 322.34625 17.295704 2.3509886e-038
-7.9845328 329.04678 17.655226 2.3509886e-038
-4.0783186 330.13034 17.713364 2.3509886e-038
0.79383075 325.41476 17.460348 2.3509886e-038
5.5279255 320.78262 17.211805 2.3509886e-038
10.24227 319.81381 17.159824 2.3509886e-038
15.200594 324.66833 17.420298 2.3509886e-038
20.207441 327.97891 17.597929 2.3509886e-038
24.756021 324.01001 17.384974 2.3509886e-038
29.070316 318.75967 17.103264 2.3418409e-038
33.504406 316.10498 16.960823 2.3418409e-038
33.586094 316.12479 16.961887 2.3418409e-038
57.129189 318.91055 17.111359 9.1476764e-041
57.36414 318.76581 17.103594 9.1476764e-041
61.703667 316.83511 17 9.1476764e-041
66.063553 315.27402 16.916239 9.1476764e-041
70.409492 313.85675 16.840193 9.1476764e-041
72.059853 313.61359 16.827147 9.1476764e-041
-33.931072 323.99097 12.591107 2.3509886e-038
-32.656696 322.97406 12.551588 2.3509886e-038
-27.650974 320.33374 12.448978 2.3509528e-038
-22.804541 318.828 12.390462 2.3509528e-038
-18.02953 317.79587 12.35035 2.3509886e-038
-13.369656 318.78091 12.388633 2.3509886e-038
-8.7430344 322.06537 12.516274 2.3509886e-038
-4.000567 323.83649 12.585104 2.3509886e-038
0.78579384 322.12021 12.518406 2.3509886e-038
5.5069289 319.56421 12.419073 2.3509886e-038
10.203665 318.6084 12.381927 2.3509886e-038
15.011433 320.62808 12.460417 2.3509886e-038
19.844851 322.09387 12.517382 2.3509886e-038
24.443012 319.9133 12.432638 2.3509886e-038
28.871141 316.57571 12.302932 2.3509886e-038
33.348999 314.63873 12.227656 2.3509886e-038
33.99638 314.73438 12.231372 2.3509886e-038
53.036716 318.93805 12.394738 9.1476764e-041
57.084637 317.21265 12.327685 9.1476764e-041
61.396156 315.2561 12.251648 9.1476764e-041
65.606361 313.09216 12.167553 9.1476764e-041
69.116379 311.93161 12.122451 9.1476764e-041
-33.682159 328.46204 7.905879 2.3509886e-038
-33.152149 327.87405 7.8917265 2.3509886e-038
-27.923731 323.49359 7.7862916 2.3509886e-038
-22.930552 320.58975 7.7163978 2.3509886e-038
-18.072485 318.55301 7.6673741 2.3509886e-038
-13.331299 317.86636 7.650847 2.3509886e-038
-8.6455193 318.47321 7.6654539 2.3509886e-038
-3.9429791 319.1749 7.682343 2.3509886e-038
0.77828479 319.04202 7.6791449 2.3509886e-038
5.4859238 318.34531 7.6623755 2.3509886e-038
10.180215 317.87619 7.6510839 2.3509886e-038
14.897005 318.18402 7.658493 2.3509886e-038
19.618841 318.4256 7.6643081 2.3509886e-038
24.261349 317.53564 7.6428871 2.3509886e-038
28.801516 315.81226 7.6014066 2.3509886e-038
33.342102 314.57364 7.5715938 2.3509886e-038
36.10651 314.96683 7.5810575 2.3509886e-038
47.917027 318.64301 7.6695404 2.3509886e-038
52.469883 317.68375 7.646452 9.1476764e-041
56.897995 316.17548 7.6101494 9.1476764e-041
61.207775 314.28879 7.5647373 9.1476764e-041
65.353447 311.88519 7.5068841 9.1476764e-041
66.399117 311.36237 7.4943004 9.1476764e-041
-33.091923 330.50531 3.0658593 2.3509886e-038
-28.096189 325.49152 3.0193498 2.3509886e-038
-23.003061 321.60349 2.9832833 2.3509886e-038
-18.103119 319.09299 2.9599953 2.3509886e-038
-13.321567 317.63431 2.9464643 2.3509886e-038
-8.6096506 317.15195 2.9419897 2.3509886e-038
-3.919255 317.25449 2.942941 2.3509886e-038
0.77457374 317.52078 2.945411 2.3509886e-038
5.4757748 317.75635 2.9475963 2.3509886e-038
10.177259 317.78391 2.9478519 2.3509886e-038
14.869211 317.59039 2.9460568 2.3509886e-038
19.550611 317.31821 2.9435318 2.3509886e-038
24.211376 316.88162 2.9394822 2.3509886e-038
28.820049 316.01547 2.9314475 2.3509886e-038
33.424305 315.34921 2.9252672 2.3509886e-038
38.145351 315.81329 2.9295721 2.3509886e-038
42.963451 316.89197 2.9395781 2.3509886e-038
47.698746 317.2077 2.942507 9.1476764e-041
52.285473 316.5672 2.9365656 9.1476764e-041
56.753483 315.37247 2.9254827 9.1476764e-041
61.153751 314.01138 2.9128571 9.1476764e-041
63.995659 313.28085 2.9060802 9.1476764e-041
-32.69585 332.15732 -1.8324666 2.3509886e-038
-28.233593 327.08331 -1.804474 2.3509886e-038
-23.045673 322.19925 -1.7775292 2.3509886e-038
-18.111753 319.24518 -1.7612321 2.3509886e-038
-13.322149 317.64819 -1.7524217 2.3509886e-038
-8.608593 317.11298 -1.7494689 2.3509886e-038
-3.9179614 317.14975 -1.7496719 2.3509886e-038
0.7743119 317.41342 -1.7511265 2.3509886e-038
5.4766273 317.80582 -1.7532914 2.3509886e-038
10.182344 317.94269 -1.7540463 2.3509886e-038
14.870357 317.61487 -1.7522378 2.3509886e-038
19.537964 317.11288 -1.7494684 2.3509886e-038
24.198378 316.71149 -1.747254 2.3509886e-038
28.846992 316.31091 -1.7450441 2.3509886e-038
33.510231 316.15991 -1.7442111 2.3509886e-038
38.218998 316.423 -1.7456625 2.3509886e-038
42.937862 316.70322 -1.7472084 2.3509886e-038
47.589424 316.48065 -1.7459806 9.1476764e-041
52.166851 315.849 -1.7424958 9.1476764e-041
56.660583 314.85623 -1.7370188 9.1476764e-041
61.192005 314.20782 -1.7334416 9.1476764e-041
61.259338 314.22101 -1.7335143 9.1476764e-041
-32.710159 334.94119 -6.8026571 2.3509886e-038
-28.400372 329.01544 -6.6823053 2.3509886e-038
-23.086336 322.76773 -6.5554142 2.3509886e-038
-18.109169 319.19962 -6.4829459 2.3509886e-038
-13.326942 317.76248 -6.4537582 2.3509886e-038
-8.6189823 317.4957 -6.448339 2.3509886e-038
-3.9234595 317.59482 -6.4503527 2.3509886e-038
0.77523047 317.78998 -6.4543161 2.3509886e-038
5.4813251 318.07843 -6.4601746 2.3509886e-038
10.184344 318.00513 -6.4586859 2.3509886e-038
14.863647 317.47153 -6.4478483 2.3509886e-038
19.520069 316.82248 -6.4346662 2.3509886e-038
24.178482 316.45111 -6.4271235 2.3509886e-038
28.860737 316.46161 -6.4273376 2.3509886e-038
33.577877 316.79816 -6.4341722 2.3509886e-038
38.310188 317.17801 -6.4418869 2.3509886e-038
43.005043 317.19873 -6.4423075 2.3509886e-038
47.623554 316.70761 -6.432333 9.1476764e-041
52.18877 315.98172 -6.4175901 9.1476764e-041
56.690536 315.02267 -6.3981118 9.1476764e-041
58.911983 314.77118 -6.3930044 9.1476764e-041
-32.869415 337.01007 -11.830103 2.3509886e-038
-28.504293 330.21936 -11.591727 2.3509886e-038
-23.108402 323.07623 -11.340982 2.3509886e-038
-18.104221 319.11243 -11.201838 2.3509886e-038
-13.32591 317.73785 -11.153587 2.3509886e-038
-8.6230059 317.64392 -11.15029 2.3509886e-038
-3.9266684 317.85455 -11.157684 2.3509886e-038
0.77594334 318.08221 -11.165676 2.3509886e-038
5.4849539 318.289 -11.172935 2.3509886e-038
10.183228 317.97025 -11.161745 2.3509886e-038
14.851387 317.20966 -11.135046 2.3509886e-038
19.499819 316.49377 -11.109917 2.3509886e-038
24.164097 316.26282 -11.10181 2.3509886e-038
28.872671 316.5925 -11.113382 2.3509886e-038
33.620167 317.19711 -11.134605 2.3509886e-038
38.373333 317.70078 -11.152287 2.3509886e-038
43.076099 317.72284 -11.15306 2.3509886e-038
47.694393 317.17871 -11.133961 9.1476764e-041
52.265171 316.44431 -11.10818 9.1476764e-041
56.843662 315.87357 -11.088145 9.1476764e-041
57.472218 315.97937 -11.091859 9.1476764e-041
-90.195351 313.9751 -15.66617 3.5733111e-043
-87.219688 313.03055 -15.61904 3.5733111e-043
-82.322136 312.0191 -15.568573 3.5733111e-043
-77.167892 309.85681 -15.460682 3.5733111e-043
-72.330414 308.77368 -15.406639 3.5733111e-043
-69.3545 309.35455 -15.435622 3.5733111e-043
-32.987202 336.29269 -16.779734 2.3509886e-038
-28.4275 329.32974 -16.432308 2.3509886e-038
-23.063435 322.44757 -16.088915 2.3509886e-038
-18.07762 318.64352 -15.899107 2.3509886e-038
-13.309953 317.35739 -15.834933 2.3509886e-038
-8.6143675 317.32571 -15.833354 2.3509886e-038
-3.923933 317.63315 -15.848693 2.3509886e-038
0.77559167 317.93802 -15.863905 2.3509886e-038
5.4818778 318.1105 -15.87251 2.3509886e-038
10.177324 317.78592 -15.856317 2.3509886e-038
14.843976 317.05139 -15.819665 2.3509886e-038
19.495335 316.42099 -15.788211 2.3509886e-038
24.168234 316.31696 -15.783019 2.3509886e-038
28.879604 316.66852 -15.800562 2.3509886e-038
33.618011 317.17676 -15.82592 2.3509886e-038
38.362793 317.61356 -15.847714 2.3509886e-038
43.073418 317.70306 -15.852181 2.3509886e-038
47.705872 317.25504 -15.829827 9.1476764e-041
52.261372 316.4213 -15.788225 9.1476764e-041
56.475971 316.20929 -15.777647 9.1476764e-041
-88.314819 313.07254 -20.252474 3.5733111e-043
-87.117424 312.66351 -20.226015 3.5733111e-043
-81.989647 310.75891 -20.102806 3.5733111e-043
-76.755112 308.19934 -19.937231 3.5733111e-043
-71.951706 307.15698 -19.869801 3.5733111e-043
-67.592972 308.0004 -19.92436 3.5733111e-043
-63.419483 309.87073 -20.045349 2.3509886e-038
-62.780788 310.22812 -20.06847 2.3509886e-038
-33.468964 334.32547 -21.627312 2.3509886e-038
-28.23097 327.05295 -21.156858 2.3509886e-038
-22.976887 321.23755 -20.780663 2.3509886e-038
-18.041267 318.00275 -20.571407 2.3509886e-038
-13.292281 316.93604 -20.502401 2.3509886e-038
-8.6023521 316.88309 -20.498976 2.3509886e-038
-3.918468 317.19077 -20.518881 2.3509886e-038
0.77476531 317.5993 -20.545307 2.3509886e-038
5.4772148 317.83994 -20.560873 2.3509886e-038
10.173244 317.65848 -20.549135 2.3509886e-038
14.846562 317.10663 -20.513437 2.3509886e-038
19.508228 316.63028 -20.482622 2.3509886e-038
24.189613 316.59677 -20.480453 2.3509886e-038
28.899834 316.89032 -20.499443 2.3509886e-038
33.62661 317.25787 -20.523222 2.3509886e-038
38.36235 317.60986 -20.545992 2.3509886e-038
43.082474 317.76987 -20.556339 2.3509886e-038
47.729126 317.40973 -20.533045 2.3509886e-038
52.240887 316.29727 -20.461079 9.1476764e-041
55.562256 315.54971 -20.412722 9.1476764e-041
-85.024849 315.04333 -25.040432 3.5733111e-043
-82.816902 313.89438 -24.949112 3.5733111e-043
-77.433701 310.9241 -24.713026 3.5733111e-043
-72.440582 309.24399 -24.579485 3.5733111e-043
-67.784828 308.8746 -24.550127 3.5733111e-043
-63.315212 309.36127 -24.588808 2.3509886e-038
-59.078331 311.14948 -24.73094 2.3509886e-038
-57.444141 312.36835 -24.827818 2.3509886e-038
-34.950493 332.67371 -26.441738 2.3509886e-038
-33.438339 330.7045 -26.285221 2.3509886e-038
-28.009573 324.48807 -25.791124 2.3509886e-038
-22.898317 320.13907 -25.445456 2.3509886e-038
-18.019924 317.62653 -25.245752 2.3509886e-038
-13.284763 316.75677 -25.176622 2.3509886e-038
-8.5947475 316.60294 -25.164394 2.3509886e-038
-3.9146314 316.88019 -25.18643 2.3509886e-038
0.77439719 317.44839 -25.231594 2.3509886e-038
5.4770708 317.83154 -25.262047 2.3509886e-038
10.176844 317.77094 -25.257229 2.3509886e-038
14.860714 317.40887 -25.228455 2.3509886e-038
19.53846 317.12097 -25.20557 2.3509886e-038
24.233282 317.16833 -25.209332 2.3509886e-038
28.953863 317.48276 -25.234325 2.3509886e-038
33.690746 317.86301 -25.264547 2.3509886e-038
38.432404 318.18985 -25.290527 2.3509886e-038
43.154556 318.30151 -25.2994 2.3509886e-038
47.809006 317.94092 -25.270741 2.3509886e-038
52.337868 316.88443 -25.186768 2.3509886e-038
54.906456 316.12674 -25.126545 2.3509886e-038
-81.036034 319.00482 -30.074375 3.5733111e-043
-79.083138 317.54721 -29.936956 3.5733111e-043
-73.662697 314.46112 -29.646013 3.5733111e-043
-68.541496 312.32254 -29.444397 3.5733111e-043
-63.647427 310.98447 -29.318249 3.5733111e-043
-59.097851 311.25229 -29.343498 2.3509886e-038
-54.791016 312.9519 -29.503731 2.3509886e-038
-50.923019 314.81644 -29.679512 2.3509886e-038
-37.866028 327.98312 -30.920807 2.3509886e-038
-32.924797 325.62558 -30.698549 2.3509886e-038
-27.777325 321.79752 -30.337658 2.3509886e-038
-22.826166 319.13037 -30.086208 2.3509886e-038
-18.008204 317.41998 -29.924961 2.3509886e-038
-13.278771 316.61392 -29.848969 2.3509886e-038
-8.587738 316.34473 -29.823591 2.3509886e-038
-3.9118934 316.65857 -29.853178 2.3509886e-038
0.77423495 317.3819 -29.921371 2.3509886e-038
5.4778924 317.87924 -29.968258 2.3509886e-038
10.182016 317.93243 -29.973272 2.3509886e-038
14.879143 317.80252 -29.961025 2.3509886e-038
19.580206 317.79852 -29.960649 2.3509886e-038
24.298578 318.02295 -29.981806 2.3509886e-038
29.036091 318.3844 -30.015884 2.3509886e-038
33.789307 318.79291 -30.054396 2.3509886e-038
38.533539 319.02716 -30.076479 2.3509886e-038
43.236958 318.9093 -30.065367 2.3509886e-038
47.889118 318.47369 -30.024302 2.3509886e-038
52.519272 317.98279 -29.978022 2.3509886e-038
54.475521 317.854 -29.965881 2.3509886e-038
-75.201286 320.18906 -34.92263 3.5733111e-043
-74.958618 319.99329 -34.901276 3.5733111e-043
-69.436676 316.40158 -34.509533 3.5733111e-043
-64.257797 313.96677 -34.243977 3.5733111e-043
-59.362919 312.64832 -34.10017 3.5733111e-043
-54.685776 312.35077 -34.067719 2.3509886e-038
-50.078789 312.436 -34.077015 2.3509886e-038
-45.613991 313.51578 -34.194786 2.3509886e-038
-41.358879 316.44458 -34.514225 2.3509886e-038
-37.078117 319.89941 -34.891041 2.3509886e-038
-32.371056 320.14911 -34.91827 2.3509886e-038
-27.50798 318.67719 -34.757732 2.3509886e-038
-22.710012 317.50641 -34.630039 2.3509886e-038
-17.965111 316.66037 -34.537762 2.3509886e-038
-13.253005 315.99957 -34.465691 2.3509886e-038
-8.5720425 315.76657 -34.440277 2.3509886e-038
-3.905602 316.14929 -34.482018 2.3509886e-038
0.77299398 316.87317 -34.56097 2.3509886e-038
5.4698944 317.41513 -34.620079 2.3509886e-038
10.175572 317.73123 -34.654556 2.3509886e-038
14.888088 317.99359 -34.68317 2.3509886e-038
19.615377 318.36938 -34.724159 2.3509886e-038
24.360935 318.83905 -34.775387 2.3509886e-038
29.112667 319.22406 -34.817379 2.3509886e-038
33.865551 319.51224 -34.848812 2.3509886e-038
38.596893 319.5517 -34.853115 2.3509886e-038
43.28009 319.22742 -34.817749 2.3509886e-038
47.916798 318.65775 -34.755615 2.3509886e-038
52.56815 318.27869 -34.714272 2.3509886e-038
54.043579 318.32242 -34.71904 2.3509886e-038
-69.060013 321.42279 -39.812031 3.5733111e-043
-65.442482 319.75519 -39.605484 3.5733111e-043
-60.128296 316.67935 -39.224503 3.5733111e-043
-55.007145 314.18637 -38.915714 3.5733111e-043
-50.162796 312.96014 -38.763836 2.3509886e-038
-45.512405 312.81757 -38.746174 2.3509886e-038
-41.001896 313.71326 -38.857113 2.3509886e-038
-36.577991 315.58447 -39.08889 2.3509886e-038
-31.992842 316.40857 -39.190964 2.3509886e-038
-27.299982 316.26752 -39.173492 2.3509886e-038
-22.596867 315.92453 -39.131008 2.3509886e-038
-17.901203 315.53394 -39.082626 2.3509886e-038
-13.213248 315.05161 -39.022888 2.3509886e-038
-8.5529232 315.06229 -39.024208 2.3509886e-038
-3.8997061 315.67203 -39.099735 2.3509886e-038
0.77192616 316.43546 -39.194294 2.3509886e-038
5.4624767 316.98465 -39.262318 2.3509886e-038
10.170814 317.58264 -39.336384 2.3509886e-038
14.901357 318.27698 -39.422386 2.3509886e-038
19.652727 318.97559 -39.508919 2.3509886e-038
24.414381 319.53857 -39.578651 2.3509886e-038
29.170094 319.85376 -39.617687 2.3509886e-038
33.917866 320.00583 -39.636528 2.3509886e-038
38.648106 319.97571 -39.632793 2.3509886e-038
43.335346 319.63498 -39.590591 2.3509886e-038
47.962124 318.9592 -39.506889 2.3509886e-038
52.587189 318.39398 -39.436878 2.3509886e-038
53.629684 318.40555 -39.438313 2.3509886e-038
-64.775291 326.70355 -45.29908 3.5733111e-043
-61.38744 323.31091 -44.828671 3.5733111e-043
-55.702271 318.15671 -44.114017 3.5733111e-043
-50.519714 315.18692 -43.70224 2.3509886e-038
-45.647911 313.74896 -43.502861 2.3509886e-038
-40.926048 313.13287 -43.417439 2.3509886e-038
-36.364349 313.74124 -43.501785 2.3509886e-038
-31.792532 314.42749 -43.596943 2.3509886e-038
-27.166964 314.72653 -43.638405 2.3509886e-038
-22.507286 314.67212 -43.630859 2.3509886e-038
-17.835508 314.37598 -43.589798 2.3509886e-038
-13.173341 314.1001 -43.551544 2.3509886e-038
-8.534234 314.37381 -43.5895 2.3509886e-038
-3.8942854 315.23325 -43.708664 2.3509886e-038
0.77139276 316.2168 -43.845039 2.3509886e-038
5.4618368 316.94751 -43.946354 2.3509886e-038
10.174878 317.70953 -44.052013 2.3509886e-038
14.917573 318.62332 -44.178719 2.3509886e-038
19.684048 319.48398 -44.298046 2.3509886e-038
24.453045 320.04462 -44.375782 2.3509886e-038
29.211508 320.30789 -44.412285 2.3509886e-038
33.963638 320.43771 -44.430286 2.3509886e-038
38.70726 320.46545 -44.434135 2.3509886e-038
43.406944 320.16309 -44.392212 2.3509886e-038
48.025871 319.38315 -44.284069 2.3509886e-038
52.641743 318.72427 -44.192711 2.3509886e-038
53.002911 318.72455 -44.192749 2.3509886e-038
-60.111156 327.47159 -50.24992 3.5733111e-043
-56.624046 323.42169 -49.628471 3.5733111e-043
-51.060379 318.56006 -48.882462 3.5733111e-043
-45.886433 315.38837 -48.395767 2.3509886e-038
-40.948639 313.30576 -48.076199 2.3509886e-038
-36.271847 312.94315 -48.020557 2.3509886e-038
-31.681166 313.32608 -48.079319 2.3509886e-038
-27.075893 313.67151 -48.13232 2.3509886e-038
-22.432964 313.63303 -48.126419 2.3509886e-038
-17.776211 313.33078 -48.080036 2.3509886e-038
-13.140799 313.32416 -48.079021 2.3509886e-038
-8.5178404 313.76993 -48.147427 2.3509886e-038
-3.8875356 314.68686 -48.288124 2.3509886e-038
0.77060086 315.89215 -48.473076 2.3509886e-038
5.4634175 317.03928 -48.649097 2.3509886e-038
10.18411 317.9978 -48.796185 2.3509886e-038
14.93559 319.00815 -48.951221 2.3509886e-038
19.710133 319.90732 -49.089195 2.3509886e-038
24.481417 320.41595 -49.16724 2.3509886e-038
29.2446 320.67072 -49.206337 2.3509886e-038
34.004993 320.82788 -49.230453 2.3509886e-038
38.754677 320.858 -49.235077 2.3509886e-038
43.452843 320.50162 -49.180393 2.3509886e-038
48.069218 319.67139 -49.052994 2.3509886e-038
52.314499 319.21429 -48.982853 2.3509886e-038
-55.883347 327.88293 -55.163448 3.5733111e-043
-51.851868 323.49808 -54.425728 3.5733111e-043
-46.262676 317.9744 -53.496418 2.3509886e-038
-41.059196 314.15164 -52.853275 2.3509886e-038
-36.257462 312.81903 -52.629074 2.3509886e-038
-31.627615 312.79648 -52.625278 2.3509886e-038
-27.013498 312.94864 -52.650879 2.3509886e-038
-22.369225 312.74188 -52.616093 2.3509886e-038
-17.723295 312.39804 -52.558247 2.3509886e-038
-13.111325 312.6214 -52.595821 2.3509886e-038
-8.5016918 313.17508 -52.688976 2.3509886e-038
-3.8787789 313.97806 -52.82407 2.3509886e-038
0.76902431 315.24591 -53.037373 2.3509886e-038
5.4614739 316.92648 -53.320118 2.3509886e-038
10.194777 318.33084 -53.556389 2.3509886e-038
14.961853 319.56912 -53.764717 2.3509886e-038
19.745197 320.47644 -53.917366 2.3509886e-038
24.514572 320.84988 -53.980198 2.3509886e-038
29.276375 321.01913 -54.008671 2.3509886e-038
34.033039 321.09244 -54.021 2.3509886e-038
38.770454 320.98865 -54.00354 2.3509886e-038
43.460297 320.55661 -53.930851 2.3509886e-038
48.095783 319.84805 -53.811646 2.3509886e-038
51.643669 319.82352 -53.807514 2.3509886e-038
-52.339386 329.26575 -60.266953 3.5733111e-043
-46.800842 321.67331 -58.877277 2.3509886e-038
-41.298954 315.98608 -57.836323 2.3509886e-038
-36.331795 313.46039 -57.374031 2.3509886e-038
-31.616508 312.68661 -57.232407 2.3509886e-038
-26.970388 312.44922 -57.18895 2.3509886e-038
-22.321949 312.08093 -57.12154 2.3509886e-038
-17.680244 311.63922 -57.040695 2.3509886e-038
-13.076148 311.78265 -57.066948 2.3509886e-038
-8.4770861 312.26871 -57.15591 2.3509886e-038
-3.8673401 313.05209 -57.299297 2.3509886e-038
0.76739901 314.57965 -57.578892 2.3509886e-038
5.461256 316.91385 -58.006134 2.3509886e-038
10.209264 318.78326 -58.348297 2.3509886e-038
14.988588 320.14017 -58.596661 2.3509886e-038
19.779892 321.03955 -58.76128 2.3509886e-038
24.557508 321.41183 -58.829422 2.3509886e-038
29.315601 321.44928 -58.836273 2.3509886e-038
34.059418 321.34131 -58.816513 2.3509886e-038
38.790878 321.15771 -58.782909 2.3509886e-038
43.493946 320.80481 -58.718311 2.3509886e-038
48.165501 320.31171 -58.628056 2.3509886e-038
50.876919 320.61258 -58.683128 2.3509886e-038
-48.407536 328.30389 -64.947563 2.3509886e-038
-47.587788 327.08215 -64.705864 2.3509886e-038
-41.79578 319.78738 -63.26276 2.3509886e-038
-36.576408 315.57083 -62.428608 2.3509886e-038
-31.680119 313.31573 -61.982491 2.3509886e-038
-26.964281 312.37848 -61.79707 2.3509886e-038
-22.310541 311.92145 -61.706657 2.3509886e-038
-17.664145 311.35541 -61.594685 2.3509886e-038
-13.05311 311.23334 -61.570534 2.3509886e-038
-8.4585714 311.58667 -61.640434 2.3509886e-038
-3.8589423 312.37228 -61.795849 2.3509886e-038
0.76606089 314.0311 -62.124008 2.3509886e-038
5.4581265 316.73227 -62.658371 2.3509886e-038
10.216458 319.00787 -63.108547 2.3509886e-038
15.009038 320.57693 -63.418953 2.3509886e-038
19.814892 321.6076 -63.622856 2.3509886e-038
24.610521 322.10568 -63.721382 2.3509886e-038
29.368635 322.03079 -63.706562 2.3509886e-038
34.102394 321.74683 -63.650391 2.3509886e-038
38.842812 321.58771 -63.618912 2.3509886e-038
43.590672 321.51825 -63.605167 2.3509886e-038
48.336006 321.44562 -63.590801 2.3509886e-038
49.932018 321.64346 -63.629948 2.3509886e-038
-44.073723 327.60535 -69.65567 2.3509886e-038
-42.569168 325.70471 -69.251556 2.3509886e-038
-37.024597 319.43768 -67.919052 2.3509886e-038
-31.877399 315.26682 -67.032242 2.3509886e-038
-27.056725 313.4494 -66.645821 2.3509886e-038
-22.374393 312.81415 -66.51075 2.3509886e-038
-17.70211 312.02463 -66.34288 2.3509886e-038
-13.067801 311.58362 -66.249115 2.3509886e-038
-8.4634867 311.76776 -66.288269 2.3509886e-038
-3.859489 312.41656 -66.426216 2.3509886e-038
0.76559412 313.83975 -66.728821 2.3509886e-038
5.4525075 316.40616 -67.27449 2.3509886e-038
10.212801 318.89371 -67.803398 2.3509886e-038
15.016076 320.72726 -68.193253 2.3509886e-038
19.837605 321.97629 -68.458809 2.3509886e-038
24.655516 322.69458 -68.611542 2.3509886e-038
29.43132 322.71814 -68.616547 2.3509886e-038
34.175201 322.43372 -68.556068 2.3509886e-038
38.94268 322.41452 -68.551994 2.3509886e-038
43.764034 322.79691 -68.633293 2.3509886e-038
48.665501 323.63684 -68.811882 2.3509886e-038
48.983368 323.72305 -68.830215 2.3509886e-038
-39.661007 327.19656 -74.409012 2.3509886e-038
-37.583439 324.25922 -73.741013 2.3509886e-038
-32.216644 318.62195 -72.459023 2.3509886e-038
-27.293896 316.19705 -71.907562 2.3509886e-038
-22.536955 315.08694 -71.655113 2.3509886e-038
-17.80315 313.80557 -71.363708 2.3509886e-038
-13.127039 312.99609 -71.179619 2.3509886e-038
-8.4937525 312.8826 -71.153809 2.3509886e-038
-3.8687601 313.16702 -71.218498 2.3509886e-038
0.76626271 314.11383 -71.433815 2.3509886e-038
5.4504957 316.2894 -71.928566 2.3509886e-038
10.210657 318.82672 -72.505592 2.3509886e-038
15.021318 320.83923 -72.963257 2.3509886e-038
19.854704 322.25378 -73.28495 2.3509886e-038
24.697124 323.23914 -73.509041 2.3509886e-038
29.512972 323.61346 -73.594162 2.3509886e-038
34.299789 323.60916 -73.593185 2.3509886e-038
39.13364 323.99554 -73.681046 2.3509886e-038
44.096561 325.2496 -73.96624 2.3509886e-038
48.594608 327.70264 -74.524094 2.3509886e-038
-34.656475 324.87805 -78.687706 2.3509886e-038
-32.682999 323.23419 -78.289543 2.3509886e-038
-27.691427 320.8024 -77.700546 2.3509886e-038
-22.805847 318.84625 -77.226761 2.3509886e-038
-17.968988 316.72873 -76.713882 2.3509886e-038
-13.230152 315.45465 -76.405296 2.3509886e-038
-8.5470362 314.8454 -76.257729 2.3509886e-038
-3.8860571 314.56717 -76.190338 2.3509886e-038
0.76849437 315.02866 -76.302109 2.3509886e-038
5.4606576 316.87912 -76.750305 2.3509886e-038
10.23173 319.48471 -77.381393 2.3509886e-038
15.059408 321.65277 -77.906517 2.3509886e-038
19.912554 323.19275 -78.27951 2.3509886e-038
24.787006 324.41553 -78.575676 2.3509886e-038
29.657003 325.19278 -78.763931 2.3509886e-038
34.521778 325.70355 -78.88765 2.3509886e-038
39.495953 326.99521 -79.200493 2.3509886e-038
44.761303 330.15262 -79.96524 2.3509886e-038
49.384407 335.29797 -81.211479 2.3509886e-038
-29.354239 328.90417 -84.528397 2.3509886e-038
-28.339346 328.30847 -84.37529 2.3509886e-038
-23.250166 325.05826 -83.539993 2.3509886e-038
-18.270851 322.04947 -82.766731 2.3509886e-038
-13.429873 320.21671 -82.295715 2.3509886e-038
-8.6584234 318.94858 -81.969795 2.3509886e-038
-3.9293361 318.07053 -81.744141 2.3509886e-038
0.77581286 318.02872 -81.733398 2.3509886e-038
5.5013409 319.23993 -82.044685 2.3509886e-038
10.296596 321.51013 -82.62812 2.3509886e-038
15.152729 323.646 -83.177048 2.3509886e-038
20.042986 325.30972 -83.604622 2.3509886e-038
24.969337 326.80191 -83.988106 2.3509886e-038
29.919439 328.07043 -84.314125 2.3509886e-038
34.896141 329.23563 -84.613571 2.3509886e-038
40.078346 331.81696 -85.276978 2.3509886e-038
45.815685 337.92957 -86.847923 2.3509886e-038
51.68364 347.23691 -89.239906 2.3509886e-038
-21.593916 332.49387 -90.36956 2.3509886e-038
-18.767284 330.7998 -89.909126 2.3509886e-038
-13.781241 328.59464 -89.309769 2.3509886e-038
-8.8682251 326.677 -88.788567 2.3509886e-038
-4.0171633 325.1799 -88.381668 2.3509886e-038
0.79132134 324.38608 -88.165916 2.3509886e-038
5.5899882 324.38409 -88.165382 2.3509886e-038
10.434284 325.80945 -88.55278 2.3509886e-038
15.33859 327.61578 -89.043732 2.3509886e-038
20.285488 329.2457 -89.486725 2.3509886e-038
25.281504 330.88757 -89.932976 2.3509886e-038
30.328638 332.55734 -90.386818 2.3509886e-038
35.436005 334.32904 -90.868347 2.3509886e-038
40.814518 337.91187 -91.84214 2.3509886e-038
46.874207 345.73709 -93.968979 2.3509886e-038
53.651558 356.79526 -96.97451 2.3509886e-038
54.864223 358.56253 -97.454842 2.3509886e-038
-9.2822485 337.86493 -96.827454 2.3509886e-038
-9.1706991 337.81915 -96.814331 2.3509886e-038
-4.1494985 335.89215 -96.262085 2.3509886e-038
0.8149966 334.09131 -95.745987 2.3509886e-038
5.7337246 332.72504 -95.354439 2.3509886e-038
10.673585 333.28162 -95.513939 2.3509886e-038
15.670052 334.69547 -95.919128 2.3509886e-038
20.704161 336.04102 -96.304741 2.3509886e-038
25.775429 337.35211 -96.680489 2.3509886e-038
30.900782 338.83096 -97.104309 2.3509886e-038
36.11055 340.69321 -97.638 2.3509886e-038
41.56282 344.10724 -98.616417 2.3509886e-038
47.578648 350.93295 -100.57257 2.3509886e-038
54.148251 360.09836 -103.19925 2.3509886e-038
57.939964 364.27155 -104.39523 2.3509886e-038
0.70978332 346.29501 -104.36619 2.3509886e-038
0.84461355 346.23215 -104.34725 2.3509886e-038
5.9378839 344.57227 -103.847 2.3509886e-038
11.044677 344.8689 -103.93639 2.3509886e-038
16.185341 345.70151 -104.18733 2.3509886e-038
21.324778 346.11398 -104.31164 2.3509886e-038
26.459377 346.30374 -104.36883 2.3509886e-038
31.623676 346.75763 -104.50562 2.3509886e-038
36.879875 347.9516 -104.86546 2.3509886e-038
42.276772 350.01816 -105.48827 2.3509886e-038
48.014774 354.14975 -106.73346 2.3509886e-038
54.252579 360.79218 -108.73534 2.3509886e-038
60.560127 367.45554 -110.74355 2.3509886e-038
8.498436 360.38687 -113.94444 2.3509886e-038
11.540777 360.35959 -113.93581 2.3509886e-038
16.828987 359.4491 -113.64793 2.3509886e-038
22.038786 357.70276 -113.09579 2.3509886e-038
27.214767 356.19037 -112.61762 2.3509886e-038
32.409058 355.36938 -112.35804 2.3509886e-038
37.695759 355.6492 -112.44651 2.3509886e-038
43.059338 356.49719 -112.71462 2.3509886e-038
48.594254 358.42392 -113.3238 2.3509886e-038
54.511608 362.51477 -114.61721 2.3509886e-038
60.833168 368.32001 -116.45268 2.3509886e-038
61.659126 369.15384 -116.7163 2.3509886e-038
16.559645 371.26364 -122.87553 2.3509886e-038
17.355705 370.69922 -122.68872 2.3509886e-038
22.624445 367.20834 -121.53335 2.3509886e-038
27.85181 364.52808 -120.64629 2.3509886e-038
33.087387 362.80737 -120.07678 2.3509886e-038
38.394688 362.24341 -119.89013 2.3509886e-038
43.754601 362.25342 -119.89345 2.3509886e-038
49.192406 362.83578 -120.0862 2.3509886e-038
54.835686 364.66998 -120.69324 2.3509886e-038
59.592716 367.39395 -121.59478 2.3509886e-038
29.158464 370.15918 -127.9858 2.3509886e-038
33.605938 368.49335 -127.40983 2.3509886e-038
38.922546 367.2236 -126.97079 2.3509886e-038
44.260738 366.44382 -126.70118 2.3509886e-038
49.645775 366.17978 -126.60989 2.3509886e-038
52.78968 366.35458 -126.67033 2.3509886e-038
-87.899071 315.46884 -12.328349 3.5733111e-043
-87.349022 313.49472 -21.814762 3.5733111e-043
-83.25489 315.55447 -11.819791 3.5733111e-043
-83.537323 316.62497 -27.061857 3.5733111e-043
-77.89975 312.79547 -12.473727 3.5733111e-043
-79.642159 319.79187 -31.46977 3.5733111e-043
-72.611832 309.97504 -13.936517 3.5733111e-043
-74.99585 320.15225 -35.057465 3.5733111e-043
-67.905365 309.42386 -16.256876 3.5733111e-043
-70.314224 320.40027 -38.506691 3.5733111e-043
-63.468487 310.11014 -19.497093 2.3509886e-038
-66.491486 324.88068 -43.105087 3.5733111e-043
-59.124687 311.39362 -23.271862 2.3509886e-038
-62.2099 327.64258 -48.135201 3.5733111e-043
-54.965935 313.95099 -26.980982 2.3509886e-038
-57.319607 327.39453 -53.298534 3.5733111e-043
-50.463093 314.83365 -29.912025 2.3509886e-038
-52.770763 329.23096 -59.675903 3.5733111e-043
-45.558464 313.13416 73.707024 2.3509528e-038
-46.853256 322.03357 53.660942 2.3509528e-038
-45.904682 315.51379 -31.971458 2.3509886e-038
-47.737656 328.11224 -65.678627 2.3509886e-038
-40.483101 309.74387 73.816681 2.3509528e-038
-42.589382 325.85938 38.236492 2.3509528e-038
-41.709148 319.12454 -32.768406 2.3509886e-038
-42.836834 327.75269 -71.092102 2.3509886e-038
-35.875633 309.52475 69.778748 2.3509528e-038
-36.949291 318.78796 25.100033 2.3509528e-038
-37.978001 327.66336 -31.047417 2.3509886e-038
-37.795052 326.08493 -75.99144 2.3509886e-038
-31.781736 314.32074 60.077614 2.3509528e-038
-33.359772 329.92749 5.1310549 2.3509886e-038
-33.755096 333.83725 -22.983444 2.3509886e-038
-32.899342 325.37384 -80.448227 2.3509886e-038
-26.816833 310.67032 45.745647 2.3509528e-038
-28.45355 329.6315 -85.392342 2.3509886e-038
-22.413239 313.35724 35.849392 2.3509528e-038
-23.733364 331.81378 -89.053505 2.3509886e-038
-18.037529 317.93686 24.497272 2.3509528e-038
-18.91688 333.43665 -91.819214 2.3509886e-038
-13.486878 321.57593 17.933653 2.3509886e-038
-14.067417 335.41806 -94.234299 2.3509886e-038
-8.8849163 327.29184 17.056202 2.3509886e-038
-9.1737528 337.93167 -96.891571 2.3509886e-038
-4.0369358 326.78046 88.851166 2.3418052e-038
-4.2215853 341.72742 -100.27241 2.3509886e-038
0.79567808 326.17206 88.834236 2.3418052e-038
0.84511954 346.43958 -104.49083 2.3509886e-038
5.5648808 322.92715 76.533783 2.3418052e-038
6.1191492 355.09103 -110.62152 2.3509886e-038
10.224099 319.24646 39.327499 2.3418052e-038
11.742863 366.66971 -118.20816 2.3509886e-038
15.269103 326.13165 20.314793 2.3509886e-038
17.393875 371.5145 -123.44926 2.3509886e-038
20.280895 329.17114 40.509983 2.3418052e-038
22.888273 371.49045 -126.26553 2.3509886e-038
25.145954 329.11349 78.409874 2.3418409e-038
28.295712 370.33789 -127.80493 2.3509886e-038
29.521128 323.70291 77.774925 2.3418409e-038
33.681969 369.32703 -128.62645 2.3509886e-038
33.925415 320.07703 51.36409 2.3418409e-038
39.049671 368.42297 -128.84741 2.3509886e-038
38.136681 315.74149 5.8275313 2.3509886e-038
44.38773 367.49521 -128.60301 2.3509886e-038
43.033295 317.4071 5.2723556 2.3509886e-038
49.714954 366.69 -127.71338 2.3509886e-038
47.914532 318.6427 7.6678391 2.3509886e-038
48.803463 324.55429 -70.317894 2.3509886e-038
53.055607 352.83206 -92.996117 2.3509886e-038
55.065632 366.19916 -125.4735 2.3509886e-038
52.676476 318.9346 12.020238 9.1476764e-041
52.678478 318.94669 -46.423939 2.3509886e-038
60.728874 367.68857 -111.28396 2.3509886e-038
60.846165 368.39871 -119.84715 2.3509886e-038
57.384418 318.87851 17.421436 9.1476764e-041
56.916271 316.27707 -13.615376 9.1476764e-041
62.157509 319.16547 23.203442 9.1476764e-041
61.194054 314.21835 -1.8382424 9.1476764e-041
67.530762 322.27594 29.928749 9.1476764e-041
65.363708 311.93414 5.5469556 9.1476764e-041
72.321854 322.38129 37.021854 9.1476764e-041
70.087875 312.4231 13.702189 9.1476764e-041
75.952263 317.61981 40.452656 9.1476764e-041
75.363731 315.15866 22.093803 9.1476764e-041
79.554939 313.3038 38.196365 9.1476764e-041
79.169167 311.78458 31.821285 9.1476764e-041
