# .PCD v0.7 - Point Cloud Data file format
VERSION 0.7
FIELDS x y z rgb
SIZE 4 4 4 4
TYPE F F F F
COUNT 1 1 1 1
WIDTH 872
HEIGHT 1
VIEWPOINT 0 0 0 1 0 0 0
POINTS 872
DATA ascii
-113.68214 335.24704 88.419434 2.3418052e-038
-37.448166 318.05026 49.431576 9.1476764e-041
-181.06679 323.07031 -18.258835 3.5733111e-043
-154.22261 330.76389 70.101181 2.3509528e-038
-86.854805 335.30225 82.117271 2.3418409e-038
-119.83714 338.91095 91.57373 2.3418052e-038
-115.46149 336.59985 90.949272 2.3418052e-038
-109.6918 334.32657 90.335037 2.3418052e-038
-108.3833 334.12793 90.281357 2.3418052e-038
-121.72079 341.35806 87.140106 2.3418052e-038
-115.36942 336.33145 85.856934 2.3418052e-038
-109.216 332.87637 84.974945 2.3418052e-038
-106.37711 332.54791 84.89109 2.3418052e-038
-91.613327 339.35583 86.628983 2.3418409e-038
-90.901855 338.68463 86.457642 2.3418409e-038
-84.139343 331.94788 84.737915 2.3418409e-038
-79.179611 326.95172 83.462524 2.3418409e-038
-121.01615 340.00391 81.719788 2.3418052e-038
-115.13555 335.64963 80.673241 2.3418052e-038
-108.9045 331.927 79.778511 2.3418052e-038
-105.13646 330.82016 79.512474 2.3418052e-038
-93.776024 342.11975 82.228325 2.3418409e-038
-91.173141 339.6954 81.64563 2.3418409e-038
-84.236183 332.32993 79.875351 2.3418409e-038
-77.848785 326.34668 78.437279 2.3418409e-038
-77.488091 326.16638 78.393944 2.3418409e-038
-158.08708 333.78549 75.243355 2.3509528e-038
-153.22588 331.35294 74.695 2.3509528e-038
-150.23485 330.37421 74.474365 2.3509528e-038
-119.15138 336.85223 75.934669 2.3418052e-038
-114.85861 334.84229 75.481575 2.3418052e-038
-108.71516 331.34991 74.694313 2.3418052e-038
-104.09383 329.03088 74.171539 2.3418052e-038
-94.875519 344.92773 77.755089 2.3418409e-038
-91.778664 341.95145 77.08416 2.3418409e-038
-84.533508 333.50293 75.179649 2.3418409e-038
-78.014725 327.04227 73.723274 2.3418409e-038
-77.134659 326.66525 73.638275 2.3418409e-038
-158.90898 332.99011 70.094101 2.3509528e-038
-152.56042 329.91394 69.446571 2.3509528e-038
-146.9106 328.29208 69.105171 2.3509528e-038
-146.14407 328.20944 69.087776 2.3509528e-038
-117.97047 335.48639 70.61956 2.3418052e-038
-114.76347 334.56494 70.425606 2.3418052e-038
-108.8112 331.64261 69.810448 2.3418052e-038
-103.54563 329.32254 69.322083 2.3418409e-038
-94.944252 344.9205 72.605438 2.3418409e-038
-91.775368 341.93915 71.977867 2.3418409e-038
-84.568253 333.64001 70.230904 2.3418409e-038
-78.105576 327.42316 68.922256 2.3509886e-038
-77.127411 327.07764 68.849525 2.3509886e-038
-157.31339 330.49442 64.636055 2.3509528e-038
-151.68669 328.02448 64.153 2.3509528e-038
-146.19325 326.68906 63.891827 2.3509528e-038
-143.14311 326.22122 63.800335 2.3509528e-038
-117.42934 335.02515 65.522148 2.3418052e-038
-114.64271 334.21289 65.363297 2.3418052e-038
-108.77648 331.5368 64.83992 2.3418052e-038
-103.19626 329.51892 64.445274 2.3418409e-038
-102.70377 329.52362 64.446198 2.3418409e-038
-94.061562 341.11298 66.712769 2.3418409e-038
-90.86544 338.54892 66.211304 2.3418409e-038
-84.122208 331.88028 64.907097 2.3418409e-038
-78.022034 327.07294 63.966908 2.3509886e-038
-77.078247 326.94901 63.942665 2.3509886e-038
-155.72865 329.35269 59.497086 2.3509528e-038
-151.49158 327.60254 59.180923 2.3509528e-038
-145.81227 325.83774 58.862114 2.3509528e-038
-140.22549 324.16501 58.55994 2.3509528e-038
-140.21846 324.1629 58.559559 2.3509528e-038
-117.31966 335.11316 60.537708 2.3418052e-038
-114.6077 334.11087 60.356644 2.3418052e-038
-108.63712 331.11203 59.814907 2.3418052e-038
-102.97937 328.82635 59.402008 2.3418409e-038
-101.52991 328.8363 59.403801 2.3418409e-038
-93.234344 337.03137 60.884228 2.3418409e-038
-89.847389 334.75583 60.473156 2.3418409e-038
-83.485649 329.36893 59.500015 2.3418409e-038
-77.694214 325.6987 58.837002 2.3509886e-038
-76.795364 325.7522 58.846664 2.3509886e-038
-155.33148 331.05783 54.864002 2.3509528e-038
-152.45338 329.68243 54.63607 2.3509528e-038
-146.16823 326.63315 54.130733 2.3509528e-038
-140.06604 323.79642 53.660622 2.3509528e-038
-137.314 323.00336 53.529186 2.3509886e-038
-117.85346 336.70349 55.799618 2.3418052e-038
-115.01186 335.28906 55.56522 2.3418052e-038
-108.71207 331.34048 54.910847 2.3418052e-038
-102.83188 328.35541 54.416149 2.3418409e-038
-100.44749 328.3063 54.408012 2.3418409e-038
-92.907639 334.38464 55.415337 2.3418409e-038
-89.156631 332.18219 55.050339 2.3418409e-038
-82.959488 327.29309 54.240101 2.3418409e-038
-77.287308 323.99295 53.693188 2.3509886e-038
-76.404572 324.09442 53.710003 2.3509886e-038
-38.901726 318.92441 52.85321 9.1476764e-041
-37.987152 318.83304 52.83807 9.1476764e-041
-33.153542 318.11374 52.718868 9.1476764e-041
-32.983093 318.08554 52.714195 9.1476764e-041
-155.03119 333.05698 50.224361 2.3509528e-038
-153.61047 332.18466 50.092815 2.3509528e-038
-146.74359 327.91888 49.449543 2.3509528e-038
-140.25916 324.24286 48.895206 2.3509528e-038
-134.92355 323.05472 48.716038 2.3509886e-038
-134.55418 323.13608 48.72831 2.3509886e-038
-118.70864 339.17554 51.147026 2.3418052e-038
-115.64847 337.14493 50.840816 2.3418052e-038
-108.97004 332.12674 50.08408 2.3418409e-038
-102.96555 328.78223 49.579735 2.3418409e-038
-99.736794 328.84372 49.589005 2.3418409e-038
-93.192863 332.9024 50.201046 2.3418409e-038
-88.749306 330.66458 49.863586 2.3418409e-038
-82.68972 326.22879 49.194683 2.3418409e-038
-77.113594 323.26468 48.7477 2.3509886e-038
-76.240028 323.39645 48.767567 2.3509886e-038
-42.639469 317.45935 47.872265 9.1476764e-041
-42.55759 317.42908 47.867699 9.1476764e-041
-37.712551 316.52826 47.731857 9.1476764e-041
-32.939903 316.06384 47.661827 9.1476764e-041
-31.874918 316.06989 47.662735 9.1476764e-041
-153.1548 331.68738 45.067303 2.3509528e-038
-146.56252 327.51425 44.500286 2.3509528e-038
-140.33882 324.427 44.080814 2.3509528e-038
-135.04124 323.33655 43.932652 2.3509886e-038
-132.35896 323.65247 43.975578 2.3509886e-038
-118.59683 339.03711 46.065929 2.3418052e-038
-115.50931 336.73923 45.753716 2.3418052e-038
-108.87914 331.8497 45.089355 2.3418409e-038
-103.21693 329.58493 44.781635 2.3418409e-038
-99.567947 330.84695 44.95311 2.3418409e-038
-94.699059 334.44092 45.441433 2.3418409e-038
-88.921211 331.30508 45.015358 2.3418409e-038
-82.785881 326.60818 44.377178 2.3418409e-038
-77.282722 323.97369 44.019218 2.3509886e-038
-76.418556 324.15378 44.04369 2.3509886e-038
-45.256039 316.76343 43.039543 9.1476764e-041
-42.245186 315.09891 42.813381 9.1476764e-041
-37.468319 314.47836 42.729065 9.1476764e-041
-32.83445 315.05197 42.807003 9.1476764e-041
-32.70293 315.11115 42.815041 9.1476764e-041
-150.83392 329.42773 39.843479 2.3509528e-038
-146.50674 327.38962 39.596977 2.3509528e-038
-140.85172 325.6127 39.382061 2.3509528e-038
-135.6658 324.83194 39.287636 2.3509528e-038
-130.93607 325.1261 39.323215 2.3509886e-038
-130.9221 325.13394 39.324162 2.3509886e-038
-117.59723 336.87854 40.74464 2.3418052e-038
-114.88351 334.91486 40.507137 2.3418052e-038
-108.63165 331.09537 40.045181 2.3418409e-038
-103.53362 330.59616 39.984798 2.3418409e-038
-99.504005 333.62921 40.351643 2.3418409e-038
-99.208435 333.96353 40.392078 2.3418409e-038
-96.842445 336.02951 40.641953 2.3418409e-038
-95.286758 336.31964 40.677044 2.3418409e-038
-89.140785 332.1232 40.169491 2.3418409e-038
-82.917847 327.12878 39.565434 2.3418409e-038
-77.538399 325.04553 39.313465 2.3509886e-038
-76.700859 325.3512 39.350437 2.3509886e-038
-48.0662 318.24295 38.490707 9.1476764e-041
-47.302647 317.47852 38.398254 9.1476764e-041
-42.007412 313.32541 37.895947 9.1476764e-041
-37.171093 311.9837 37.733669 9.1476764e-041
-34.099342 312.4093 37.785145 9.1476764e-041
-149.42862 329.57605 34.942421 2.3509528e-038
-147.20049 328.93985 34.874973 2.3509528e-038
-141.82155 327.85471 34.759918 2.3509528e-038
-136.56293 326.97995 34.667179 2.3509528e-038
-131.33682 326.12122 34.576134 2.3509886e-038
-129.45042 326.51251 34.617619 2.3509886e-038
-116.38573 334.93909 35.511024 2.3418052e-038
-114.4744 333.72223 35.382011 2.3418052e-038
-108.5631 330.88644 35.081352 2.3418052e-038
-103.80054 331.44846 35.140938 2.3418409e-038
-99.824883 334.70508 35.486214 2.3418409e-038
-95.37706 336.63837 35.691185 2.3418409e-038
-89.076309 331.88297 35.187004 2.3418409e-038
-82.888885 327.01456 34.670849 2.3509886e-038
-77.664146 325.57263 34.517971 2.3509886e-038
-76.839951 325.94675 34.557636 2.3509886e-038
-51.409424 321.85016 34.123306 9.1476764e-041
-47.33173 317.67371 33.680511 9.1476764e-041
-41.905437 312.56479 33.138847 9.1476764e-041
-36.931221 309.9704 32.863789 9.1476764e-041
-35.823025 309.9726 32.864014 9.1476764e-041
-148.67201 331.85208 30.230764 2.3509528e-038
-148.46878 331.77405 30.223656 2.3509528e-038
-142.79997 330.11655 30.072662 2.3509528e-038
-137.24588 328.61517 29.935894 2.3509528e-038
-131.56718 326.69324 29.760809 2.3509886e-038
-126.9474 325.94604 29.692741 2.3509886e-038
-115.66965 333.99078 30.425594 2.3509886e-038
-114.33839 333.32571 30.365009 2.3418052e-038
-108.5946 330.98245 30.151545 2.3418052e-038
-103.74226 331.26236 30.177042 2.3418052e-038
-99.560852 333.81979 30.410019 2.3418409e-038
-94.985405 335.25601 30.540854 2.3418409e-038
-88.766251 330.72769 30.128338 2.3509886e-038
-82.669731 326.1499 29.711313 2.3509886e-038
-77.467003 324.74622 29.583441 2.3509886e-038
-76.597977 324.97501 29.604284 2.3509886e-038
-54.760696 323.65244 29.483803 9.1476764e-041
-52.835354 322.32388 29.362774 9.1476764e-041
-47.367035 317.91068 28.960745 9.1476764e-041
-41.929714 312.74588 28.490246 9.1476764e-041
-37.945328 310.10474 28.249643 2.3509886e-038
-147.19606 333.11719 25.374149 2.3509528e-038
-143.44583 331.60962 25.259315 2.3509528e-038
-137.55928 329.3656 25.088387 2.3509528e-038
-131.56213 326.68066 24.883867 2.3509886e-038
-125.90202 324.6582 24.729815 2.3509886e-038
-123.51898 324.86206 24.745344 2.3509886e-038
-115.78198 332.36472 25.316833 2.3509886e-038
-113.85016 331.9024 25.28162 2.3509886e-038
-108.29979 330.08389 25.143101 2.3509886e-038
-103.14742 329.36298 25.088188 2.3509886e-038
-98.623268 330.67618 25.188213 2.3509886e-038
-94.074753 332.04184 25.292238 2.3509886e-038
-88.199249 328.61517 25.031225 2.3509886e-038
-82.255173 324.5144 24.718861 2.3509886e-038
-76.935928 322.5199 24.566935 2.3509886e-038
-75.887924 322.48019 24.563911 2.3509886e-038
-57.857609 322.66721 24.578156 9.1476764e-041
-57.691788 322.57919 24.571455 9.1476764e-041
-52.49968 320.27612 24.396023 9.1476764e-041
-47.325642 317.63281 24.194677 9.1476764e-041
-42.076111 313.8378 23.905603 9.1476764e-041
-40.431595 312.64868 23.815027 9.1476764e-041
-145.21721 333.31635 20.414497 2.3509528e-038
-143.99452 332.87802 20.387651 2.3509528e-038
-138.00877 330.44183 20.238443 2.3509528e-038
-131.87251 327.45142 20.05529 2.3509886e-038
-126.06339 325.07428 19.9097 2.3509886e-038
-121.2945 325.29666 19.923321 2.3509886e-038
-117.34365 327.823 20.078049 2.3509886e-038
-112.72072 328.6098 20.126236 2.3509886e-038
-107.52345 327.71771 20.071602 2.3509886e-038
-102.25497 326.51324 19.997829 2.3509886e-038
-97.30867 326.26843 19.982838 2.3509886e-038
-92.526688 326.57785 20.001787 2.3509886e-038
-87.17038 324.78177 19.891783 2.3509886e-038
-81.684433 322.26273 19.737501 2.3509886e-038
-76.487679 320.64084 19.638166 2.3509886e-038
-74.809616 320.53656 19.631779 2.3509886e-038
-61.503124 321.95163 19.718449 9.1476764e-041
-57.218716 319.93408 19.594877 9.1476764e-041
-52.210396 318.51132 19.50774 9.1476764e-041
-47.274925 317.29245 19.433088 9.1476764e-041
-43.193188 316.24231 19.368771 9.1476764e-041
-144.686 336.29349 15.577579 2.3509528e-038
-139.23203 333.37076 15.442194 2.3509528e-038
-132.71068 329.53262 15.264408 2.3509886e-038
-126.69424 326.70108 15.133245 2.3509886e-038
-121.41521 325.62039 15.083187 2.3509886e-038
-116.55736 325.62631 15.083462 2.3509886e-038
-111.71821 325.68723 15.086283 2.3509886e-038
-106.72585 325.28674 15.067733 2.3509886e-038
-101.60705 324.44437 15.028711 2.3509886e-038
-96.513176 323.6012 14.989655 2.3509886e-038
-91.512527 322.99832 14.961729 2.3509886e-038
-86.440926 322.064 14.918449 2.3509886e-038
-81.272713 320.6384 14.852414 2.3509886e-038
-76.209198 319.47342 14.798451 2.3509886e-038
-71.508469 319.77521 14.812429 9.1476764e-041
-71.477364 319.78467 14.812869 9.1476764e-041
-67.456581 321.00366 14.869335 9.1476764e-041
-67.001869 321.05045 14.8715 9.1476764e-041
-61.968475 319.80334 14.813734 9.1476764e-041
-56.874203 318.00778 14.730559 9.1476764e-041
-51.989971 317.16663 14.691597 9.1476764e-041
-47.220001 316.92383 14.68035 9.1476764e-041
-45.601444 317.14471 14.690582 9.1476764e-041
-143.78192 337.96295 10.610725 2.3509528e-038
-140.13425 335.53098 10.53437 2.3509886e-038
-133.47749 331.43671 10.405827 2.3509886e-038
-127.39159 328.4993 10.313603 2.3509886e-038
-121.85086 326.78876 10.259899 2.3509886e-038
-116.4988 325.46274 10.218267 2.3509886e-038
-111.3063 324.48642 10.187614 2.3509886e-038
-106.29488 323.97321 10.171502 2.3509886e-038
-101.30445 323.47812 10.155958 2.3509886e-038
-96.253967 322.73209 10.132535 2.3509886e-038
-91.217712 321.95773 10.108224 2.3509886e-038
-86.211449 321.20898 10.084716 2.3509886e-038
-81.139938 320.11459 10.050356 2.3509886e-038
-76.122467 319.10986 10.018811 2.3509886e-038
-71.301781 318.85092 10.010682 9.1476764e-041
-66.567421 318.96869 10.01438 9.1476764e-041
-61.634033 318.07739 9.9863958 9.1476764e-041
-56.703907 317.05554 9.9543142 9.1476764e-041
-51.92527 316.77191 9.9454098 9.1476764e-041
-47.661598 317.48288 9.9677315 9.1476764e-041
-141.60953 336.36844 5.5402884 2.3509886e-038
-140.09828 335.44485 5.5250764 2.3509886e-038
-133.83934 332.33521 5.4738574 2.3509886e-038
-127.92386 329.8718 5.4332829 2.3509886e-038
-122.238 327.827 5.3996034 2.3509886e-038
-116.66568 325.92892 5.3683405 2.3509886e-038
-111.33672 324.5751 5.3460417 2.3509886e-038
-106.22741 323.76758 5.3327408 2.3509886e-038
-101.17383 323.061 5.3211031 2.3509886e-038
-96.122246 322.29041 5.3084106 2.3509886e-038
-91.12587 321.63358 5.2975917 2.3509886e-038
-86.139992 320.94272 5.2862129 2.3509886e-038
-81.117958 320.02786 5.2711444 2.3509886e-038
-76.145981 319.20844 5.257648 2.3509886e-038
-71.264038 318.68213 5.2489791 9.1476764e-041
-66.398697 318.16022 5.2403827 9.1476764e-041
-61.525826 317.51895 5.2298207 9.1476764e-041
-56.69907 317.02853 5.2217426 9.1476764e-041
-52.005383 317.26065 5.2255664 9.1476764e-041
-49.410042 318.37234 5.2438765 9.1476764e-041
-140.04155 335.95316 0.51927036 2.3509886e-038
-134.23161 333.30927 0.51518387 2.3509886e-038
-128.30591 330.85696 0.51139343 2.3509886e-038
-122.46429 328.4339 0.50764817 2.3509886e-038
-116.77757 326.24149 0.50425941 2.3509886e-038
-111.44482 324.89023 0.5021708 2.3509886e-038
-106.25766 323.85974 0.50057811 2.3509886e-038
-101.10354 322.83658 0.49899659 2.3509886e-038
-96.019531 321.94601 0.49762008 2.3509886e-038
-91.020714 321.26242 0.49656343 2.3509886e-038
-86.013565 320.47168 0.49534127 2.3509886e-038
-81.020073 319.64169 0.49405837 2.3509886e-038
-76.109047 319.05359 0.4931494 2.3509886e-038
-71.248528 318.61279 0.492468 2.3509886e-038
-66.361839 317.98361 0.49149555 9.1476764e-041
-61.512718 317.45132 0.49067283 9.1476764e-041
-56.717045 317.12903 0.49017462 9.1476764e-041
-52.064301 317.62006 0.4909336 9.1476764e-041
-50.599583 318.55832 0.49238384 9.1476764e-041
-139.55795 337.56766 -4.516521 2.3509886e-038
-134.72594 334.53674 -4.4759684 2.3509886e-038
-128.51967 331.4082 -4.4341097 2.3509886e-038
-122.53864 328.63327 -4.3969827 2.3509886e-038
-116.77867 326.2446 -4.3650227 2.3509886e-038
-111.46252 324.94183 -4.3475924 2.3509886e-038
-106.2233 323.75504 -4.3317137 2.3509886e-038
-101.01378 322.54996 -4.3155899 2.3509886e-038
-95.929466 321.64407 -4.3034692 2.3509886e-038
-90.935188 320.96054 -4.2943244 2.3509886e-038
-85.943298 320.2099 -4.2842808 2.3509886e-038
-80.963333 319.41785 -4.2736831 2.3509886e-038
-76.052834 318.81793 -4.2656569 2.3509886e-038
-71.189346 318.34814 -4.2593713 2.3509886e-038
-66.311142 317.74069 -4.2512436 2.3509886e-038
-61.477291 317.26849 -4.244926 9.1476764e-041
-56.724052 317.16821 -4.2435842 9.1476764e-041
-52.125351 317.99252 -4.2546129 9.1476764e-041
-51.301323 318.61548 -4.262948 9.1476764e-041
-138.68282 336.9136 -9.5362835 2.3509886e-038
-134.57739 334.16788 -9.4585648 2.3509886e-038
-128.42114 331.15414 -9.3732615 2.3509886e-038
-122.53719 328.62939 -9.3017998 2.3509886e-038
-116.77991 326.24808 -9.2343969 2.3509886e-038
-111.439 324.87326 -9.1954823 2.3509886e-038
-106.17922 323.62067 -9.1600285 2.3509886e-038
-100.96417 322.39157 -9.1252384 2.3509886e-038
-95.885872 321.49789 -9.0999432 2.3509886e-038
-90.927086 320.93198 -9.0839252 2.3509886e-038
-86.036995 320.55899 -9.0733681 2.3509886e-038
-81.092857 319.92883 -9.0555305 2.3509886e-038
-76.130013 319.14148 -9.0332451 2.3509886e-038
-71.2136 318.45663 -9.0138607 2.3509886e-038
-66.338509 317.8718 -8.9973068 2.3509886e-038
-61.524296 317.51105 -8.9870958 2.3509886e-038
-56.852139 317.8844 -8.9976635 2.3509886e-038
-52.3909 319.61249 -9.0465775 2.3509886e-038
-51.85191 320.16324 -9.0621662 2.3509886e-038
-190.86147 326.57941 -14.118049 3.5733111e-043
-189.89677 326.38022 -14.109436 3.5733111e-043
-183.97072 324.51965 -14.029005 3.5733111e-043
-178.14046 322.73203 -13.951725 3.5733111e-043
-172.99763 322.12509 -13.925487 3.5733111e-043
-168.7021 322.29257 -13.932727 3.5733111e-043
-138.55118 335.99228 -14.524966 2.3509886e-038
-134.173 333.1637 -14.402687 2.3509886e-038
-128.17854 330.52853 -14.288768 2.3509886e-038
-122.45277 328.40298 -14.196881 2.3509886e-038
-116.75006 326.16467 -14.100119 2.3509886e-038
-111.37809 324.69568 -14.036613 2.3509886e-038
-106.15107 323.53488 -13.986432 2.3509886e-038
-100.97428 322.42389 -13.938404 2.3509886e-038
-95.892975 321.5217 -13.899403 2.3509886e-038
-90.966675 321.07169 -13.879949 2.3509886e-038
-86.177345 321.08191 -13.880391 2.3509886e-038
-81.296181 320.73099 -13.865219 2.3509886e-038
-76.317673 319.92816 -13.830514 2.3509886e-038
-71.358444 319.10431 -13.794899 2.3509886e-038
-66.466179 318.48358 -13.768064 2.3509886e-038
-61.642609 318.12164 -13.752418 2.3509886e-038
-56.98341 318.61838 -13.773892 2.3509886e-038
-52.565376 320.67688 -13.862882 2.3509886e-038
-52.11174 321.18594 -13.884888 2.3509886e-038
-190.36124 325.49826 -18.929457 3.5733111e-043
-189.34961 325.43979 -18.926056 3.5733111e-043
-183.90834 324.40964 -18.866148 3.5733111e-043
-178.29816 323.01776 -18.7852 3.5733111e-043
-173.05917 322.23965 -18.739952 3.5733111e-043
-167.99088 321.74399 -18.711126 3.5733111e-043
-162.93614 321.24591 -18.682159 3.5733111e-043
-160.97388 321.35303 -18.688389 3.5733111e-043
-140.37111 337.052 -19.601368 2.3509886e-038
-134.0341 332.81882 -19.355185 2.3509886e-038
-127.94457 329.92523 -19.186909 2.3509886e-038
-122.22211 327.78442 -19.062408 2.3509886e-038
-116.60618 325.7627 -18.944836 2.3509886e-038
-111.26018 324.35193 -18.862791 2.3509886e-038
-106.11253 323.41739 -18.808443 2.3509886e-038
-101.01196 322.54416 -18.75766 2.3509886e-038
-95.948616 321.70825 -18.709049 2.3509886e-038
-91.027611 321.28677 -18.684536 2.3509886e-038
-86.249214 321.34967 -18.688194 2.3509886e-038
-81.427696 321.24985 -18.682388 2.3509886e-038
-76.507256 320.7229 -18.651745 2.3509886e-038
-71.548172 319.95276 -18.606956 2.3509886e-038
-66.613037 319.18726 -18.562437 2.3509886e-038
-61.737171 318.60965 -18.528847 2.3509886e-038
-56.977524 318.58548 -18.527443 2.3509886e-038
-52.40337 319.6886 -18.591595 2.3509886e-038
-51.938675 320.06351 -18.613396 2.3509886e-038
-189.52661 329.14368 -24.054014 3.5733111e-043
-185.94214 327.99719 -23.97023 3.5733111e-043
-180.06239 326.21396 -23.839911 3.5733111e-043
-174.4032 324.74222 -23.732355 3.5733111e-043
-168.8399 323.37009 -23.632078 3.5733111e-043
-163.49506 322.34784 -23.557373 3.5733111e-043
-158.7572 322.49673 -23.568253 3.5733111e-043
-154.9444 323.36139 -23.631443 2.3509886e-038
-143.10887 336.39627 -24.584038 2.3509886e-038
-139.90074 334.97186 -24.479942 2.3509886e-038
-133.56874 331.66324 -24.238148 2.3509886e-038
-127.53174 328.86066 -24.033333 2.3509886e-038
-121.82301 326.71408 -23.876459 2.3509886e-038
-116.35771 325.06857 -23.756203 2.3509886e-038
-111.11113 323.91742 -23.672075 2.3509886e-038
-106.05494 323.24188 -23.622709 2.3509886e-038
-101.05415 322.67889 -23.581564 2.3509886e-038
-96.061653 322.08728 -23.538328 2.3509886e-038
-91.150391 321.72012 -23.511497 2.3509886e-038
-86.337914 321.68015 -23.508577 2.3509886e-038
-81.549263 321.72946 -23.512178 2.3509886e-038
-76.686943 321.47617 -23.493668 2.3509886e-038
-71.723785 320.73807 -23.439728 2.3509886e-038
-66.729828 319.74689 -23.36729 2.3509886e-038
-61.802746 318.94806 -23.308912 2.3509886e-038
-56.951874 318.44205 -23.271933 2.3509886e-038
-52.228821 318.62372 -23.28521 2.3509886e-038
-51.703869 318.89789 -23.305244 2.3509886e-038
-185.32176 332.18735 -29.234407 3.5733111e-043
-183.00165 331.53891 -29.177341 3.5733111e-043
-177.00536 329.58752 -29.005608 3.5733111e-043
-170.5882 326.71851 -28.753117 3.5733111e-043
-164.55127 324.43033 -28.551744 3.5733111e-043
-159.51904 324.04431 -28.517773 3.5733111e-043
-154.72183 324.1265 -28.525003 3.5733111e-043
-150.41106 325.26587 -28.625278 3.5733111e-043
-146.77628 327.99194 -28.865187 2.3509886e-038
-143.00838 330.59833 -29.094564 2.3509886e-038
-138.02362 330.47739 -29.083921 2.3509886e-038
-132.50604 329.02451 -28.956057 2.3509886e-038
-126.8679 327.14886 -28.790991 2.3509886e-038
-121.30309 325.31967 -28.630013 2.3509886e-038
-115.97891 324.01031 -28.51478 2.3509886e-038
-110.88665 323.26303 -28.449015 2.3509886e-038
-105.95002 322.92212 -28.419012 2.3509886e-038
-101.05948 322.69592 -28.399107 2.3509886e-038
-96.170113 322.45093 -28.377546 2.3509886e-038
-91.308342 322.27762 -28.362293 2.3509886e-038
-86.493065 322.25824 -28.360588 2.3509886e-038
-81.720612 322.40546 -28.373545 2.3509886e-038
-76.874657 322.26306 -28.361013 2.3509886e-038
-71.882675 321.44861 -28.289335 2.3509886e-038
-66.83213 320.23709 -28.182716 2.3509886e-038
-61.874985 319.32089 -28.102085 2.3509886e-038
-56.990501 318.65802 -28.043749 2.3509886e-038
-52.237251 318.67517 -28.045256 2.3509886e-038
-51.536537 319.03973 -28.077341 2.3509886e-038
-178.63896 333.47815 -34.325253 3.5733111e-043
-171.90488 329.2403 -33.88905 3.5733111e-043
-165.45656 326.21521 -33.577675 3.5733111e-043
-160.2188 325.46576 -33.50053 3.5733111e-043
-155.21078 325.15079 -33.468109 3.5733111e-043
-150.43909 325.32651 -33.486198 3.5733111e-043
-145.86586 325.95749 -33.551144 2.3509886e-038
-141.17834 326.36774 -33.593372 2.3509886e-038
-136.30727 326.36783 -33.593384 2.3509886e-038
-131.29369 326.0141 -33.556973 2.3509886e-038
-126.10127 325.17197 -33.470291 2.3509886e-038
-120.80411 323.98151 -33.347752 2.3509886e-038
-115.60458 322.96454 -33.24308 2.3509886e-038
-110.63044 322.51608 -33.196918 2.3509886e-038
-105.78349 322.41452 -33.186462 2.3509886e-038
-100.97424 322.42371 -33.187408 2.3509886e-038
-96.185608 322.50287 -33.19556 2.3509886e-038
-91.420227 322.67252 -33.21302 2.3509886e-038
-86.64933 322.84042 -33.230301 2.3509886e-038
-81.873283 323.00775 -33.247528 2.3509886e-038
-77.002533 322.7991 -33.226051 2.3509886e-038
-71.98333 321.89871 -33.133369 2.3509886e-038
-66.911591 320.61786 -33.00153 2.3509886e-038
-61.953259 319.72482 -32.909611 2.3509886e-038
-57.10622 319.30505 -32.866402 2.3509886e-038
-52.523853 320.42361 -32.981537 2.3509886e-038
-51.476158 321.48254 -33.090534 2.3509886e-038
-169.14966 329.61093 -38.846729 3.5733111e-043
-166.83356 328.93008 -38.766483 3.5733111e-043
-161.50189 328.07224 -38.665379 3.5733111e-043
-156.18137 327.18408 -38.560707 3.5733111e-043
-150.97456 326.48447 -38.478256 3.5733111e-043
-145.76881 325.74063 -38.390587 3.5733111e-043
-140.45331 324.69165 -38.26696 2.3509886e-038
-135.40733 324.21304 -38.210556 2.3509886e-038
-130.45335 323.92749 -38.176899 2.3509886e-038
-125.45757 323.51212 -38.127945 2.3509886e-038
-120.37287 322.82495 -38.046955 2.3509886e-038
-115.27071 322.0318 -37.953476 2.3509886e-038
-110.35059 321.70026 -37.914402 2.3509886e-038
-105.58271 321.80258 -37.926464 2.3509886e-038
-100.8717 322.09631 -37.961086 2.3509886e-038
-96.197449 322.54257 -38.01368 2.3509886e-038
-91.558586 323.16086 -38.086544 2.3509886e-038
-86.857681 323.61673 -38.140274 2.3509886e-038
-82.060539 323.74652 -38.155571 2.3509886e-038
-77.135818 323.35785 -38.109764 2.3509886e-038
-72.08551 322.35562 -37.991642 2.3509886e-038
-67.003754 321.05948 -37.838882 2.3509886e-038
-62.053024 320.23969 -37.742268 2.3509886e-038
-57.278404 320.26782 -37.745583 2.3509886e-038
-52.925011 322.87085 -38.052364 2.3509886e-038
-51.372032 325.48889 -38.36092 2.3509886e-038
-165.21439 333.81259 -44.324139 3.5733111e-043
-164.10652 333.36322 -44.264473 3.5733111e-043
-157.93106 330.84949 -43.930695 3.5733111e-043
-152.03169 328.77051 -43.654644 3.5733111e-043
-146.24236 326.7988 -43.392838 3.5733111e-043
-140.46445 324.71741 -43.116467 3.5733111e-043
-135.18018 323.66916 -42.97728 2.3509886e-038
-130.10078 323.05203 -42.895332 2.3509886e-038
-125.0564 322.47763 -42.819069 2.3509886e-038
-119.99251 321.80487 -42.729736 2.3509886e-038
-114.9338 321.09058 -42.634888 2.3509886e-038
-110.04393 320.80627 -42.597137 2.3509886e-038
-105.38136 321.1889 -42.647945 2.3509886e-038
-100.8222 321.93823 -42.747444 2.3509886e-038
-96.296249 322.87387 -42.871677 2.3509886e-038
-91.786308 323.96463 -43.016514 2.3509886e-038
-87.151329 324.71078 -43.115585 2.3509886e-038
-82.341866 324.85645 -43.134926 2.3509886e-038
-77.368492 324.33325 -43.06546 2.3509886e-038
-72.275307 323.20438 -42.915565 2.3509886e-038
-67.167305 321.84314 -42.734818 2.3509886e-038
-62.217812 321.09012 -42.63483 2.3509886e-038
-57.501041 321.51266 -42.690937 2.3509886e-038
-53.253368 324.87402 -43.13726 2.3509886e-038
-51.311359 328.61917 -43.634548 2.3509886e-038
-161.4903 336.18085 -49.656181 3.5733111e-043
-160.00122 335.18628 -49.509281 3.5733111e-043
-153.18013 331.25406 -48.928467 3.5733111e-043
-146.75919 327.95374 -48.440983 3.5733111e-043
-140.633 325.10706 -48.020512 3.5733111e-043
-135.14423 323.58307 -47.795406 2.3509886e-038
-129.95467 322.68921 -47.66338 2.3509886e-038
-124.81801 321.86292 -47.541328 2.3509886e-038
-119.68668 320.98468 -47.41161 2.3509886e-038
-114.63224 320.24814 -47.302811 2.3509886e-038
-109.78116 320.04022 -47.272106 2.3509886e-038
-105.18503 320.59052 -47.353386 2.3509886e-038
-100.73617 321.66354 -47.511879 2.3509886e-038
-96.347694 323.04636 -47.716129 2.3509886e-038
-91.946869 324.53134 -47.935474 2.3509886e-038
-87.35672 325.47604 -48.075012 2.3509886e-038
-82.572571 325.76663 -48.117931 2.3509886e-038
-77.605675 325.32751 -48.053074 2.3509886e-038
-72.499092 324.20511 -47.887283 2.3509886e-038
-67.385391 322.88812 -47.69276 2.3509886e-038
-62.444851 322.26181 -47.600246 2.3509886e-038
-57.756725 322.94232 -47.700764 2.3509886e-038
-53.532196 326.57501 -48.237339 2.3509886e-038
-51.466335 330.76413 -48.856102 2.3509886e-038
-156.54143 334.98151 -54.478725 3.5733111e-043
-154.10452 333.25302 -54.197617 3.5733111e-043
-147.20143 328.94199 -53.496506 3.5733111e-043
-140.89874 325.72141 -52.972733 3.5733111e-043
-135.17937 323.66727 -52.638664 2.3509886e-038
-129.82224 322.36035 -52.426121 2.3509886e-038
-124.60222 321.30643 -52.254719 2.3509886e-038
-119.43779 320.3172 -52.093838 2.3509886e-038
-114.40427 319.61124 -51.979027 2.3509886e-038
-109.61519 319.5564 -51.970104 2.3509886e-038
-105.02036 320.08862 -52.056664 2.3509886e-038
-100.57584 321.15155 -52.22953 2.3509886e-038
-96.25779 322.7449 -52.488659 2.3509886e-038
-91.943558 324.51962 -52.777287 2.3509886e-038
-87.393021 325.61133 -52.95483 2.3509886e-038
-82.639969 326.03253 -53.023331 2.3509886e-038
-77.707474 325.75427 -52.978085 2.3509886e-038
-72.62925 324.78717 -52.820797 2.3509886e-038
-67.534645 323.6033 -52.628265 2.3509886e-038
-62.596859 323.04626 -52.537674 2.3509886e-038
-57.910851 323.80411 -52.660919 2.3509886e-038
-53.680141 327.47754 -53.258339 2.3509886e-038
-51.492764 332.13632 -54.01601 2.3509886e-038
-150.69221 331.98358 -58.946087 3.5733111e-043
-147.83636 330.36087 -58.657959 3.5733111e-043
-141.69261 327.55661 -58.160046 3.5733111e-043
-135.7 324.91382 -57.6908 2.3509886e-038
-130.00548 322.81537 -57.318199 2.3509886e-038
-124.63859 321.40024 -57.066933 2.3509886e-038
-119.44479 320.336 -56.877972 2.3509886e-038
-114.38172 319.54825 -56.738102 2.3509886e-038
-109.59069 319.48495 -56.72686 2.3509886e-038
-104.92953 319.8118 -56.784893 2.3509886e-038
-100.4306 320.68781 -56.940437 2.3509886e-038
-96.128151 322.31024 -57.228512 2.3509886e-038
-91.850937 324.19272 -57.562763 2.3509886e-038
-87.332565 325.38605 -57.774643 2.3509886e-038
-82.590874 325.83881 -57.855038 2.3509886e-038
-77.686287 325.66547 -57.824257 2.3509886e-038
-72.668022 324.96057 -57.699097 2.3509886e-038
-67.624153 324.0322 -57.53426 2.3509886e-038
-62.69989 323.57803 -57.453617 2.3509886e-038
-58.042751 324.5416 -57.62471 2.3509886e-038
-53.887615 328.74329 -58.370747 2.3509886e-038
-50.906868 335.58118 -59.584866 2.3509886e-038
-146.00909 332.08713 -63.920959 2.3509886e-038
-143.13754 330.89691 -63.69186 2.3509886e-038
-136.78484 327.51132 -63.040188 2.3509886e-038
-130.72023 324.59015 -62.477921 2.3509886e-038
-125.21179 322.87833 -62.148426 2.3509886e-038
-119.94811 321.68582 -61.918888 2.3509886e-038
-114.7401 320.54947 -61.700157 2.3509886e-038
-109.80928 320.12222 -61.61792 2.3509886e-038
-104.98895 319.99289 -61.593029 2.3509886e-038
-100.38565 320.54428 -61.699158 2.3509886e-038
-96.054741 322.06409 -61.991699 2.3509886e-038
-91.776573 323.93027 -62.350903 2.3509886e-038
-87.302979 325.27582 -62.609898 2.3509886e-038
-82.580917 325.79956 -62.710709 2.3509886e-038
-77.698303 325.71585 -62.694595 2.3509886e-038
-72.741112 325.28741 -62.612133 2.3509886e-038
-67.757225 324.66983 -62.493256 2.3509886e-038
-62.852406 324.36511 -62.434601 2.3509886e-038
-58.241379 325.65222 -62.682346 2.3509886e-038
-54.183052 330.54556 -63.624233 2.3509886e-038
-50.416687 338.37881 -65.131996 2.3509886e-038
-48.820179 341.49991 -65.73275 2.3509886e-038
-141.06909 332.35324 -68.93264 2.3509886e-038
-137.92014 330.22961 -68.49218 2.3509886e-038
-131.80429 327.28198 -67.880821 2.3509886e-038
-126.37428 325.87598 -67.589203 2.3509886e-038
-121.00459 324.51917 -67.307793 2.3509886e-038
-115.56523 322.85461 -66.962547 2.3509886e-038
-110.4062 321.8624 -66.756752 2.3509886e-038
-105.36812 321.14856 -66.608696 2.3509886e-038
-100.59722 321.21985 -66.623497 2.3509886e-038
-96.173637 322.46274 -66.881279 2.3509886e-038
-91.873108 324.271 -67.256317 2.3509886e-038
-87.450996 325.8273 -67.579109 2.3509886e-038
-82.766609 326.53214 -67.725296 2.3509886e-038
-77.905014 326.58237 -67.735718 2.3509886e-038
-72.979042 326.35138 -67.687813 2.3509886e-038
-68.022018 325.93863 -67.602203 2.3509886e-038
-63.12521 325.77295 -67.567833 2.3509886e-038
-58.544044 327.34454 -67.893799 2.3509886e-038
-54.488781 332.41071 -68.944557 2.3509886e-038
-50.671471 340.08884 -70.537071 2.3509886e-038
-46.551147 347.21628 -72.01535 2.3509886e-038
-45.346954 349.14352 -72.415077 2.3509886e-038
-134.69101 330.69382 -73.524155 2.3509886e-038
-133.07903 330.44727 -73.46933 2.3509886e-038
-128.01183 330.09863 -73.391823 2.3509886e-038
-122.53775 328.63089 -73.065498 2.3509886e-038
-116.90796 326.6058 -72.61525 2.3509886e-038
-111.57989 325.28397 -72.321365 2.3509886e-038
-106.38679 324.25333 -72.092216 2.3509886e-038
-101.43216 323.88593 -72.010529 2.3509886e-038
-96.819794 324.62927 -72.175812 2.3509886e-038
-92.397682 326.1225 -72.507797 2.3509886e-038
-87.931412 327.61725 -72.840134 2.3509886e-038
-83.231476 328.36615 -73.006638 2.3509886e-038
-78.370964 328.53568 -73.044327 2.3509886e-038
-73.448647 328.45135 -73.025581 2.3509886e-038
-68.480354 328.13483 -72.955208 2.3509886e-038
-63.597172 328.20865 -72.971619 2.3509886e-038
-59.055679 330.20532 -73.41555 2.3509886e-038
-54.96637 335.32425 -74.55365 2.3509886e-038
-51.054157 342.65729 -76.184029 2.3509886e-038
-46.888065 349.72928 -77.756363 2.3509886e-038
-42.433098 356.14865 -79.183609 2.3509886e-038
-41.150681 357.83475 -79.558479 2.3509886e-038
-129.77927 335.98972 -79.716316 2.3509886e-038
-124.81228 334.7309 -79.417656 2.3509886e-038
-119.2401 333.12109 -79.035713 2.3509886e-038
-113.8373 331.86493 -78.737679 2.3509886e-038
-108.42753 330.47324 -78.407486 2.3509886e-038
-103.17751 329.45905 -78.166862 2.3509886e-038
-98.222855 329.33362 -78.1371 2.3509886e-038
-93.462151 329.87958 -78.26664 2.3509886e-038
-88.790733 330.81891 -78.489502 2.3509886e-038
-84.038315 331.54932 -78.662796 2.3509886e-038
-79.197495 332.00055 -78.769852 2.3509886e-038
-74.288002 332.20486 -78.818336 2.3509886e-038
-69.314728 332.13284 -78.801247 2.3509886e-038
-64.434616 332.53049 -78.895592 2.3509886e-038
-59.841843 334.60107 -79.386856 2.3509886e-038
-55.55204 338.89713 -80.406128 2.3509886e-038
-51.380234 344.84579 -81.817497 2.3509886e-038
-47.105042 351.34766 -83.360115 2.3509886e-038
-42.658859 358.04349 -84.948753 2.3509886e-038
-37.990223 364.52252 -86.485962 2.3509886e-038
-36.903172 366.01218 -86.839394 2.3509886e-038
-122.46456 342.81671 -86.452705 2.3509886e-038
-117.2083 341.69223 -86.169128 2.3509886e-038
-111.37396 339.45358 -85.604576 2.3509886e-038
-105.66492 337.4017 -85.087128 2.3509886e-038
-100.31143 336.33643 -84.818489 2.3509886e-038
-95.149529 335.8353 -84.692116 2.3509886e-038
-90.209412 336.10471 -84.760048 2.3509886e-038
-85.374435 336.82059 -84.940582 2.3509886e-038
-80.525261 337.56662 -85.128716 2.3509886e-038
-75.569397 337.93509 -85.221642 2.3509886e-038
-70.510544 337.86282 -85.203415 2.3509886e-038
-65.539001 338.22992 -85.295998 2.3509886e-038
-60.759888 339.73425 -85.675369 2.3509886e-038
-56.140503 342.48706 -86.369576 2.3509886e-038
-51.610924 346.39413 -87.354866 2.3509886e-038
-47.146088 351.65381 -88.681282 2.3509886e-038
-42.722137 358.57458 -90.42659 2.3509886e-038
-38.152912 366.0835 -92.320206 2.3509886e-038
-33.256344 372.43701 -93.922455 2.3509886e-038
-32.698975 373.00745 -94.066315 2.3509886e-038
-107.73216 345.70929 -92.341949 2.3509886e-038
-102.7159 344.39844 -91.991814 2.3509886e-038
-97.489746 344.09521 -91.91082 2.3509886e-038
-92.466866 344.51559 -92.023102 2.3509886e-038
-87.63829 345.75198 -92.353348 2.3509886e-038
-82.719833 346.76639 -92.624306 2.3509886e-038
-77.500298 346.56976 -92.571793 2.3509886e-038
-72.125595 345.60159 -92.313187 2.3509886e-038
-66.870476 345.10132 -92.179558 2.3509886e-038
-61.766888 345.36484 -92.249947 2.3509886e-038
-56.777985 346.37607 -92.52005 2.3509886e-038
-51.891415 348.27667 -93.027725 2.3509886e-038
-47.150463 351.68646 -93.938499 2.3509886e-038
-42.620869 357.72464 -95.551353 2.3509886e-038
-38.063354 365.22421 -97.554558 2.3509886e-038
-33.189812 371.69189 -99.282127 2.3509886e-038
-29.028658 375.13116 -100.20079 2.3509886e-038
-96.576881 356.83386 -100.63927 2.3509886e-038
-95.832382 357.05493 -100.70161 2.3509886e-038
-91.070801 359.29398 -101.3331 2.3509886e-038
-85.908699 360.13431 -101.5701 2.3509886e-038
-80.100212 358.19617 -101.02348 2.3509886e-038
-74.236244 355.71509 -100.32374 2.3509886e-038
-68.543579 353.73575 -99.765488 2.3509886e-038
-63.007183 352.29987 -99.360527 2.3509886e-038
-57.631805 351.58481 -99.158852 2.3509886e-038
-52.413284 351.7793 -99.213699 2.3509886e-038
-47.35033 353.17722 -99.607964 2.3509886e-038
-42.547634 357.10999 -100.71714 2.3509886e-038
-37.84016 363.08261 -102.40162 2.3509886e-038
-32.979057 369.33167 -104.16406 2.3509886e-038
-27.833544 374.26462 -105.55534 2.3509886e-038
-27.277603 374.68073 -105.67268 2.3509886e-038
-87.380516 372.96771 -110.7562 2.3509886e-038
-82.653099 369.61234 -109.75978 2.3509886e-038
-76.506416 366.59302 -108.86316 2.3509886e-038
-70.462914 363.64096 -107.98653 2.3509886e-038
-64.49659 360.62778 -107.09174 2.3509886e-038
-58.746319 358.38394 -106.42542 2.3509886e-038
-53.216007 357.16687 -106.06399 2.3509886e-038
-47.842186 356.84589 -105.96867 2.3509886e-038
-42.708332 358.45877 -106.44762 2.3509886e-038
-37.708801 361.82217 -107.44643 2.3509886e-038
-32.713017 366.35223 -108.79166 2.3509886e-038
-28.044403 370.84378 -110.12547 2.3509886e-038
-76.933838 375.32965 -117.05949 2.3509886e-038
-72.186455 372.53571 -116.1881 2.3509886e-038
-65.898422 368.46597 -114.91881 2.3509886e-038
-59.84798 365.10468 -113.87048 2.3509886e-038
-54.038433 362.68671 -113.11635 2.3509886e-038
-48.429043 361.22314 -112.65988 2.3509886e-038
-43.040974 361.25067 -112.66847 2.3509886e-038
-37.755207 362.26746 -112.9856 2.3509886e-038
-32.538113 364.39352 -113.64868 2.3509886e-038
-32.183662 364.60852 -113.71574 2.3509886e-038
-190.50383 327.42358 -12.890477 3.5733111e-043
-190.15222 326.81927 -21.233505 3.5733111e-043
-185.51633 327.24606 -10.425097 3.5733111e-043
-187.48648 330.72137 -26.830566 3.5733111e-043
-178.97774 324.2489 -10.453234 3.5733111e-043
-183.92671 333.21481 -30.724039 3.5733111e-043
-173.30078 322.68954 -11.76725 3.5733111e-043
-179.20082 333.67554 -34.054966 3.5733111e-043
-168.24425 322.22928 -14.166607 3.5733111e-043
-172.52652 330.43091 -36.891262 3.5733111e-043
-162.97803 321.32849 -17.271761 3.5733111e-043
-167.6203 330.48123 -40.43343 3.5733111e-043
-158.4993 321.97284 -20.687546 3.5733111e-043
-164.66176 334.49115 -45.242233 3.5733111e-043
-154.46794 323.59464 -24.008892 2.3509886e-038
-160.44945 336.12524 -50.797894 3.5733111e-043
-153.41843 331.76935 76.404037 2.3509528e-038
-153.58243 332.12402 46.026287 2.3509528e-038
-150.61604 325.7092 -26.672924 2.3509886e-038
-154.39955 333.89105 -56.159576 3.5733111e-043
-147.10254 328.72098 70.649178 2.3509528e-038
-148.58537 332.03461 29.824354 2.3509528e-038
-147.13388 328.79105 -27.829586 2.3509886e-038
-148.37621 331.5672 -61.13728 3.5733111e-043
-140.22688 324.16824 58.574154 2.3509528e-038
-144.76125 334.65051 17.748686 2.3509528e-038
-144.43962 333.90698 -26.608536 2.3509886e-038
-143.97789 332.8396 -66.431664 2.3509886e-038
-134.93188 323.07468 49.425373 2.3509886e-038
-140.24623 335.7991 1.5373569 2.3509886e-038
-140.82431 337.18326 -20.605789 2.3509886e-038
-138.29399 331.12476 -70.723549 2.3509886e-038
-130.93304 325.11859 39.364338 2.3509886e-038
-133.44843 331.3645 -74.829605 2.3509886e-038
-126.2705 325.60837 28.645708 2.3509886e-038
-130.14101 335.58908 -79.292625 2.3509886e-038
-121.4566 325.73135 22.292156 2.3509886e-038
-126.37912 338.93295 -83.049377 2.3509886e-038
-117.72529 328.88916 21.522974 2.3509886e-038
-122.64613 342.63654 -86.31572 2.3509886e-038
-115.5457 336.84534 94.820755 2.3418052e-038
-118.61399 345.79019 -88.929634 2.3509886e-038
-109.98291 335.21384 92.626488 2.3418052e-038
-113.53604 346.04333 -90.572182 2.3509886e-038
-103.21107 329.56622 67.020363 2.3418409e-038
-108.24789 345.64941 -92.139191 2.3509886e-038
-99.402786 333.28983 41.207729 2.3418409e-038
-103.60745 347.38776 -94.49501 2.3509886e-038
-94.784256 334.54602 45.22311 2.3418409e-038
-99.666145 351.77692 -97.606064 2.3509886e-038
-90.906418 338.7016 87.381462 2.3418409e-038
-96.053802 357.87988 -101.22778 2.3509886e-038
-84.31102 332.62518 88.366264 2.3418409e-038
-92.876457 366.41766 -105.76939 2.3509886e-038
-77.789818 326.09949 79.891731 2.3418409e-038
-88.870804 372.55161 -109.90952 2.3509886e-038
-71.510017 319.78214 14.836456 9.1476764e-041
-83.413918 373.01456 -112.7019 2.3509886e-038
-67.030312 321.18671 15.117023 9.1476764e-041
-78.246307 374.92999 -116.24656 2.3509886e-038
-62.386086 321.95856 18.819624 9.1476764e-041
-72.656921 374.96371 -118.75529 2.3509886e-038
-57.716026 322.71475 24.787325 9.1476764e-041
-66.611259 372.45175 -119.64124 2.3509886e-038
-52.962868 323.10181 32.074009 9.1476764e-041
-60.601883 369.70389 -119.91333 2.3509886e-038
-47.319809 317.59366 39.575825 9.1476764e-041
-47.278599 317.31711 10.887245 9.1476764e-041
-50.325951 337.76984 -61.88345 2.3509886e-038
-54.672974 366.9455 -119.72906 2.3509886e-038
-42.564785 317.4827 47.991463 9.1476764e-041
-42.259247 315.2038 20.911224 9.1476764e-041
-46.459347 346.53156 -70.321182 2.3509886e-038
-48.923492 364.91113 -119.22012 2.3509886e-038
-38.038994 319.26816 53.653973 9.1476764e-041
-36.903233 309.7355 30.389067 2.3509886e-038
-42.365353 355.58005 -77.574028 2.3509886e-038
-43.34948 363.84003 -118.21862 2.3509886e-038
-33.169273 318.26468 53.011864 9.1476764e-041
-32.823181 314.94388 42.291328 9.1476764e-041
-37.925133 363.89792 -85.001801 2.3509886e-038
-37.847153 363.14972 -116.41772 2.3509886e-038
-33.252541 372.39438 -93.14827 2.3509886e-038
-32.534309 364.35092 -113.91931 2.3509886e-038
-27.906816 375.24988 -102.8734 2.3509886e-038
-27.668505 372.04544 -109.11066 2.3509886e-038
