# .PCD v0.7 - Point Cloud Data file format
VERSION 0.7
FIELDS x y z rgb
SIZE 4 4 4 4
TYPE F F F F
COUNT 1 1 1 1
WIDTH 649
HEIGHT 1
VIEWPOINT 0 0 0 1 0 0 0
POINTS 649
DATA ascii
-63.342163 328.03052 69.521881 2.3418052e-038
0 0 0 2.3418409e-038
0 0 0 2.3418409e-038
-98.818909 361.75726 57.928322 2.3509528e-038
0 0 0 2.3418409e-038
-75.047516 336.92007 80.853729 2.3509886e-038
-70.173515 334.71729 80.325104 2.3418052e-038
-64.542343 330.30923 79.267273 2.3418052e-038
-63.46991 329.21426 79.004501 2.3418052e-038
-77.222702 338.43353 76.394135 2.3509886e-038
-75.563477 337.48697 76.180473 2.3509886e-038
-70.146667 334.5892 75.52636 2.3418052e-038
-64.412003 329.64218 74.409668 2.3418052e-038
-58.515953 323.02585 72.916183 2.3418052e-038
-53.035007 317.76688 71.72908 2.3418052e-038
-49.28257 316.57242 71.459457 2.3509886e-038
-77.654427 339.01285 71.693871 2.3509886e-038
-75.619301 337.7363 71.423904 2.3418052e-038
-70.164581 334.67468 70.776436 2.3418052e-038
-64.519997 330.19485 69.829048 2.3418052e-038
-58.728882 324.20126 68.561531 2.3418052e-038
-53.274071 319.19925 67.503723 2.3418052e-038
-48.50983 317.78726 67.205109 2.3509886e-038
-47.680737 317.88153 67.225044 2.3509886e-038
-77.989784 340.24106 67.105049 2.3509886e-038
-75.811813 338.5961 66.780617 2.3509886e-038
-70.261101 335.13504 66.098 2.3418052e-038
-64.68 331.0137 65.285156 2.3418052e-038
-58.94492 325.39386 64.176765 2.3418052e-038
-53.464806 320.34207 63.180408 2.3418052e-038
-48.623451 318.53162 62.823334 2.3418052e-038
-46.867279 318.67331 62.851288 2.3418052e-038
-102.90843 362.84772 66.393013 2.3509528e-038
-101.86765 362.64508 66.355934 2.3509528e-038
-99.52002 362.28812 66.290619 2.3509528e-038
-78.306114 341.58453 62.502323 2.3509886e-038
-76.001289 339.44235 62.110348 2.3509886e-038
-70.301476 335.32764 61.357449 2.3418052e-038
-64.691177 331.07092 60.578571 2.3418052e-038
-58.952789 325.43732 59.547745 2.3418052e-038
-53.464012 320.33731 58.614559 2.3418052e-038
-48.596958 318.35806 58.252399 2.3418052e-038
-46.345165 318.56747 58.290718 2.3418052e-038
-104.75264 361.99075 61.077717 2.3509528e-038
-101.36202 360.84506 60.884407 2.3509528e-038
-95.981514 359.95126 60.733601 2.3509528e-038
-95.563721 359.80194 60.708408 2.3509528e-038
-78.424782 342.10046 57.721687 2.3509886e-038
-75.999947 339.43634 57.272179 2.3509886e-038
-70.161598 334.6604 56.466343 2.3418052e-038
-64.477623 329.97803 55.676296 2.3418052e-038
-58.734047 324.22977 54.706413 2.3418052e-038
-53.306828 319.39554 53.890747 2.3418052e-038
-48.497513 317.70657 53.605774 2.3418052e-038
-46.304398 317.90125 53.638618 2.3418052e-038
-105.17654 361.7153 55.876675 2.3509528e-038
-101.0982 359.90585 55.59716 2.3509528e-038
-95.898094 359.6384 55.555843 2.3509528e-038
-93.299736 358.99176 55.455956 2.3509528e-038
-78.474907 342.30539 52.878296 2.3509886e-038
-75.906357 339.01837 52.370525 2.3509886e-038
-69.91024 333.46152 51.512123 2.3418052e-038
-64.141129 328.25595 50.707981 2.3418052e-038
-58.421448 322.50412 49.819458 2.3418052e-038
-53.104115 318.18094 49.151627 2.3418052e-038
-48.347248 316.72223 48.926281 2.3418052e-038
-46.67136 316.58813 48.905571 2.3418052e-038
-104.53682 359.8501 50.46056 2.3509528e-038
-100.68081 358.41995 50.26001 2.3509528e-038
-95.7948 359.25104 50.376549 2.3509528e-038
-91.685455 359.18414 50.367172 2.3509528e-038
-78.800873 343.46759 48.163296 2.3509886e-038
-75.996071 339.41907 47.595581 2.3509886e-038
-69.741325 332.65579 46.64719 2.3509886e-038
-63.833408 326.68112 45.80938 2.3418052e-038
-58.123222 320.85785 44.992809 2.3418052e-038
-52.884182 316.86319 44.432648 2.3418052e-038
-47.998138 314.43518 44.092178 2.3418052e-038
-46.853386 313.61072 43.976563 2.3418052e-038
-103.27129 357.1741 44.995468 2.3509528e-038
-100.12274 356.43326 44.902142 2.3509528e-038
-95.444916 357.9389 45.09182 2.3509528e-038
-90.554779 358.77335 45.196934 2.3509528e-038
-89.727997 358.42386 45.152908 2.3509528e-038
-79.435143 344.89362 43.448418 2.3509528e-038
-76.074631 339.76993 42.802956 2.3509886e-038
-69.623039 332.09158 41.835667 2.3509886e-038
-63.576206 325.36481 40.988251 2.3418052e-038
-57.855751 319.38132 40.234478 2.3418052e-038
-52.658962 315.51376 39.747253 2.3418052e-038
-47.590046 311.76181 39.274597 2.3418052e-038
-46.854851 310.83417 39.157738 2.3418052e-038
-102.06539 355.42255 39.709934 2.3509528e-038
-99.682968 354.86771 39.647942 2.3509528e-038
-94.930794 356.01083 39.775658 2.3509528e-038
-90.165611 357.23148 39.912033 2.3509528e-038
-85.445183 353.64365 39.511185 2.3509528e-038
-82.389923 349.3985 39.036888 2.3509528e-038
-76.092506 339.84976 37.970047 2.3509528e-038
-69.551117 331.7485 37.06493 2.3509886e-038
-63.395985 324.44247 36.248653 2.3418052e-038
-57.668694 318.34869 35.567822 2.3418052e-038
-52.494682 314.52945 35.141109 2.3418052e-038
-47.315823 309.96533 34.63118 2.3418052e-038
-46.705002 309.05511 34.529484 2.3418052e-038
-33.047432 284.05142 31.735924 2.3509886e-038
-31.008738 282.15991 31.524595 2.3509886e-038
-26.968611 279.56503 31.234678 2.3509886e-038
-101.07005 354.57501 34.56242 2.3509528e-038
-99.449783 354.03757 34.510033 2.3509528e-038
-94.504791 354.41321 34.54665 2.3509528e-038
-89.825134 355.88251 34.689869 2.3509528e-038
-83.68457 351.39322 34.252274 2.3509528e-038
-76.391129 341.1835 33.257076 2.3509528e-038
-69.66423 332.28806 32.389988 2.3509886e-038
-63.374096 324.33044 31.614315 2.3418052e-038
-57.655064 318.27347 31.023905 2.3418052e-038
-52.472679 314.39764 30.646107 2.3418052e-038
-47.184719 309.10651 30.130348 2.3418052e-038
-46.316036 307.68939 29.992218 2.3418052e-038
-36.649895 287.81393 28.054842 2.3509886e-038
-35.534592 286.22739 27.900192 2.3509886e-038
-30.988335 281.97424 27.485617 2.3509886e-038
-26.741955 279.58884 27.253099 2.3509886e-038
-26.374519 279.47937 27.242428 2.3509886e-038
-99.829605 353.17102 29.392757 2.3509886e-038
-99.134918 352.91666 29.371588 2.3509886e-038
-94.099907 352.89484 29.369772 2.3509528e-038
-89.557922 354.82385 29.530315 2.3509528e-038
-83.874817 352.19208 29.311285 2.3509528e-038
-76.893646 343.42789 28.581884 2.3509528e-038
-69.9077 333.4494 27.751419 2.3509528e-038
-63.454792 324.74344 27.026863 2.3418052e-038
-57.74062 318.74576 26.527704 2.3418052e-038
-52.518295 314.67096 26.188578 2.3418052e-038
-47.110256 308.61868 25.684875 2.3418052e-038
-44.856827 304.5387 25.345318 2.3418052e-038
-40.372997 294.89059 24.542353 2.3509886e-038
-35.559856 286.43088 23.838289 2.3509886e-038
-31.045904 282.49811 23.510984 2.3509886e-038
-26.889284 280.63306 23.355764 2.3509886e-038
-98.49366 351.67654 24.256878 2.3509886e-038
-93.786491 351.71948 24.259838 2.3509528e-038
-89.316246 353.86633 24.407917 2.3509528e-038
-83.982445 352.64401 24.323608 2.3509528e-038
-77.291595 345.20523 23.810516 2.3509528e-038
-70.116325 334.44449 23.068298 2.3509528e-038
-63.543015 325.19495 22.430309 2.3418052e-038
-57.825748 319.2157 22.017891 2.3418052e-038
-52.519169 314.67618 21.704779 2.3418052e-038
-46.958305 307.62326 21.218304 2.3418052e-038
-40.943382 295.83701 20.405348 2.3509886e-038
-35.613132 286.85999 19.786158 2.3509886e-038
-31.143772 283.38864 19.546721 2.3509886e-038
-27.682621 282.58994 19.491632 2.3509886e-038
-97.428963 350.90845 19.203342 2.3509886e-038
-93.619629 351.09369 19.213478 2.3509886e-038
-89.060394 352.85266 19.30974 2.3509528e-038
-83.852562 352.0986 19.268473 2.3509528e-038
-77.390198 345.64557 18.915335 2.3509528e-038
-70.195869 334.82391 18.323122 2.3509528e-038
-63.593178 325.45166 17.810228 2.3509886e-038
-57.846409 319.32974 17.475208 2.3418052e-038
-52.367805 313.76926 17.170914 2.3418052e-038
-46.588329 305.19952 16.701939 2.3418052e-038
-40.754478 294.47211 16.114883 2.3509886e-038
-35.648388 287.14398 15.713854 2.3509886e-038
-31.282331 284.64948 15.577342 2.3509886e-038
-28.609644 285.3746 15.617026 2.3509886e-038
-96.546326 350.6315 14.191566 2.3509886e-038
-93.505455 350.6655 14.192943 2.3509886e-038
-88.751862 351.63028 14.23199 2.3509886e-038
-83.503952 350.63483 14.1917 2.3509528e-038
-77.223801 344.90244 13.959685 2.3509528e-038
-70.182266 334.759 13.549137 2.3509886e-038
-63.623055 325.60458 13.178618 2.3509886e-038
-57.778206 318.95325 12.90941 2.3418052e-038
-52.025471 311.71811 12.616573 2.3418052e-038
-46.006931 301.39084 12.198584 2.3509886e-038
-40.467766 292.40045 11.834704 2.3509886e-038
-35.69875 287.54965 11.638371 2.3509886e-038
-31.488384 286.52441 11.596876 2.3509886e-038
-29.660856 288.34702 11.670645 2.3509886e-038
-95.572433 350.20621 9.1837912 2.3509886e-038
-93.325523 349.99072 9.1781416 2.3509886e-038
-88.367065 350.10574 9.1811571 2.3509886e-038
-83.002853 348.53067 9.1398535 2.3509886e-038
-76.870827 343.32596 9.0033655 2.3509528e-038
-70.123581 334.4791 8.7713642 2.3509886e-038
-63.643917 325.71133 8.54144 2.3509886e-038
-57.615845 318.05698 8.3407116 2.3509886e-038
-51.618923 309.28223 8.1106033 2.3509886e-038
-45.56675 298.50717 7.8280392 2.3509886e-038
-40.322922 291.35388 7.6404514 2.3509886e-038
-35.835663 288.65247 7.5696096 2.3509886e-038
-31.830832 289.64044 7.5955186 2.3509886e-038
-30.86533 291.26978 7.6382456 2.3509886e-038
-94.654556 349.68103 4.1869559 2.3509886e-038
-93.139275 349.29224 4.182301 2.3509886e-038
-87.945976 348.43741 4.1720653 2.3509886e-038
-82.428268 346.11801 4.1442938 2.3509886e-038
-76.408997 341.26331 4.0861654 2.3509886e-038
-69.9888 333.83624 3.997236 2.3509886e-038
-63.622498 325.60168 3.8986387 2.3509886e-038
-57.432037 317.0423 3.7961514 2.3509886e-038
-51.32328 307.51083 3.682025 2.3509886e-038
-45.45332 297.76413 3.5653214 2.3509886e-038
-40.423138 292.078 3.4972379 2.3509886e-038
-36.059261 290.45352 3.477787 2.3509886e-038
-32.375671 293.04407 3.508805 2.3509886e-038
-94.425026 350.77594 -0.79861355 2.3509886e-038
-93.354012 350.09753 -0.79706901 2.3509886e-038
-87.660858 347.30777 -0.79071754 2.3509886e-038
-81.949112 344.10602 -0.78342807 2.3509886e-038
-76.000427 339.43854 -0.77280158 2.3509886e-038
-69.828827 333.07318 -0.75830954 2.3509886e-038
-63.591106 325.44107 -0.74093348 2.3509886e-038
-57.361504 316.65292 -0.72092545 2.3509886e-038
-51.298592 307.36292 -0.69977486 2.3509886e-038
-45.686909 299.29434 -0.68140513 2.3509886e-038
-40.770813 294.59012 -0.67069501 2.3509886e-038
-36.396385 293.16901 -0.66745955 2.3509886e-038
-34.424805 294.56857 -0.67064589 2.3509886e-038
-95.600647 355.46732 -5.8748279 2.3509886e-038
-94.39431 353.9989 -5.8505592 2.3509886e-038
-87.728622 347.57623 -5.7444115 2.3509886e-038
-81.749123 343.26624 -5.6731801 2.3509886e-038
-75.820129 338.63327 -5.5966105 2.3509886e-038
-69.778 332.83072 -5.5007114 2.3509886e-038
-63.632793 325.65442 -5.3821087 2.3509886e-038
-57.477596 317.29379 -5.2439318 2.3509886e-038
-51.561111 308.93582 -5.1057992 2.3509886e-038
-46.145344 302.29758 -4.9960885 2.3509886e-038
-41.268162 298.18375 -4.9280992 2.3509886e-038
-36.841373 296.75339 -4.904459 2.3509886e-038
-36.320007 297.04214 -4.9092317 2.3509886e-038
-99.198586 365.22632 -11.240705 2.3509886e-038
-95.982826 359.95618 -11.078503 2.3509886e-038
-88.179405 349.36221 -10.75245 2.3509886e-038
-81.804253 343.49774 -10.571957 2.3509886e-038
-75.836021 338.70422 -10.424424 2.3509886e-038
-69.857758 333.21118 -10.255363 2.3509886e-038
-63.731632 326.16025 -10.038354 2.3509886e-038
-57.632359 318.1481 -9.7917604 2.3509886e-038
-51.844101 310.63141 -9.5604162 2.3509886e-038
-46.539753 304.88135 -9.3834448 2.3509886e-038
-41.661903 301.02869 -9.2648706 2.3509886e-038
-37.537285 299.39597 -9.2146196 2.3509886e-038
-121.77892 383.866 -17.284595 2.3509886e-038
-118.93941 384.41656 -17.309387 2.3509886e-038
-113.81715 385.62204 -17.363667 2.3509886e-038
-106.97079 380.81204 -17.147083 2.3509886e-038
-97.446938 365.44693 -16.455227 2.3509886e-038
-88.858841 352.05411 -15.852181 2.3509886e-038
-81.957863 344.14273 -15.49595 2.3509886e-038
-75.919029 339.07498 -15.267759 2.3509886e-038
-69.997368 333.87708 -15.03371 2.3509886e-038
-63.83691 326.69901 -14.710499 2.3509886e-038
-57.689861 318.46555 -14.339766 2.3509886e-038
-51.935841 311.18106 -14.011762 2.3509886e-038
-46.723114 306.08252 -13.782186 2.3509886e-038
-41.897243 302.72916 -13.631192 2.3509886e-038
-37.984222 301.33676 -13.568496 2.3509886e-038
-122.41243 381.5614 -22.618221 2.3509886e-038
-118.04527 381.52667 -22.616163 2.3509886e-038
-113.10999 383.2261 -22.7169 2.3509886e-038
-106.98129 380.84946 -22.576017 2.3509886e-038
-98.245247 368.44073 -21.840454 2.3509886e-038
-89.422646 354.28787 -21.001499 2.3509886e-038
-82.057343 344.56049 -20.424879 2.3509886e-038
-75.968239 339.29474 -20.112734 2.3509886e-038
-70.119263 334.4585 -19.826054 2.3509886e-038
-63.910625 327.07629 -19.388449 2.3509886e-038
-57.642742 318.20544 -18.862604 2.3509886e-038
-51.850159 310.66769 -18.415779 2.3509886e-038
-46.739632 306.19073 -18.150393 2.3509886e-038
-42.041561 303.77194 -18.007011 2.3509886e-038
-37.772594 303.38284 -17.983948 2.3509886e-038
-121.40512 379.97061 -27.938623 2.3509886e-038
-117.31767 379.17508 -27.880129 2.3509886e-038
-112.16781 380.03391 -27.943277 2.3509886e-038
-106.25533 378.26501 -27.813215 2.3509886e-038
-98.29306 368.62003 -27.104033 2.3509886e-038
-89.58532 354.9324 -26.097603 2.3509886e-038
-82.029198 344.44232 -25.326286 2.3509886e-038
-75.947769 339.20334 -24.941071 2.3509886e-038
-70.19059 334.79877 -24.61721 2.3509886e-038
-63.977093 327.41641 -24.074398 2.3509886e-038
-57.63377 318.15591 -23.39349 2.3509886e-038
-51.805168 310.39813 -22.823071 2.3509886e-038
-46.757004 306.30453 -22.522078 2.3509886e-038
-42.176788 304.74902 -22.407701 2.3509886e-038
-37.918964 305.43329 -22.458014 2.3509886e-038
-37.146717 306.04568 -22.503042 2.3509886e-038
-119.10876 378.48331 -33.222767 2.3509886e-038
-116.92097 377.89291 -33.17094 2.3509886e-038
-111.44431 377.58264 -33.143711 2.3509886e-038
-105.42821 375.32053 -32.945141 2.3509886e-038
-97.964462 367.38776 -32.248814 2.3509886e-038
-89.466797 354.4628 -31.114281 2.3509886e-038
-81.892647 343.8689 -30.184362 2.3509886e-038
-75.860542 338.81375 -29.740625 2.3509886e-038
-70.229111 334.98248 -29.404324 2.3509886e-038
-64.135796 328.22864 -28.811481 2.3509886e-038
-57.857445 319.39069 -28.035694 2.3509886e-038
-52.01889 311.67868 -27.358746 2.3509886e-038
-46.918873 307.36493 -26.980091 2.3509886e-038
-42.338482 305.91736 -26.853024 2.3509886e-038
-38.113419 306.99957 -26.948017 2.3509886e-038
-36.211803 308.6571 -27.093517 2.3509886e-038
-116.16795 377.85559 -38.552227 2.3509886e-038
-111.08732 376.37311 -38.400974 2.3509886e-038
-104.74812 372.89944 -38.046558 2.3509886e-038
-97.47142 365.53876 -37.295555 2.3509886e-038
-89.209839 353.44476 -36.061615 2.3509886e-038
-81.746178 343.25388 -35.021854 2.3509886e-038
-75.773666 338.42572 -34.52924 2.3509886e-038
-70.261391 335.13641 -34.193634 2.3509886e-038
-64.370148 329.42795 -33.611206 2.3509886e-038
-58.226074 321.42563 -32.794735 2.3509886e-038
-52.367352 313.76654 -32.013287 2.3509886e-038
-47.152969 308.8985 -31.516607 2.3509886e-038
-42.485962 306.98297 -31.321165 2.3509886e-038
-38.221748 307.87213 -31.411886 2.3509886e-038
-34.957001 310.58279 -31.688452 2.3509886e-038
-112.937 377.55576 -43.901951 2.3509886e-038
-111.05277 376.25607 -43.750828 2.3509886e-038
-104.18378 370.89044 -43.126911 2.3509886e-038
-96.872902 363.29416 -42.243622 2.3509886e-038
-88.919281 352.29358 -40.964481 2.3509886e-038
-81.685318 342.99832 -39.883636 2.3509886e-038
-75.749352 338.31717 -39.33931 2.3509886e-038
-70.309471 335.36575 -38.996124 2.3509886e-038
-64.621246 330.71304 -38.455109 2.3509886e-038
-58.593868 323.45596 -37.611259 2.3509886e-038
-52.677803 315.62665 -36.700874 2.3509886e-038
-47.339294 310.11911 -36.060459 2.3509886e-038
-42.563786 307.54529 -35.761177 2.3509886e-038
-38.218208 307.84363 -35.795868 2.3509886e-038
-34.099327 310.28232 -36.079437 2.3509886e-038
-33.370239 311.06259 -36.17017 2.3509886e-038
-108.99428 374.05139 -48.824818 2.3509886e-038
-103.50619 368.47821 -48.097351 2.3509886e-038
-96.116867 360.45889 -47.050591 2.3509886e-038
-88.601753 351.03552 -45.820564 2.3509886e-038
-81.71553 343.12518 -44.788029 2.3509886e-038
-75.806244 338.57126 -44.193604 2.3509886e-038
-70.389359 335.74683 -43.824932 2.3509886e-038
-64.83857 331.82526 -43.313053 2.3509886e-038
-58.876831 325.01797 -42.4245 2.3509886e-038
-52.888565 316.88947 -41.363487 2.3509886e-038
-47.441196 310.78665 -40.566891 2.3509886e-038
-42.569717 307.58813 -40.149387 2.3509886e-038
-38.123104 307.07758 -40.082745 2.3509886e-038
-33.890434 308.38153 -40.252949 2.3509886e-038
-31.651154 310.16568 -40.485832 2.3509886e-038
-104.75595 367.27798 -53.174511 2.3509886e-038
-102.44785 364.71054 -52.802799 2.3509886e-038
-95.110527 356.68488 -51.640839 2.3509886e-038
-88.138359 349.19958 -50.557121 2.3509886e-038
-81.703621 343.07516 -49.670425 2.3509886e-038
-75.893852 338.96249 -49.074993 2.3509886e-038
-70.487579 336.21533 -48.677258 2.3509886e-038
-64.980957 332.55392 -48.14716 2.3509886e-038
-59.046593 325.95511 -47.191788 2.3509886e-038
-53.035557 317.77017 -46.006767 2.3509886e-038
-47.53569 311.40573 -45.085323 2.3509886e-038
-42.588928 307.72693 -44.552708 2.3509886e-038
-38.05785 306.55194 -44.382591 2.3509886e-038
-33.772659 307.30988 -44.492325 2.3509886e-038
-30.038574 309.95505 -44.875298 2.3509886e-038
-101.09101 360.23941 -57.289017 2.3509886e-038
-94.069824 352.78201 -56.103062 2.3509886e-038
-87.561203 346.91296 -55.169701 2.3509886e-038
-81.494202 342.19583 -54.41954 2.3509886e-038
-75.821945 338.64136 -53.854267 2.3509886e-038
-70.458328 336.07581 -53.446266 2.3509886e-038
-65.015053 332.72842 -52.913929 2.3509886e-038
-59.170841 326.64102 -51.94585 2.3509886e-038
-53.216606 318.85495 -50.70763 2.3509886e-038
-47.699791 312.48071 -49.693932 2.3509886e-038
-42.700565 308.53357 -49.066216 2.3509886e-038
-38.107639 306.953 -48.814857 2.3509886e-038
-33.800884 307.56671 -48.912453 2.3509886e-038
-29.711296 310.63351 -49.400169 2.3509886e-038
-28.558907 312.13397 -49.63879 2.3509886e-038
-98.290245 354.31543 -61.396034 2.3509886e-038
-93.17131 349.41241 -60.546432 2.3509886e-038
-86.961098 344.53534 -59.701332 2.3509886e-038
-81.102364 340.55048 -59.01083 2.3509886e-038
-75.556107 337.45404 -58.474281 2.3509886e-038
-70.272934 335.19153 -58.082226 2.3509886e-038
-64.95536 332.42291 -57.602482 2.3509886e-038
-59.286354 327.27869 -56.711082 2.3509886e-038
-53.45718 320.29639 -55.501186 2.3509886e-038
-47.945793 314.09229 -54.426132 2.3509886e-038
-42.918262 310.10654 -53.735485 2.3509886e-038
-38.285191 308.38318 -53.436855 2.3509886e-038
-33.951973 308.9415 -53.533604 2.3509886e-038
-29.849695 312.08047 -54.07753 2.3509886e-038
-27.168091 315.97946 -54.753147 2.3509886e-038
-96.335312 350.26379 -65.685333 2.3509886e-038
-92.531326 347.0123 -65.075577 2.3509886e-038
-86.46595 342.57358 -64.243172 2.3509886e-038
-80.69397 338.83563 -63.542194 2.3509886e-038
-75.237808 336.03247 -63.01651 2.3509886e-038
-70.045662 334.10745 -62.655518 2.3509886e-038
-64.86261 331.94824 -62.250595 2.3509886e-038
-59.382511 327.80948 -61.474445 2.3509886e-038
-53.702381 321.76553 -60.341022 2.3509886e-038
-48.220318 315.89069 -59.239307 2.3509886e-038
-43.184834 312.03265 -58.5158 2.3509886e-038
-38.529408 310.35031 -58.20031 2.3509886e-038
-34.156403 310.80167 -58.284954 2.3509886e-038
-29.998617 313.63745 -58.816753 2.3509886e-038
-25.972689 319.08609 -59.838543 2.3509886e-038
-25.71715 319.55002 -59.925541 2.3509886e-038
-95.026489 348.6922 -70.359581 2.3509886e-038
-92.37841 346.43881 -69.904884 2.3509886e-038
-86.248642 341.71265 -68.951233 2.3509886e-038
-80.430046 337.72742 -68.147095 2.3509886e-038
-75.010605 335.0177 -67.600319 2.3509886e-038
-69.891006 333.36972 -67.267792 2.3509886e-038
-64.799294 331.62424 -66.915581 2.3509886e-038
-59.454586 328.20737 -66.226128 2.3509886e-038
-53.899105 322.94424 -65.164116 2.3509886e-038
-48.458382 317.45026 -64.055534 2.3509886e-038
-43.422523 313.75009 -63.30891 2.3509886e-038
-38.748077 312.11166 -62.978313 2.3509886e-038
-34.332432 312.40344 -63.037178 2.3509886e-038
-30.119364 314.89987 -63.540913 2.3509886e-038
-26.048813 320.02133 -64.574333 2.3509886e-038
-24.113167 323.28876 -65.233643 2.3509886e-038
-94.31324 350.04254 -75.620293 2.3509886e-038
-92.966507 348.64432 -75.31823 2.3509886e-038
-86.394913 342.29214 -73.945961 2.3509886e-038
-80.350967 337.39536 -72.888092 2.3509886e-038
-74.905113 334.54654 -72.272659 2.3509886e-038
-69.81118 332.98898 -71.93618 2.3509886e-038
-64.756081 331.40308 -71.593575 2.3509886e-038
-59.510048 328.51352 -70.969345 2.3509886e-038
-54.077625 324.01389 -69.997276 2.3509886e-038
-48.694534 318.99728 -68.913536 2.3509886e-038
-43.656609 315.4415 -68.145363 2.3509886e-038
-38.955345 313.78119 -67.786697 2.3509886e-038
-34.497425 313.90475 -67.813385 2.3509886e-038
-30.237053 316.13031 -68.294174 2.3509886e-038
-26.146994 321.22751 -69.395332 2.3509886e-038
-22.078146 328.80414 -71.03212 2.3509886e-038
-21.984735 329.02832 -71.080551 2.3509886e-038
-93.900352 353.64413 -81.437897 2.3509886e-038
-87.088249 345.03912 -79.456314 2.3509886e-038
-80.574516 338.33405 -77.912254 2.3509886e-038
-74.959038 334.78738 -77.09552 2.3509886e-038
-69.81514 333.00787 -76.685738 2.3509886e-038
-64.758789 331.41696 -76.319374 2.3509886e-038
-59.606228 329.04449 -75.773041 2.3509886e-038
-54.31958 325.46359 -74.948425 2.3509886e-038
-49.022114 321.14325 -73.953514 2.3509886e-038
-43.981255 317.7872 -73.180679 2.3509886e-038
-39.234497 316.02972 -72.77597 2.3509886e-038
-34.723114 315.9584 -72.759544 2.3509886e-038
-30.412418 317.96378 -73.221352 2.3509886e-038
-26.283619 322.90601 -74.359451 2.3509886e-038
-22.165506 330.10519 -76.017296 2.3509886e-038
-18.471836 337.83194 -77.796631 2.3509886e-038
-92.253647 356.00644 -87.055092 2.3509886e-038
-88.422333 350.32471 -85.665726 2.3509886e-038
-81.297249 341.36884 -83.475716 2.3509886e-038
-75.322342 336.41 -82.26313 2.3509886e-038
-70.019325 333.98181 -81.66935 2.3509886e-038
-64.918167 332.2326 -81.241615 2.3509886e-038
-59.835896 330.31232 -80.772041 2.3509886e-038
-54.684101 327.64767 -80.120461 2.3509886e-038
-49.478584 324.13358 -79.261147 2.3509886e-038
-44.429977 321.02945 -78.50209 2.3509886e-038
-39.622688 319.15656 -78.044098 2.3509886e-038
-35.045277 318.88989 -77.978897 2.3509886e-038
-30.67029 320.65985 -78.411705 2.3509886e-038
-26.465952 325.14609 -79.508736 2.3509886e-038
-22.271528 331.68414 -81.107506 2.3509886e-038
-17.937992 339.11545 -82.92469 2.3509886e-038
-13.390235 346.4834 -84.726402 2.3509886e-038
-13.088783 346.94376 -84.838974 2.3509886e-038
-87.818901 353.90094 -91.58345 2.3509886e-038
-82.646408 347.03397 -89.806404 2.3509886e-038
-76.254021 340.57111 -88.133926 2.3509886e-038
-70.679565 337.13107 -87.243706 2.3509886e-038
-65.422165 334.81186 -86.643532 2.3509886e-038
-60.290409 332.82138 -86.128426 2.3509886e-038
-55.167252 330.54254 -85.538704 2.3509886e-038
-49.996758 327.52811 -84.758621 2.3509886e-038
-44.917652 324.55316 -83.988754 2.3509886e-038
-40.053463 322.6264 -83.49015 2.3509886e-038
-35.41695 322.27185 -83.398392 2.3509886e-038
-30.96277 323.71774 -83.77256 2.3509886e-038
-26.650024 327.40747 -84.727409 2.3509886e-038
-22.368439 333.12738 -86.207619 2.3509886e-038
-17.986706 340.03638 -87.995544 2.3509886e-038
-13.410563 347.00946 -89.800056 2.3509886e-038
-8.6208782 353.37558 -91.447502 2.3509886e-038
-7.5435724 354.79379 -91.814514 2.3509886e-038
-80.851936 350.77518 -95.773224 2.3509886e-038
-77.905083 347.94522 -95.000542 2.3509886e-038
-72.074326 343.78384 -93.864357 2.3509886e-038
-66.467827 340.1633 -92.875824 2.3509886e-038
-61.046299 336.99411 -92.010529 2.3509886e-038
-55.806179 334.37076 -91.294266 2.3509886e-038
-50.627098 331.65747 -90.553444 2.3509886e-038
-45.497478 328.74271 -89.757629 2.3509886e-038
-40.551907 326.64133 -89.183876 2.3509886e-038
-35.833931 326.06613 -89.026833 2.3509886e-038
-31.294674 327.18781 -89.333084 2.3509886e-038
-26.886206 330.30905 -90.185295 2.3509886e-038
-22.521675 335.40948 -91.577881 2.3509886e-038
-18.080639 341.81216 -93.326019 2.3509886e-038
-13.47057 348.56216 -95.168983 2.3509886e-038
-8.6668196 355.25879 -96.997398 2.3509886e-038
-3.6797743 362.70337 -99.030014 2.3509886e-038
-2.890929 364.00986 -99.386719 2.3509886e-038
-74.18927 354.29407 -101.78279 2.3509886e-038
-68.085487 348.44202 -100.1016 2.3509886e-038
-62.170719 343.20126 -98.596008 2.3509886e-038
-56.759369 340.08194 -97.699883 2.3509886e-038
-51.57914 337.89429 -97.071411 2.3509886e-038
-46.379162 335.11331 -96.272484 2.3509886e-038
-41.287743 332.56842 -95.541374 2.3509886e-038
-36.41832 331.38367 -95.201019 2.3509886e-038
-31.756491 332.01614 -95.382713 2.3509886e-038
-27.23674 334.61557 -96.129486 2.3509886e-038
-22.757753 338.92535 -97.367615 2.3509886e-038
-18.220135 344.44931 -98.954559 2.3509886e-038
-13.555309 350.75485 -100.76603 2.3509886e-038
-8.7272682 357.73657 -102.77177 2.3509886e-038
-3.7071939 365.40604 -104.97507 2.3509886e-038
1.4642062 373.13245 -107.19474 2.3509886e-038
-65.685524 353.01102 -106.44471 2.3509886e-038
-63.625179 351.23029 -105.90776 2.3509886e-038
-58.194351 348.67984 -105.13871 2.3509886e-038
-53.040836 347.46985 -104.77386 2.3509886e-038
-47.715359 344.76804 -103.95918 2.3509886e-038
-42.384384 341.40173 -102.94411 2.3509886e-038
-37.266716 339.10358 -102.25115 2.3509886e-038
-32.401638 338.76117 -102.1479 2.3509886e-038
-27.699688 340.30307 -102.61283 2.3509886e-038
-23.045992 343.21802 -103.49179 2.3509886e-038
-18.375809 347.39233 -104.75048 2.3509886e-038
-13.639712 352.93887 -106.42295 2.3509886e-038
-8.7718878 359.56558 -108.42113 2.3509886e-038
-3.7207687 366.74408 -110.58569 2.3509886e-038
1.5331875 373.5014 -112.62325 2.3509886e-038
4.8834691 377.21503 -113.74303 2.3509886e-038
-57.932045 360.71048 -113.90662 2.3509886e-038
-54.980049 360.17361 -113.73709 2.3509886e-038
-49.406319 356.98611 -112.73052 2.3509886e-038
-43.751892 352.41687 -111.28763 2.3509886e-038
-38.312237 348.61716 -110.08775 2.3509886e-038
-33.162769 346.71887 -109.4883 2.3509886e-038
-28.211363 346.5892 -109.44735 2.3509886e-038
-23.353889 347.80347 -109.8308 2.3509886e-038
-18.539886 350.49417 -110.68047 2.3509886e-038
-13.715051 354.88831 -112.06808 2.3509886e-038
-8.7939529 360.47006 -113.8307 2.3509886e-038
-3.7211633 366.78299 -115.82422 2.3509886e-038
1.5309805 372.96371 -117.776 2.3509886e-038
6.4566994 377.80478 -119.30473 2.3509886e-038
-48.894531 367.9393 -121.43262 2.3509886e-038
-45.229343 364.31757 -120.23732 2.3509886e-038
-39.457832 359.04132 -118.49598 2.3509886e-038
-34.001492 355.48776 -117.32318 2.3509886e-038
-28.78286 353.61032 -116.70355 2.3509886e-038
-23.715052 353.18213 -116.56225 2.3509886e-038
-18.743273 354.33917 -116.94411 2.3509886e-038
-13.803427 357.17511 -117.88006 2.3509886e-038
-8.8118658 361.20428 -119.20983 2.3509886e-038
-3.716187 366.29248 -120.88911 2.3509886e-038
1.5265312 371.87985 -122.73313 2.3509886e-038
5.7064333 376.13806 -124.13849 2.3509886e-038
-38.569298 367.11423 -126.3918 2.3509886e-038
-34.818592 364.03061 -125.33016 2.3509886e-038
-29.365965 360.77402 -124.20896 2.3509886e-038
-24.110514 359.07166 -123.62286 2.3509886e-038
-18.984669 358.90271 -123.56471 2.3509886e-038
-13.917604 360.12955 -123.98708 2.3509886e-038
-8.8411446 362.40451 -124.77032 2.3509886e-038
-3.7123818 365.91742 -125.97977 2.3509886e-038
1.5207927 370.48187 -127.55124 2.3509886e-038
2.8516712 371.80429 -128.00652 2.3509886e-038
-28.210299 365.93509 -131.20055 2.3509886e-038
-24.463078 364.3223 -130.62231 2.3509886e-038
-19.219358 363.33954 -130.26996 2.3509886e-038
-14.042044 363.34952 -130.27353 2.3509886e-038
-8.8802423 364.00711 -130.50932 2.3509886e-038
-3.712553 365.9343 -131.20027 2.3509886e-038
-2.6272368 366.54199 -131.41815 2.3509886e-038
-119.43263 386.01068 -14.213562 2.3509886e-038
-116.92625 377.90997 -37.23777 2.3509886e-038
-113.79308 385.5405 -13.754631 2.3509886e-038
-111.08569 376.36758 -46.401112 2.3509886e-038
-101.95778 362.96591 67.123268 2.3509528e-038
-98.902435 352.08902 25.902704 2.3509886e-038
-106.49046 379.10208 -14.63687 2.3509886e-038
-101.32405 360.70987 -57.003231 2.3509886e-038
-96.017624 360.08667 61.572655 2.3509528e-038
-94.013809 352.57193 -79.887291 2.3509886e-038
-90.619293 359.02893 47.220795 2.3509528e-038
-89.575668 354.89417 -90.154259 2.3509886e-038
-83.642853 351.21808 38.894051 2.3509528e-038
-83.71936 351.53931 -93.996307 2.3509886e-038
-75.493309 337.17358 80.348839 2.3509886e-038
-78.636108 351.21017 -97.50502 2.3509886e-038
-70.186729 334.78027 82.519958 2.3509886e-038
-74.267242 354.24374 -101.71104 2.3509886e-038
-64.569664 330.44907 79.744537 2.3418052e-038
-69.252449 354.41418 -104.90965 2.3509886e-038
-58.54966 323.21191 76.322037 2.3418052e-038
-63.940563 352.97131 -107.43424 2.3509886e-038
-53.002132 317.56992 74.404884 2.3418052e-038
-59.668724 357.51376 -111.67497 2.3509886e-038
-48.402119 317.08167 69.619926 2.3509886e-038
-55.612453 364.31647 -116.58681 2.3509886e-038
-40.998989 296.2388 24.202698 2.3509886e-038
-50.86586 367.53201 -120.29069 2.3509886e-038
-35.552464 286.37134 29.311245 2.3509886e-038
-37.034061 298.30545 -7.0900979 2.3509886e-038
-37.707443 303.72946 -18.623041 2.3509886e-038
-45.683327 367.97437 -123.04584 2.3509886e-038
-31.052973 282.56244 32.922047 2.3509886e-038
-32.191437 292.92175 3.9304597 2.3509886e-038
-34.181763 311.03244 -33.991859 2.3509886e-038
-40.36544 367.30002 -125.516 2.3509886e-038
-26.723707 279.39804 30.625862 2.3509886e-038
-26.83004 280.50977 23.671412 2.3509886e-038
-29.675043 310.25446 -45.972523 2.3509886e-038
-35.090611 366.87457 -128.14888 2.3509886e-038
-25.96443 318.98462 -59.076057 2.3509886e-038
-29.808439 366.21002 -130.59344 2.3509886e-038
-22.076077 328.77332 -70.880768 2.3509886e-038
-24.543667 365.52249 -132.491 2.3509886e-038
-17.926893 338.90564 -78.604515 2.3509886e-038
-19.325195 365.34033 -133.7515 2.3509886e-038
-13.390173 346.48184 -84.477959 2.3509886e-038
-14.113494 365.19833 -134.08862 2.3509886e-038
-8.6171141 353.22131 -90.35498 2.3509886e-038
-8.9034185 364.95712 -133.37909 2.3509886e-038
-3.6747863 362.21173 -98.000153 2.3509886e-038
-3.7129464 365.97305 -131.83797 2.3509886e-038
1.5321317 373.2442 -107.3222 2.3509886e-038
1.5190707 370.06238 -129.06343 2.3509886e-038
