# .PCD v0.7 - Point Cloud Data file format
VERSION 0.7
FIELDS x y z rgb
SIZE 4 4 4 4
TYPE F F F F
COUNT 1 1 1 1
WIDTH 898
HEIGHT 1
VIEWPOINT 0 0 0 1 0 0 0
POINTS 898
DATA ascii
-82.74369 337.86002 82.74369 2.3418052e-038
-3.092083 328.26636 43.289158 9.1476764e-041
-153.39294 328.9845 -21.691931 3.5733111e-043
-121.52845 330.81757 62.322281 2.3509528e-038
-54.460392 340.10037 75.283493 2.3418409e-038
-86.781204 337.00522 87.362686 2.3418052e-038
-84.925949 336.75681 87.298279 2.3418052e-038
-80.540474 336.98456 87.357323 2.3418052e-038
-89.568138 338.27081 82.837189 2.3418052e-038
-85.098068 337.43927 82.633553 2.3418052e-038
-80.274666 337.51599 82.652344 2.3418052e-038
-78.109253 338.2251 82.825996 2.3418052e-038
-90.006462 339.48502 78.263535 2.3418052e-038
-85.235542 337.98441 77.917587 2.3418052e-038
-80.247246 337.4007 77.783028 2.3418052e-038
-76.740311 338.12939 77.951012 2.3418052e-038
-58.493145 339.09314 78.173187 2.3418409e-038
-56.38641 339.47546 78.26133 2.3418409e-038
-51.794132 341.31125 78.684547 2.3418409e-038
-51.513088 341.43768 78.713692 2.3418409e-038
-89.747643 339.27475 73.347084 2.3418052e-038
-85.149948 337.64502 72.994751 2.3418052e-038
-80.188393 337.15326 72.888435 2.3418052e-038
-76.057175 338.8699 73.259552 2.3418052e-038
-59.973446 340.25015 73.557953 2.3418409e-038
-56.574921 340.61038 73.635826 2.3418409e-038
-52.062046 343.07672 74.169022 2.3418409e-038
-49.787426 344.89984 74.563156 2.3418409e-038
-125.7934 331.16745 66.842728 2.3509528e-038
-121.81319 331.94012 66.998672 2.3509528e-038
-117.48109 332.82458 67.1772 2.3509528e-038
-89.145622 338.42636 68.307861 2.3418052e-038
-85.032043 337.17749 68.055786 2.3418052e-038
-80.219109 337.28241 68.076965 2.3418052e-038
-75.997192 340.04529 68.634621 2.3418052e-038
-75.51754 340.60126 68.746841 2.3418052e-038
-59.989101 340.61041 68.748688 2.3418409e-038
-56.674351 341.20898 68.869507 2.3418409e-038
-52.322475 344.79291 69.59288 2.3418409e-038
-49.370972 348.9982 70.441673 2.3418409e-038
-126.27758 331.0238 62.064129 2.3509528e-038
-126.22355 331.01599 62.062664 2.3509528e-038
-121.40454 330.82654 62.027145 2.3509528e-038
-116.80508 331.24426 62.105461 2.3509528e-038
-114.33526 332.45276 62.332047 2.3509528e-038
-89.026321 338.5531 63.475803 2.3418052e-038
-85.093224 337.42007 63.263371 2.3418052e-038
-80.334297 337.76669 63.328362 2.3418052e-038
-76.068924 340.36621 63.81575 2.3418052e-038
-74.709099 341.58691 64.044617 2.3418052e-038
-59.422314 339.48343 63.650234 2.3418409e-038
-56.53653 340.37924 63.818195 2.3418409e-038
-52.287613 344.56317 64.602646 2.3418409e-038
-49.0877 350.07938 65.636887 2.3418409e-038
-125.79012 330.93555 57.299248 2.3509528e-038
-121.21103 330.29922 57.189075 2.3509528e-038
-116.64704 330.79608 57.275105 2.3509528e-038
-112.74389 333.2887 57.706684 2.3509528e-038
-112.45744 333.6582 57.770657 2.3509528e-038
-89.427086 339.42508 58.769157 2.3509886e-038
-85.222931 337.93442 58.511055 2.3418052e-038
-80.405861 338.0676 58.534115 2.3418052e-038
-76.052422 340.29236 58.919323 2.3418052e-038
-73.621475 341.89532 59.196861 2.3418052e-038
-59.170105 337.81046 58.489594 2.3418409e-038
-56.227821 338.52069 58.612568 2.3418409e-038
-51.911812 342.08673 59.230003 2.3418409e-038
-48.447929 347.19617 60.114666 2.3418409e-038
-124.59177 330.43326 52.471161 2.3509528e-038
-121.11237 330.0304 52.407188 2.3509528e-038
-116.6785 330.88528 52.542942 2.3509528e-038
-112.93946 333.86682 53.016399 2.3509528e-038
-111.3545 337.09229 53.528584 2.3509528e-038
-89.697006 340.04681 53.997753 2.3509886e-038
-85.28038 338.1622 53.698483 2.3418052e-038
-80.332619 337.75967 53.634563 2.3418052e-038
-75.861427 339.43777 53.901039 2.3418052e-038
-72.040009 341.20404 54.181511 2.3418052e-038
-59.470272 336.06326 53.365181 2.3418409e-038
-55.840916 336.19128 53.385509 2.3418409e-038
-51.355339 338.41971 53.739372 2.3418409e-038
-47.464699 342.85345 54.443432 2.3418409e-038
-123.14242 330.26385 47.70557 2.3509528e-038
-121.11407 330.03503 47.67252 2.3509528e-038
-116.69329 330.92722 47.801395 2.3509528e-038
-112.89145 333.72488 48.205509 2.3509528e-038
-109.68948 338.62219 48.91291 2.3509528e-038
-109.57648 338.8783 48.949905 2.3509528e-038
-89.603386 340.7056 49.213852 2.3509886e-038
-85.358208 338.47083 48.891041 2.3418052e-038
-80.228035 337.31995 48.724804 2.3418052e-038
-75.639717 338.44574 48.887424 2.3418052e-038
-71.132729 340.1149 49.128525 2.3418052e-038
-70.382492 340.08954 49.124863 2.3418052e-038
-60.314934 335.24738 48.425426 2.3418052e-038
-55.53191 334.3309 48.293045 2.3418409e-038
-50.908691 335.47641 48.458508 2.3418409e-038
-46.68919 339.79932 49.082943 2.3418409e-038
-46.457722 340.30896 49.156559 2.3418409e-038
-6.0513315 330.14313 47.688133 9.1476764e-041
-2.7313206 330.33047 47.715195 9.1476764e-041
0.49083233 331.77707 47.924152 9.1476764e-041
-121.65954 330.67392 43.020233 2.3509528e-038
-121.32572 330.61176 43.012146 2.3509528e-038
-116.7272 331.02341 43.065697 2.3509528e-038
-112.63679 332.97208 43.319221 2.3509528e-038
-108.8316 335.97385 43.709747 2.3509528e-038
-106.89786 337.83569 43.951969 2.3509528e-038
-89.104347 341.59055 44.440472 2.3509886e-038
-85.567299 339.29993 44.142464 2.3509886e-038
-80.254822 337.43256 43.899521 2.3418052e-038
-75.583138 338.19263 43.998405 2.3418052e-038
-71.049889 339.71881 44.196964 2.3418052e-038
-69.352745 339.54822 44.174767 2.3418052e-038
-61.411812 335.51447 43.649979 2.3418052e-038
-60.456692 335.03882 43.588097 2.3418052e-038
-55.387341 333.46054 43.382767 2.3418409e-038
-50.736012 334.33847 43.496986 2.3418409e-038
-46.533352 338.66516 44.059879 2.3418409e-038
-45.857014 340.00238 44.233856 2.3418409e-038
-10.07619 328.52725 42.740952 9.1476764e-041
-7.4276471 328.41513 42.726368 9.1476764e-041
-2.7306597 330.25049 42.965149 9.1476764e-041
1.2569127 333.3782 43.372055 9.1476764e-041
-120.40362 331.63339 38.386719 2.3509528e-038
-116.96453 331.69644 38.39402 2.3509528e-038
-112.55468 332.72934 38.513577 2.3509528e-038
-108.36665 334.53845 38.72298 2.3509528e-038
-104.53297 337.08038 39.017212 2.3509528e-038
-88.398293 342.00803 39.587585 2.3509886e-038
-85.798775 340.2178 39.380367 2.3509886e-038
-80.417465 338.11636 39.137123 2.3418052e-038
-75.712837 338.77292 39.21312 2.3418052e-038
-71.098518 339.95135 39.349525 2.3418052e-038
-68.923729 339.522 39.299828 2.3418052e-038
-62.281384 335.87457 38.877636 2.3418052e-038
-60.431076 334.89682 38.764462 2.3418409e-038
-55.388214 333.46579 38.598816 2.3418409e-038
-50.798519 334.7504 38.747513 2.3418409e-038
-46.573105 338.95444 39.234135 2.3418409e-038
-45.812717 340.22452 39.381142 2.3418409e-038
-12.60372 325.27399 37.650616 9.1476764e-041
-12.023608 325.27155 37.650333 9.1476764e-041
-7.3839531 326.48318 37.790581 9.1476764e-041
-2.7270029 329.80823 38.175457 9.1476764e-041
-0.0080318535 332.63019 38.502098 9.1476764e-041
-119.49222 332.96921 33.763836 2.3509528e-038
-117.34034 332.76218 33.74284 2.3509528e-038
-112.66272 333.04874 33.7719 2.3509528e-038
-108.24339 334.15796 33.88438 2.3509528e-038
-104.11272 336.30249 34.101837 2.3509528e-038
-102.63501 337.86603 34.260384 2.3509528e-038
-87.391014 340.9957 34.57774 2.3509886e-038
-85.764191 340.08069 34.484955 2.3509886e-038
-80.511581 338.51212 34.325897 2.3418052e-038
-75.85041 339.38852 34.414768 2.3418052e-038
-71.213051 340.49896 34.52737 2.3418052e-038
-68.817261 339.96732 34.473461 2.3418052e-038
-62.893204 336.71393 34.143559 2.3418052e-038
-60.534576 335.47043 34.017467 2.3418052e-038
-55.549393 334.43619 33.912586 2.3418409e-038
-51.063271 336.49503 34.121361 2.3418409e-038
-46.853027 340.9917 34.577335 2.3418409e-038
-46.511837 341.55923 34.634884 2.3418409e-038
-15.092842 324.31982 32.886768 9.1476764e-041
-11.988032 324.30911 32.885681 9.1476764e-041
-7.3717508 325.94363 33.051426 9.1476764e-041
-2.7254937 329.62573 33.424797 9.1476764e-041
-1.9260947 330.62836 33.52647 9.1476764e-041
-118.44008 333.64243 29.044935 2.3509528e-038
-117.58693 333.46149 29.029182 2.3509528e-038
-112.73527 333.26318 29.011921 2.3509528e-038
-108.2228 334.09439 29.084282 2.3509528e-038
-104.12371 336.33798 29.279593 2.3509528e-038
-101.04033 340.47217 29.639492 2.3509528e-038
-86.40686 340.33118 29.627216 2.3509886e-038
-85.751335 340.02969 29.600973 2.3509886e-038
-80.547127 338.66156 29.481871 2.3418052e-038
-75.815666 339.233 29.531618 2.3418052e-038
-71.152779 340.21075 29.616735 2.3418052e-038
-68.406586 339.8956 29.589298 2.3418052e-038
-63.679829 338.08569 29.431738 2.3418052e-038
-60.770512 336.77792 29.317894 2.3418052e-038
-55.850388 336.24832 29.271788 2.3418409e-038
-51.499371 339.36884 29.54344 2.3418409e-038
-47.593868 344.63696 30.002056 2.3418409e-038
-17.959454 324.9993 28.292517 9.1476764e-041
-16.664394 324.75955 28.271643 9.1476764e-041
-12.024755 325.30258 28.318918 9.1476764e-041
-7.3954344 326.99081 28.465885 9.1476764e-041
-4.1641846 328.85489 28.628159 9.1476764e-041
-116.95477 333.7572 24.266113 2.3509528e-038
-112.73711 333.26865 24.230593 2.3509528e-038
-108.21931 334.08362 24.289846 2.3509528e-038
-104.30873 336.93564 24.497206 2.3509528e-038
-101.09592 342.42822 24.896549 2.3509528e-038
-99.655975 345.0322 25.085873 2.3509528e-038
-86.066338 341.3757 24.820024 2.3509886e-038
-80.569824 338.75699 24.629627 2.3509886e-038
-75.558769 338.08356 24.580666 2.3509886e-038
-70.830437 338.66949 24.623268 2.3418052e-038
-66.025482 338.94849 24.643549 2.3418052e-038
-60.941635 337.72626 24.554689 2.3509886e-038
-56.052177 337.4632 24.535561 2.3509886e-038
-51.75943 341.08255 24.798708 2.3418409e-038
-48.11784 346.61105 25.200665 2.3418409e-038
-21.271351 326.79453 23.759886 9.1476764e-041
-16.71637 325.77243 23.685574 9.1476764e-041
-12.097047 327.25827 23.793602 9.1476764e-041
-7.4585009 329.77933 23.976898 9.1476764e-041
-6.5293813 330.32574 24.016626 9.1476764e-041
-115.1698 333.97134 19.489798 2.3509528e-038
-112.84855 333.59808 19.468016 2.3509528e-038
-108.27325 334.25015 19.506067 2.3509528e-038
-104.38551 337.18362 19.677259 2.3509528e-038
-101.03799 342.23206 19.971874 2.3509528e-038
-97.378716 346.68634 20.231815 2.3509886e-038
-96.795593 346.97406 20.248606 2.3509886e-038
-86.699806 342.88123 20.009758 2.3509886e-038
-86.411026 342.6456 19.996006 2.3509886e-038
-80.448303 338.24603 19.73926 2.3509886e-038
-75.143257 336.22437 19.621279 2.3509886e-038
-70.358047 336.41086 19.63216 2.3509886e-038
-65.730888 337.43616 19.691996 2.3509886e-038
-60.802803 336.95688 19.664026 2.3509886e-038
-55.896416 336.52545 19.638847 2.3509886e-038
-51.490219 339.3085 19.80126 2.3509886e-038
-47.323963 344.3912 20.097876 2.3509886e-038
-24.888794 328.53378 19.172472 9.1476764e-041
-21.501493 327.46106 19.109873 9.1476764e-041
-16.801617 327.43375 19.108276 9.1476764e-041
-12.187803 329.71347 19.241318 9.1476764e-041
-8.8488474 332.8952 19.426996 9.1476764e-041
-113.28331 334.53238 14.722604 2.3509528e-038
-113.15309 334.49835 14.721106 2.3509528e-038
-108.2701 334.24045 14.709756 2.3509528e-038
-103.98905 335.90298 14.782924 2.3509528e-038
-99.970795 338.61728 14.902377 2.3509528e-038
-95.780609 340.99677 15.007098 2.3509528e-038
-91.017509 341.48294 15.028495 2.3509886e-038
-85.555634 339.25369 14.930387 2.3509886e-038
-79.936562 336.09445 14.791349 2.3509886e-038
-74.661263 334.06769 14.702153 2.3509886e-038
-69.820183 333.83908 14.692092 2.3509886e-038
-65.18219 334.61938 14.726432 2.3509886e-038
-60.375603 334.58942 14.725114 2.3509886e-038
-55.547878 334.42706 14.717968 2.3509886e-038
-51.026394 336.25201 14.798284 2.3509886e-038
-46.662807 339.6073 14.945949 2.3509886e-038
-44.944538 340.61658 14.990367 2.3509886e-038
-28.968355 329.60403 14.50571 2.3509886e-038
-26.309757 328.83328 14.471789 9.1476764e-041
-21.574476 328.57257 14.460316 9.1476764e-041
-16.89464 329.24661 14.48998 9.1476764e-041
-12.273008 332.01849 14.611969 9.1476764e-041
-11.076315 333.34409 14.670307 9.1476764e-041
-111.62418 335.58719 9.9539433 2.3509528e-038
-108.40108 334.64478 9.9259901 2.3509528e-038
-103.52203 334.39447 9.9185658 2.3509528e-038
-98.860817 334.85757 9.9323015 2.3509528e-038
-94.215034 335.42307 9.9490747 2.3509886e-038
-89.468262 335.67044 9.9564133 2.3509886e-038
-84.534393 335.20416 9.9425821 2.3509886e-038
-79.455887 334.07343 9.9090433 2.3509886e-038
-74.404793 332.92017 9.874836 2.3509886e-038
-69.534874 332.47491 9.8616295 2.3509886e-038
-64.792473 332.61868 9.8658943 2.3509886e-038
-60.007652 332.55032 9.8638659 2.3509886e-038
-55.216106 332.42963 9.8602858 2.3509886e-038
-50.560753 333.18356 9.8826485 2.3509886e-038
-45.993702 334.73761 9.9287434 2.3509886e-038
-41.185959 334.69812 9.9275723 2.3509886e-038
-36.12812 332.34744 9.8578482 2.3509886e-038
-31.114323 329.74899 9.7807751 2.3509886e-038
-26.369947 329.58557 9.7759285 9.1476764e-041
-21.689665 330.32684 9.7979145 9.1476764e-041
-16.994041 331.18375 9.8233328 9.1476764e-041
-13.296702 333.34616 9.8874722 9.1476764e-041
-110.36745 337.03476 5.1610408 2.3509528e-038
-108.87498 336.10776 5.1468458 2.3509528e-038
-103.36076 333.8735 5.1126328 2.3509528e-038
-98.345535 333.11224 5.1009755 2.3509886e-038
-93.580666 333.16458 5.1017766 2.3509886e-038
-88.845612 333.33432 5.1043758 2.3509886e-038
-84.074692 333.38129 5.1050954 2.3509886e-038
-79.244102 333.18295 5.1020579 2.3509886e-038
-74.365494 332.74432 5.0953412 2.3509886e-038
-69.491066 332.26544 5.0880079 2.3509886e-038
-64.676895 332.02539 5.084332 2.3509886e-038
-59.852482 331.6904 5.0792022 2.3509886e-038
-55.017822 331.23584 5.0722418 2.3509886e-038
-50.240559 331.07355 5.0697565 2.3509886e-038
-45.523022 331.31207 5.0734091 2.3509886e-038
-40.731853 331.00781 5.0687494 2.3509886e-038
-35.873566 330.0058 5.0534062 2.3509886e-038
-31.091461 329.50668 5.045763 2.3509886e-038
-26.472723 330.87012 5.0666418 9.1476764e-041
-21.839037 332.60175 5.0931582 9.1476764e-041
-17.129631 333.82617 5.111908 9.1476764e-041
-15.556891 334.80075 5.1268315 9.1476764e-041
-109.18114 337.60825 0.3257547 2.3509886e-038
-103.39464 333.98294 0.32225668 2.3509886e-038
-98.199684 332.61823 0.3209399 2.3509886e-038
-93.396843 332.5101 0.32083556 2.3509886e-038
-88.654648 332.61789 0.32093954 2.3509886e-038
-83.929985 332.8075 0.3211225 2.3509886e-038
-79.161613 332.83615 0.32115015 2.3509886e-038
-74.311127 332.5011 0.32082686 2.3509886e-038
-69.430496 331.97583 0.32032001 2.3509886e-038
-64.62587 331.76346 0.32011512 2.3509886e-038
-59.806942 331.43805 0.31980112 2.3509886e-038
-54.956673 330.86771 0.31925082 2.3509886e-038
-50.147675 330.46149 0.31885886 2.3509886e-038
-45.399818 330.41541 0.3188144 2.3509886e-038
-40.641819 330.27612 0.31868002 2.3509886e-038
-35.867527 329.95023 0.31836554 2.3509886e-038
-31.160538 330.23877 0.31864396 9.1476764e-041
-26.580349 332.21527 0.32055107 9.1476764e-041
-21.98605 334.84073 0.32308432 9.1476764e-041
-17.592018 337.12662 0.32528999 9.1476764e-041
-107.53756 335.93927 -4.4959769 2.3509886e-038
-103.22134 333.42316 -4.4623032 2.3509886e-038
-98.071915 332.18549 -4.4457388 2.3509886e-038
-93.293747 332.1431 -4.4451714 2.3509886e-038
-88.585693 332.35919 -4.4480639 2.3509886e-038
-83.880493 332.61124 -4.451437 2.3509886e-038
-79.098709 332.57166 -4.4509072 2.3509886e-038
-74.221939 332.10199 -4.4446216 2.3509886e-038
-69.340294 331.54456 -4.437161 2.3509886e-038
-64.569733 331.47528 -4.436234 2.3509886e-038
-59.791679 331.35345 -4.4346037 2.3509886e-038
-54.96796 330.93564 -4.4290118 2.3509886e-038
-50.170429 330.61142 -4.4246726 2.3509886e-038
-45.432655 330.65439 -4.4252477 2.3509886e-038
-40.710556 330.83475 -4.4276614 2.3509886e-038
-35.972553 330.91638 -4.4287543 2.3509886e-038
-31.264029 331.33557 -4.4343643 2.3509886e-038
-26.658007 333.18588 -4.4591279 9.1476764e-041
-22.088573 336.40213 -4.5021715 9.1476764e-041
-19.108541 338.98904 -4.5367932 9.1476764e-041
-105.9359 333.96036 -9.26122 2.3509886e-038
-103.00823 332.7348 -9.2272329 2.3509886e-038
-97.996788 331.931 -9.2049427 2.3509886e-038
-93.270088 332.05884 -9.2084885 2.3509886e-038
-88.615128 332.4696 -9.2198792 2.3509886e-038
-83.904884 332.70798 -9.22649 2.3509886e-038
-79.079796 332.49216 -9.2205038 2.3509886e-038
-74.184189 331.93307 -9.2050009 2.3509886e-038
-69.328453 331.48792 -9.1926556 2.3509886e-038
-64.574257 331.49847 -9.1929483 2.3509886e-038
-59.813908 331.47662 -9.1923428 2.3509886e-038
-55.015236 331.22028 -9.1852331 2.3509886e-038
-50.233654 331.02805 -9.1799021 2.3509886e-038
-45.4977 331.12778 -9.1826687 2.3509886e-038
-40.797665 331.54263 -9.1941729 2.3509886e-038
-36.083622 331.93814 -9.2051411 2.3509886e-038
-31.366352 332.41995 -9.218503 2.3509886e-038
-26.734358 334.14017 -9.2662067 9.1476764e-041
-22.193697 338.00311 -9.3733311 9.1476764e-041
-20.149191 340.64236 -9.4465218 9.1476764e-041
-104.80833 332.78912 -14.003675 2.3509886e-038
-102.87304 332.2981 -13.983012 2.3509886e-038
-97.981812 331.88028 -13.96543 2.3509886e-038
-93.298836 332.16122 -13.977253 2.3509886e-038
-88.68515 332.73233 -14.001285 2.3509886e-038
-83.970062 332.96643 -14.011135 2.3509886e-038
-79.122559 332.67194 -13.998743 2.3509886e-038
-74.23703 332.16949 -13.977601 2.3509886e-038
-69.417656 331.91443 -13.966867 2.3509886e-038
-64.654709 331.91147 -13.966743 2.3509886e-038
-59.874897 331.81461 -13.962667 2.3509886e-038
-55.074657 331.578 -13.952712 2.3509886e-038
-50.294357 331.42807 -13.946402 2.3509886e-038
-45.54438 331.46747 -13.948061 2.3509886e-038
-40.848869 331.95874 -13.968732 2.3509886e-038
-36.148815 332.53787 -13.993101 2.3509886e-038
-31.429029 333.08423 -14.016092 2.3509886e-038
-26.787025 334.79846 -14.088226 2.3509886e-038
-22.270273 339.16934 -14.272153 2.3509886e-038
-20.734287 341.59814 -14.374355 2.3509886e-038
-161.90601 328.6485 -18.54495 3.5733111e-043
-158.17619 328.33057 -18.52701 3.5733111e-043
-153.79904 329.04474 -18.567308 3.5733111e-043
-149.94398 330.95645 -18.675182 3.5733111e-043
-146.02303 332.84305 -18.781637 3.5733111e-043
-145.68919 333.00632 -18.790852 3.5733111e-043
-104.40934 332.40424 -18.756878 2.3509886e-038
-102.81824 332.12106 -18.7409 2.3509886e-038
-97.975441 331.8587 -18.726093 2.3509886e-038
-93.305077 332.18341 -18.744419 2.3509886e-038
-88.711037 332.82944 -18.780872 2.3509886e-038
-84.015823 333.14786 -18.79884 2.3509886e-038
-79.196281 332.9819 -18.789476 2.3509886e-038
-74.344917 332.65225 -18.770872 2.3509886e-038
-69.542213 332.51001 -18.762848 2.3509886e-038
-64.755775 332.43033 -18.75835 2.3509886e-038
-59.942337 332.18835 -18.744698 2.3509886e-038
-55.122841 331.8681 -18.726627 2.3509886e-038
-50.334267 331.69107 -18.716635 2.3509886e-038
-45.572662 331.67331 -18.715635 2.3509886e-038
-40.869667 332.12775 -18.741276 2.3509886e-038
-36.162491 332.66367 -18.771517 2.3509886e-038
-31.430315 333.09787 -18.796019 2.3509886e-038
-26.77524 334.65115 -18.883665 2.3509886e-038
-22.246025 338.80005 -19.117781 2.3509886e-038
-20.886398 340.84711 -19.233292 2.3509886e-038
-162.06598 328.46896 -23.247755 3.5733111e-043
-158.02567 328.01813 -23.215845 3.5733111e-043
-153.47794 328.35776 -23.239883 3.5733111e-043
-149.42741 329.81628 -23.343113 3.5733111e-043
-145.40836 331.44199 -23.458174 3.5733111e-043
-141.42769 333.26807 -23.587418 3.5733111e-043
-138.27052 335.05667 -23.714006 3.5733111e-043
-105.21731 333.00177 -23.568567 2.3509886e-038
-102.92422 332.46344 -23.530468 2.3509886e-038
-98.014526 331.99109 -23.497036 2.3509886e-038
-93.305725 332.18573 -23.510813 2.3509886e-038
-88.706169 332.81119 -23.55508 2.3509886e-038
-84.03093 333.20776 -23.583147 2.3509886e-038
-79.256927 333.23691 -23.585209 2.3509886e-038
-74.446182 333.10535 -23.575901 2.3509886e-038
-69.643402 332.9938 -23.568005 2.3509886e-038
-64.833611 332.8299 -23.556404 2.3509886e-038
-59.99218 332.46457 -23.530548 2.3509886e-038
-55.15588 332.06702 -23.502409 2.3509886e-038
-50.369247 331.92157 -23.492117 2.3509886e-038
-45.616413 331.99176 -23.497084 2.3509886e-038
-40.893696 332.32303 -23.520529 2.3509886e-038
-36.151337 332.56104 -23.537374 2.3509886e-038
-31.398378 332.7594 -23.551416 2.3509886e-038
-26.729467 334.07907 -23.644814 2.3509886e-038
-22.142675 337.22607 -23.867548 2.3509886e-038
-20.787596 338.63623 -23.967352 2.3509886e-038
-159.9334 329.20117 -28.023018 3.5733111e-043
-158.41466 328.82556 -27.991045 3.5733111e-043
-153.47412 328.34958 -27.950529 3.5733111e-043
-149.08786 329.0668 -28.011581 3.5733111e-043
-144.92635 330.34326 -28.120239 3.5733111e-043
-140.88019 331.97787 -28.259384 3.5733111e-043
-136.80562 333.65762 -28.40237 3.5733111e-043
-132.66406 335.28986 -28.541315 3.5733111e-043
-131.20137 335.99069 -28.600971 3.5733111e-043
-107.91254 334.80679 -28.500195 3.5733111e-043
-103.17175 333.26294 -28.368774 3.5733111e-043
-98.137596 332.40793 -28.295992 2.3509886e-038
-93.342705 332.31738 -28.288284 2.3509886e-038
-88.697983 332.78049 -28.327705 2.3509886e-038
-84.032059 333.21225 -28.36446 2.3509886e-038
-79.300659 333.42075 -28.382208 2.3509886e-038
-74.522377 333.44629 -28.384382 2.3509886e-038
-69.724312 333.38071 -28.378798 2.3509886e-038
-64.928406 333.31653 -28.373337 2.3509886e-038
-60.09177 333.01648 -28.347794 2.3509886e-038
-55.244022 332.59769 -28.312143 2.3509886e-038
-50.448704 332.44516 -28.299162 2.3509886e-038
-45.698105 332.5863 -28.311174 2.3509886e-038
-40.945415 332.74332 -28.324541 2.3509886e-038
-36.158764 332.62936 -28.31484 2.3509886e-038
-31.392328 332.69528 -28.320452 2.3509886e-038
-26.734434 334.14114 -28.443531 2.3509886e-038
-22.102121 336.60843 -28.653559 2.3509886e-038
-20.721535 337.47827 -28.727602 2.3509886e-038
-155.6776 329.84177 -32.810181 3.5733111e-043
-153.96974 329.40991 -32.767223 3.5733111e-043
-149.1282 329.15585 -32.741951 3.5733111e-043
-144.66824 329.75497 -32.801548 3.5733111e-043
-140.40599 330.8605 -32.911518 3.5733111e-043
-136.22707 332.24658 -33.049393 3.5733111e-043
-132.02425 333.67279 -33.191265 3.5733111e-043
-127.75787 335.0397 -33.327232 3.5733111e-043
-123.42366 336.32861 -33.455448 3.5733111e-043
-122.24255 336.59775 -33.482216 3.5733111e-043
-113.99746 336.51871 -33.474358 3.5733111e-043
-113.82578 336.48694 -33.471191 3.5733111e-043
-108.58873 335.22406 -33.345573 3.5733111e-043
-103.36203 333.87762 -33.211639 3.5733111e-043
-98.297554 332.94974 -33.119339 3.5733111e-043
-93.433212 332.63962 -33.08849 2.3509886e-038
-88.71936 332.86069 -33.110481 2.3509886e-038
-84.048706 333.27823 -33.15202 2.3509886e-038
-79.362419 333.68045 -33.192028 2.3509886e-038
-74.626518 333.91229 -33.215088 2.3509886e-038
-69.841736 333.94214 -33.218056 2.3509886e-038
-65.058548 333.98468 -33.222286 2.3509886e-038
-60.232719 333.79761 -33.203682 2.3509886e-038
-55.374977 333.38611 -33.162746 2.3509886e-038
-50.546066 333.08676 -33.132969 2.3509886e-038
-45.762234 333.05301 -33.129612 2.3509886e-038
-40.977665 333.0054 -33.124878 2.3509886e-038
-36.173397 332.76398 -33.100861 2.3509886e-038
-31.416565 332.95215 -33.119579 2.3509886e-038
-26.782696 334.74432 -33.297852 2.3509886e-038
-22.146599 337.28583 -33.550659 2.3509886e-038
-20.755955 338.03571 -33.625252 2.3509886e-038
-149.76175 330.76199 -37.647556 3.5733111e-043
-144.87584 330.22818 -37.586796 3.5733111e-043
-140.32846 330.67776 -37.63797 3.5733111e-043
-135.97516 331.6322 -37.746605 3.5733111e-043
-131.64783 332.72144 -37.870583 3.5733111e-043
-127.21581 333.61816 -37.972649 3.5733111e-043
-122.62695 334.15762 -38.034046 3.5733111e-043
-117.93929 334.46072 -38.06855 3.5733111e-043
-113.1863 334.59653 -38.084003 3.5733111e-043
-108.32135 334.39862 -38.061481 3.5733111e-043
-103.36694 333.89346 -38.003986 3.5733111e-043
-98.42466 333.38025 -37.945568 3.5733111e-043
-93.567108 333.11633 -37.915527 2.3509886e-038
-88.797516 333.1539 -37.919804 2.3509886e-038
-84.105354 333.5029 -37.959526 2.3509886e-038
-79.458618 334.0849 -38.025776 2.3509886e-038
-74.780624 334.60178 -38.084602 2.3509886e-038
-70.017662 334.78336 -38.10527 2.3509886e-038
-65.218803 334.80734 -38.108002 2.3509886e-038
-60.375252 334.58749 -38.082977 2.3509886e-038
-55.493431 334.09924 -38.027405 2.3509886e-038
-50.613117 333.52859 -37.962456 2.3509886e-038
-45.770412 333.11255 -37.9151 2.3509886e-038
-40.961277 332.87222 -37.887745 2.3509886e-038
-36.17374 332.76715 -37.875786 2.3509886e-038
-31.447372 333.27866 -37.934006 2.3509886e-038
-26.833336 335.37729 -38.172871 2.3509886e-038
-22.227171 338.51294 -38.529774 2.3509886e-038
-20.846878 339.51648 -38.644001 2.3509886e-038
-143.11816 332.46902 -42.612179 3.5733111e-043
-140.91585 332.06192 -42.560005 3.5733111e-043
-136.12976 332.00925 -42.553253 3.5733111e-043
-131.49513 332.33554 -42.595074 3.5733111e-043
-126.87634 332.72794 -42.64537 3.5733111e-043
-122.20438 333.0061 -42.681019 3.5733111e-043
-117.4778 333.15201 -42.699718 3.5733111e-043
-112.74356 333.28772 -42.717113 3.5733111e-043
-108.02945 333.4975 -42.743999 3.5733111e-043
-103.26393 333.56073 -42.752106 3.5733111e-043
-98.470306 333.53488 -42.748791 3.5733111e-043
-93.681725 333.52435 -42.74744 2.3509886e-038
-88.902802 333.54889 -42.750591 2.3509886e-038
-84.187531 333.82874 -42.786457 2.3509886e-038
-79.554337 334.48734 -42.870869 2.3509886e-038
-74.923904 335.24289 -42.967709 2.3509886e-038
-70.202789 335.66852 -43.022255 2.3509886e-038
-65.408989 335.78366 -43.037018 2.3509886e-038
-60.527557 335.43152 -42.991879 2.3509886e-038
-55.589417 334.67712 -42.895195 2.3509886e-038
-50.658779 333.82953 -42.786556 2.3509886e-038
-45.772869 333.13043 -42.696953 2.3509886e-038
-40.948879 332.77148 -42.650948 2.3509886e-038
-36.181332 332.83694 -42.65934 2.3509886e-038
-31.489822 333.72852 -42.773613 2.3509886e-038
-26.903767 336.25754 -43.097752 2.3509886e-038
-22.339483 340.22339 -43.606052 2.3509886e-038
-20.972715 341.56595 -43.778126 2.3509886e-038
-136.85262 333.78738 -47.5704 2.3509886e-038
-131.6304 332.67743 -47.412212 3.5733111e-043
-126.72476 332.33044 -47.362762 3.5733111e-043
-121.90529 332.19107 -47.342899 3.5733111e-043
-117.12567 332.15341 -47.337532 3.5733111e-043
-112.4004 332.27328 -47.354618 3.5733111e-043
-107.73115 332.57663 -47.39785 3.5733111e-043
-103.03955 332.83594 -47.434807 3.5733111e-043
-98.324158 333.03986 -47.463863 2.3509886e-038
-93.598129 333.22675 -47.490501 2.3509886e-038
-88.867744 333.41739 -47.517673 2.3509886e-038
-84.198593 333.87262 -47.582546 2.3509886e-038
-79.610687 334.7243 -47.70393 2.3509886e-038
-75.033119 335.73157 -47.847481 2.3509886e-038
-70.373878 336.48651 -47.955074 2.3509886e-038
-65.615257 336.84259 -48.005821 2.3509886e-038
-60.701725 336.39673 -47.942276 2.3509886e-038
-55.70237 335.35715 -47.794121 2.3509886e-038
-50.732952 334.3183 -47.646069 2.3509886e-038
-45.813961 333.42947 -47.519394 2.3509886e-038
-40.977459 333.00372 -47.458717 2.3509886e-038
-36.233532 333.31717 -47.503387 2.3509886e-038
-31.58939 334.78369 -47.712395 2.3509886e-038
-27.044502 338.01654 -48.17313 2.3509886e-038
-22.514225 342.88467 -48.86692 2.3509886e-038
-21.151905 344.50119 -49.097301 2.3509886e-038
-130.97215 333.40149 -52.299114 2.3509886e-038
-126.7295 332.34286 -52.133053 2.3509886e-038
-121.72788 331.70764 -52.033409 2.3509886e-038
-116.84686 331.36273 -51.979301 3.5733111e-043
-112.08336 331.33606 -51.975121 3.5733111e-043
-107.37537 331.4783 -51.997429 3.5733111e-043
-102.65936 331.60785 -52.017757 2.3509886e-038
-97.948486 331.7674 -52.042778 2.3509886e-038
-93.269905 332.05823 -52.088402 2.3509886e-038
-88.636559 332.55002 -52.16555 2.3509886e-038
-84.079773 333.40143 -52.299107 2.3509886e-038
-79.569504 334.55112 -52.479454 2.3509886e-038
-75.037399 335.7507 -52.667625 2.3509886e-038
-70.425545 336.73358 -52.821804 2.3509886e-038
-65.709007 337.32385 -52.914394 2.3509886e-038
-60.820564 337.05533 -52.872272 2.3509886e-038
-55.828369 336.11575 -52.724888 2.3509886e-038
-50.848774 335.08154 -52.562656 2.3509886e-038
-45.901741 334.06833 -52.403717 2.3509886e-038
-41.055557 333.63837 -52.336273 2.3509886e-038
-36.33934 334.29047 -52.438564 2.3509886e-038
-31.738953 336.3688 -52.764584 2.3509886e-038
-27.218372 340.18964 -53.363937 2.3509886e-038
-22.703691 345.77017 -54.239334 2.3509886e-038
-21.31999 347.66891 -54.537178 2.3509886e-038
-126.0452 332.89313 -56.995785 2.3509886e-038
-121.75854 331.7912 -56.807117 2.3509886e-038
-116.68596 330.90646 -56.655636 2.3509886e-038
-111.80106 330.50156 -56.586311 2.3509886e-038
-106.99719 330.31082 -56.553654 2.3509886e-038
-102.21634 330.17682 -56.530716 2.3509886e-038
-97.485115 330.19788 -56.534317 2.3509886e-038
-92.841492 330.53296 -56.59169 2.3509886e-038
-88.297104 331.27646 -56.718983 2.3509886e-038
-83.85128 332.49539 -56.927681 2.3509886e-038
-79.418243 333.91513 -57.170765 2.3509886e-038
-74.921875 335.23383 -57.396542 2.3509886e-038
-70.338516 336.31744 -57.582069 2.3509886e-038
-65.662865 337.08698 -57.713821 2.3509886e-038
-60.85622 337.25293 -57.742233 2.3509886e-038
-55.945637 336.82178 -57.668415 2.3509886e-038
-50.993153 336.03296 -57.53336 2.3509886e-038
-46.039261 335.06918 -57.368351 2.3509886e-038
-41.192627 334.75229 -57.314095 2.3509886e-038
-36.495285 335.72504 -57.48064 2.3509886e-038
-31.91577 338.24268 -57.911694 2.3509886e-038
-27.399897 342.45844 -58.633488 2.3509886e-038
-22.899061 348.74557 -59.709934 2.3509886e-038
-21.38756 351.29733 -60.146824 2.3509886e-038
-121.56235 332.65472 -61.727955 2.3509886e-038
-116.69767 330.93964 -61.409706 2.3509886e-038
-111.6381 330.01981 -61.239014 2.3509886e-038
-106.73594 329.5043 -61.14336 2.3509886e-038
-101.91169 329.19275 -61.085548 2.3509886e-038
-97.175934 329.1506 -61.077728 2.3509886e-038
-92.544426 329.47537 -61.137993 2.3509886e-038
-88.020905 330.2402 -61.279911 2.3509886e-038
-83.621246 331.58325 -61.529133 2.3509886e-038
-79.239326 333.16287 -61.82225 2.3509886e-038
-74.785942 334.62558 -62.09367 2.3509886e-038
-70.245392 335.87219 -62.324997 2.3509886e-038
-65.62014 336.86765 -62.509708 2.3509886e-038
-60.886646 337.42154 -62.612495 2.3509886e-038
-56.05212 337.46283 -62.620155 2.3509886e-038
-51.151127 337.07397 -62.548004 2.3509886e-038
-46.22942 336.45313 -62.432796 2.3509886e-038
-41.394413 336.39209 -62.421471 2.3509886e-038
-36.692951 337.5434 -62.635109 2.3509886e-038
-32.115002 340.35416 -63.156673 2.3509886e-038
-27.631428 345.35223 -64.084129 2.3509886e-038
-23.188776 353.15784 -65.532547 2.3509886e-038
-21.097761 357.98364 -66.428032 2.3509886e-038
-116.81896 332.17252 -66.404549 2.3509886e-038
-111.80872 330.52417 -66.075035 2.3509886e-038
-106.72854 329.48148 -65.866592 2.3509886e-038
-101.82928 328.92657 -65.755661 2.3509886e-038
-97.097633 328.88541 -65.747421 2.3509886e-038
-92.487175 329.27155 -65.824623 2.3509886e-038
-87.965454 330.0321 -65.976662 2.3509886e-038
-83.557701 331.33127 -66.236382 2.3509886e-038
-79.177818 332.90427 -66.550842 2.3509886e-038
-74.748322 334.45728 -66.861305 2.3509886e-038
-70.247139 335.88052 -67.145821 2.3509886e-038
-65.656998 337.05685 -67.380981 2.3509886e-038
-60.96225 337.84048 -67.537636 2.3509886e-038
-56.173244 338.19208 -67.607925 2.3509886e-038
-51.319191 338.18146 -67.605804 2.3509886e-038
-46.439972 337.9855 -67.566628 2.3509886e-038
-41.619453 338.22089 -67.613686 2.3509886e-038
-36.903549 339.48071 -67.865532 2.3509886e-038
-32.327229 342.60333 -68.489777 2.3509886e-038
-27.921848 348.98206 -69.764946 2.3509886e-038
-23.610573 359.58167 -71.883919 2.3509886e-038
-20.02388 370.22894 -74.012405 2.3509886e-038
-112.23314 332.7601 -71.296524 2.3509886e-038
-107.11162 330.66406 -70.847427 2.3509886e-038
-102.06715 329.69492 -70.639786 2.3509886e-038
-97.327003 329.66232 -70.632797 2.3509886e-038
-92.71199 330.07193 -70.720558 2.3509886e-038
-88.151901 330.73166 -70.861916 2.3509886e-038
-83.685555 331.83826 -71.099014 2.3509886e-038
-79.274879 333.31235 -71.414848 2.3509886e-038
-74.855576 334.93716 -71.76297 2.3509886e-038
-70.37764 336.50452 -72.098801 2.3509886e-038
-65.805428 337.81882 -72.380394 2.3509886e-038
-61.146065 338.85916 -72.603302 2.3509886e-038
-56.396275 339.53485 -72.748062 2.3509886e-038
-51.561382 339.77747 -72.800049 2.3509886e-038
-46.697689 339.86115 -72.817978 2.3509886e-038
-41.884735 340.37671 -72.928444 2.3509886e-038
-37.154308 341.78751 -73.230721 2.3509886e-038
-32.556934 345.03775 -73.927109 2.3509886e-038
-28.171215 352.09879 -75.439995 2.3509886e-038
-23.922871 364.33786 -78.062309 2.3509886e-038
-19.406052 378.18958 -81.030151 2.3509886e-038
-17.585871 383.0177 -82.064613 2.3509886e-038
-107.05814 332.89459 -76.101776 2.3509886e-038
-102.70254 331.74731 -75.839508 2.3509886e-038
-97.990982 331.91132 -75.876999 2.3509886e-038
-93.35685 332.36774 -75.981331 2.3509886e-038
-88.681526 332.71872 -76.061569 2.3509886e-038
-84.077782 333.39355 -76.215843 2.3509886e-038
-79.582382 334.60529 -76.492844 2.3509886e-038
-75.142677 336.22177 -76.862396 2.3509886e-038
-70.67411 337.92209 -77.251091 2.3509886e-038
-66.123436 339.45135 -77.600685 2.3509886e-038
-61.515686 340.90753 -77.933586 2.3509886e-038
-56.809834 342.02469 -78.188972 2.3509886e-038
-51.969219 342.46503 -78.289635 2.3509886e-038
-47.082268 342.6601 -78.334236 2.3509886e-038
-42.248848 343.33569 -78.488678 2.3509886e-038
-37.489227 344.86847 -78.839081 2.3509886e-038
-32.839466 348.03201 -79.562286 2.3509886e-038
-28.381409 354.72589 -81.092552 2.3509886e-038
-24.048794 366.25568 -83.728325 2.3509886e-038
-19.470842 379.45224 -86.74514 2.3509886e-038
-14.454082 391.02252 -89.39019 2.3509886e-038
-14.03647 391.88922 -89.588318 2.3509886e-038
-101.5906 336.30817 -81.707558 2.3509886e-038
-99.361313 336.55286 -81.766998 2.3509886e-038
-94.679649 337.07715 -81.894386 2.3509886e-038
-89.777184 336.82947 -81.834206 2.3509886e-038
-84.934067 336.78894 -81.824364 2.3509886e-038
-80.241882 337.37814 -81.967514 2.3509886e-038
-75.678345 338.61859 -82.268883 2.3509886e-038
-71.189095 340.38446 -82.697906 2.3509886e-038
-66.667297 342.24332 -83.149521 2.3509886e-038
-62.102146 344.15756 -83.614601 2.3509886e-038
-57.424088 345.72281 -83.994881 2.3509886e-038
-52.57513 346.45782 -84.173462 2.3509886e-038
-47.643505 346.74472 -84.243164 2.3509886e-038
-42.752804 347.43106 -84.409912 2.3509886e-038
-37.934429 348.96396 -84.782333 2.3509886e-038
-33.213879 352.00003 -85.519958 2.3509886e-038
-28.645164 358.02246 -86.983139 2.3509886e-038
-24.140022 367.64505 -89.320984 2.3509886e-038
-19.452587 379.09644 -92.103157 2.3509886e-038
-14.406185 389.72678 -94.685844 2.3509886e-038
-10.405685 396.11038 -96.236763 2.3509886e-038
-94.566063 344.69199 -88.69017 2.3509886e-038
-91.626915 343.76935 -88.452774 2.3509886e-038
-86.453621 342.81448 -88.207085 2.3509886e-038
-81.420372 342.3331 -88.083221 2.3509886e-038
-76.543533 342.48984 -88.12355 2.3509886e-038
-71.957817 344.06 -88.527557 2.3509886e-038
-67.432999 346.17413 -89.071526 2.3509886e-038
-62.851669 348.31128 -89.621422 2.3509886e-038
-58.148777 350.08578 -90.078011 2.3509886e-038
-53.285652 351.13998 -90.349258 2.3509886e-038
-48.302082 351.53775 -90.451607 2.3509886e-038
-43.354816 352.32336 -90.65374 2.3509886e-038
-38.476768 353.953 -91.073051 2.3509886e-038
-33.654232 356.6669 -91.771339 2.3509886e-038
-28.912222 361.36029 -92.978966 2.3509886e-038
-24.197308 368.51749 -94.820534 2.3509886e-038
-19.383694 377.75385 -97.197075 2.3509886e-038
-14.319396 387.37888 -99.673622 2.3509886e-038
-8.9297619 394.83148 -101.59119 2.3509886e-038
-7.6590648 396.06512 -101.90861 2.3509886e-038
-80.06395 348.34668 -94.628685 2.3509886e-038
-77.778076 348.01373 -94.538231 2.3509886e-038
-73.145592 349.73923 -95.006966 2.3509886e-038
-68.649704 352.42017 -95.735252 2.3509886e-038
-63.938148 354.33234 -96.254692 2.3509886e-038
-59.036812 355.43225 -96.553482 2.3509886e-038
-54.050583 356.18073 -96.756805 2.3509886e-038
-48.964439 356.35834 -96.805061 2.3509886e-038
-43.933865 357.02899 -96.987244 2.3509886e-038
-38.978741 358.57071 -97.406044 2.3509886e-038
-34.045292 360.81131 -98.014709 2.3509886e-038
-29.132792 364.11707 -98.91272 2.3509886e-038
-24.234659 369.08633 -100.26263 2.3509886e-038
-19.299479 376.11267 -102.17134 2.3509886e-038
-14.211133 384.45007 -104.4362 2.3509886e-038
-8.8651381 391.97409 -106.48011 2.3509886e-038
-6.4741387 394.46384 -107.15645 2.3509886e-038
-69.390388 363.05963 -103.83472 2.3509886e-038
-65.54425 363.233 -103.88429 2.3509886e-038
-60.185696 362.34912 -103.63151 2.3509886e-038
-54.932022 361.9892 -103.52857 2.3509886e-038
-49.678608 361.556 -103.40467 2.3509886e-038
-44.508907 361.70209 -103.44646 2.3509886e-038
-39.428562 362.70868 -103.73434 2.3509886e-038
-34.376835 364.32501 -104.19662 2.3509886e-038
-29.332085 366.60794 -104.84953 2.3509886e-038
-24.298939 370.06528 -105.83832 2.3509886e-038
-19.253992 375.2262 -107.31434 2.3509886e-038
-14.116978 381.90289 -109.22387 2.3509886e-038
-8.7939939 388.82846 -111.20457 2.3509886e-038
-7.0395079 390.82025 -111.77423 2.3509886e-038
-58.985554 369.98584 -111.12424 2.3509886e-038
-56.021702 369.16992 -110.87917 2.3509886e-038
-50.546738 367.87418 -110.49001 2.3509886e-038
-45.171444 367.08618 -110.25333 2.3509886e-038
-39.910465 367.14178 -110.27003 2.3509886e-038
-34.721752 367.98041 -110.52191 2.3509886e-038
-29.561693 369.47772 -110.97162 2.3509886e-038
-24.420324 371.91397 -111.70335 2.3509886e-038
-19.276094 375.65689 -112.82752 2.3509886e-038
-14.066394 380.53448 -114.29249 2.3509886e-038
-9.5223312 385.02213 -115.64035 2.3509886e-038
-49.881752 374.31805 -117.79619 2.3509886e-038
-45.861294 372.69226 -117.28456 2.3509886e-038
-40.394642 371.59576 -116.9395 2.3509886e-038
-35.072868 371.70154 -116.97278 2.3509886e-038
-29.802866 372.492 -117.22154 2.3509886e-038
-24.561016 374.05664 -117.71392 2.3509886e-038
-19.325232 376.61453 -118.51888 2.3509886e-038
-14.653259 379.81784 -119.52695 2.3509886e-038
-37.016624 375.10751 -123.42674 2.3509886e-038
-35.385994 375.02005 -123.39796 2.3509886e-038
-30.011263 375.09668 -123.42317 2.3509886e-038
-25.297194 375.84033 -123.66787 2.3509886e-038
-158.44348 328.88538 -15.767967 3.5733111e-043
-158.76324 329.54913 -29.68688 3.5733111e-043
-154.16103 329.81918 -15.452485 3.5733111e-043
-154.28671 330.08807 -34.089275 3.5733111e-043
-150.26292 331.66043 -16.599392 3.5733111e-043
-149.85117 330.75162 -37.584862 3.5733111e-043
-146.05428 332.91431 -18.59223 3.5733111e-043
-145.51204 331.67834 -40.75885 3.5733111e-043
-141.7415 334.00754 -21.231573 3.5733111e-043
-141.27802 332.91537 -44.023083 3.5733111e-043
-137.46121 335.25659 -24.303642 3.5733111e-043
-136.85861 333.78687 -47.565651 2.3509886e-038
-132.91933 335.935 -27.480009 3.5733111e-043
-131.96817 333.53107 -51.47496 2.3509886e-038
-126.22835 331.02863 64.027092 2.3509528e-038
-126.23083 331.03513 60.566097 2.3509528e-038
-128.2224 336.25787 -30.509338 3.5733111e-043
-126.9546 332.93317 -56.053608 2.3509886e-038
-122.10603 332.7381 70.504517 2.3509528e-038
-121.39683 330.80551 42.15556 2.3509528e-038
-123.53352 336.62799 -33.047985 3.5733111e-043
-122.1056 332.73691 -61.192226 2.3509886e-038
-117.35265 332.79709 67.009338 2.3509528e-038
-117.67477 333.7106 26.440266 2.3509528e-038
-118.6333 336.42886 -34.229443 3.5733111e-043
-117.13047 332.16702 -66.080673 2.3509886e-038
-112.72167 333.22302 58.58445 2.3509528e-038
-113.1805 334.57935 14.453822 2.3509528e-038
-113.83328 336.50909 -33.419109 3.5733111e-043
-112.54358 332.69653 -70.956642 2.3509886e-038
-109.77135 338.87494 49.347446 2.3509528e-038
-109.37802 337.66071 1.0615091 2.3509886e-038
-108.57428 335.17944 -29.343401 3.5733111e-043
-107.83012 332.88214 -75.422211 2.3509886e-038
-104.35757 337.09338 38.600651 2.3509528e-038
-103.48351 334.27002 -79.522758 2.3509886e-038
-100.77322 341.33524 28.708876 2.3509528e-038
-99.965752 338.60019 -83.670876 2.3509886e-038
-97.485374 347.06604 21.068621 2.3509886e-038
-96.456772 343.40405 -87.399399 2.3509886e-038
-91.509338 343.32825 16.385197 2.3509886e-038
-92.129738 345.65585 -89.965157 2.3509886e-038
-84.886253 336.59937 88.811035 2.3418052e-038
-86.034843 341.1539 25.370457 2.3509886e-038
-86.401146 342.60638 21.528437 2.3509886e-038
-87.569336 347.23859 -91.989616 2.3509886e-038
-80.187027 337.14752 86.975845 2.3418052e-038
-82.791351 348.09741 -93.692665 2.3509886e-038
-75.876244 339.50409 71.62204 2.3418052e-038
-78.026276 349.12427 -95.594437 2.3509886e-038
-71.248581 340.66885 51.905899 2.3418052e-038
-74.082062 354.21689 -98.904449 2.3509886e-038
-66.039253 339.0192 25.134731 2.3418052e-038
-70.400352 361.40735 -102.86636 2.3509886e-038
-60.494591 335.24884 47.627235 2.3418052e-038
-66.135269 366.50836 -106.35711 2.3509886e-038
-56.328285 339.12552 80.537613 2.3418409e-038
-61.26796 368.86493 -109.50867 2.3509886e-038
-51.782619 341.23538 79.06517 2.3418409e-038
-56.378635 371.52203 -113.13428 2.3509886e-038
-46.858612 341.03235 51.390442 2.3418409e-038
-47.157928 343.21072 31.865299 2.3418409e-038
-47.318947 344.3826 20.083096 2.3509886e-038
-51.381451 373.9491 -116.84084 2.3509886e-038
-41.433079 336.7063 11.685677 2.3509886e-038
-46.098518 374.62009 -119.83433 2.3509886e-038
-36.183422 332.85617 10.487601 2.3509886e-038
-40.742851 374.79901 -122.1927 2.3509886e-038
-31.181946 330.46564 12.645687 2.3509886e-038
-35.40633 375.2356 -123.82685 2.3509886e-038
-26.312639 328.86932 17.428104 9.1476764e-041
-30.039955 375.45529 -124.27422 2.3509886e-038
-21.466192 326.92343 23.506264 9.1476764e-041
-24.682781 375.91107 -123.50926 2.3509886e-038
-16.65811 324.63705 30.282305 9.1476764e-041
-17.277493 336.7077 1.1913326 9.1476764e-041
-19.267952 375.49826 -77.086761 2.3509886e-038
-19.352215 377.14038 -121.72074 2.3509886e-038
-12.047871 325.92792 38.811878 9.1476764e-041
-12.3191 333.26538 11.979441 9.1476764e-041
-14.456673 391.09259 -88.782593 2.3509886e-038
-14.055893 380.2504 -119.16373 2.3509886e-038
-7.4650726 330.06989 46.491825 9.1476764e-041
-7.4983058 331.53931 22.145439 9.1476764e-041
-8.9657927 396.42459 -98.946617 2.3509886e-038
-8.7402687 386.453 -114.69379 2.3509886e-038
-2.7314062 330.34079 49.028122 9.1476764e-041
-2.7270858 329.81827 31.690899 9.1476764e-041
