# .PCD v0.7 - Point Cloud Data file format
VERSION 0.7
FIELDS x y z rgb
SIZE 4 4 4 4
TYPE F F F F
COUNT 1 1 1 1
WIDTH 615
HEIGHT 1
VIEWPOINT 0 0 0 1 0 0 0
POINTS 615
DATA ascii
-62.796436 325.20441 70.454544 2.3418052e-038
0 0 0 2.3418409e-038
0 0 0 2.3418409e-038
-97.353035 362.64349 59.778175 2.3509528e-038
0 0 0 2.3418409e-038
-72.53968 335.70166 79.385567 2.3418052e-038
-69.629898 333.99664 78.982361 2.3418052e-038
-63.743866 328.0871 77.584892 2.3418052e-038
-57.657536 320.13455 75.7043 2.3418052e-038
-57.083309 319.39182 75.528656 2.3418052e-038
-74.013687 336.74136 74.854614 2.3418052e-038
-69.581009 333.76215 74.19236 2.3418052e-038
-63.525536 326.96338 72.681053 2.3418052e-038
-57.46069 319.04156 70.920113 2.3418052e-038
-52.078762 313.88123 69.77301 2.3418052e-038
-51.273647 313.62396 69.715828 2.3509886e-038
-74.35955 337.70197 70.277718 2.3418052e-038
-69.615959 333.92978 69.492706 2.3418052e-038
-63.489788 326.77936 68.004662 2.3418052e-038
-57.464996 319.06552 66.399368 2.3418052e-038
-52.150269 314.31219 65.410172 2.3509886e-038
-49.942142 314.04126 65.35379 2.3509886e-038
-74.565201 338.55231 65.652184 2.3418052e-038
-69.655815 334.12097 64.792854 2.3418052e-038
-63.492722 326.79446 63.372105 2.3418052e-038
-57.483185 319.16647 61.892879 2.3418052e-038
-52.17065 314.43503 60.975353 2.3509886e-038
-49.108501 313.90497 60.872566 2.3509886e-038
-74.583702 338.3533 60.813923 2.3418052e-038
-69.544571 333.58734 59.957314 2.3418052e-038
-63.375793 326.19266 58.628227 2.3418052e-038
-57.398842 318.69818 57.281208 2.3418052e-038
-52.14119 314.25748 56.483059 2.3509886e-038
-48.502666 313.78699 56.398495 2.3509886e-038
-102.70145 365.86774 60.569252 2.3509528e-038
-102.10474 365.44064 60.498547 2.3509528e-038
-96.14946 362.5322 60.017056 2.3509528e-038
-93.323936 361.46866 59.840992 2.3509528e-038
-74.737633 337.91782 55.942154 2.3418052e-038
-69.332733 332.5712 55.057026 2.3418052e-038
-63.151249 325.03693 53.809727 2.3509886e-038
-57.239475 317.81332 52.613869 2.3509886e-038
-52.110275 314.07114 51.99435 2.3509886e-038
-48.289932 314.2355 52.021561 2.3509886e-038
-103.16892 365.79727 55.368633 2.3509528e-038
-101.94509 364.86923 55.228157 2.3509528e-038
-96.062477 362.20422 54.824772 2.3509528e-038
-91.135803 360.76303 54.606628 2.3509528e-038
-75.635757 339.06421 51.322201 2.3418052e-038
-75.437347 338.80029 51.282249 2.3418052e-038
-69.157875 331.73248 50.21244 2.3418052e-038
-62.906548 323.77747 49.008335 2.3509886e-038
-57.071423 316.88022 47.964336 2.3509886e-038
-52.064331 313.79422 47.497227 2.3509886e-038
-48.506222 313.84039 47.504215 2.3509886e-038
-102.64248 363.66443 49.887058 2.3509528e-038
-101.39812 362.91162 49.783787 2.3509528e-038
-95.878731 361.51141 49.591709 2.3509528e-038
-90.600296 360.91287 49.509602 2.3509528e-038
-89.261505 360.01572 49.386532 2.3509528e-038
-77.621895 342.65967 47.005653 2.3418052e-038
-75.615959 339.60248 46.586269 2.3418052e-038
-69.002968 330.98944 45.404743 2.3418052e-038
-62.632637 322.36765 44.222012 2.3509886e-038
-56.867817 315.74973 43.314178 2.3509886e-038
-51.887127 312.72623 42.899414 2.3509886e-038
-48.506161 311.17651 42.686829 2.3509886e-038
-101.7186 360.48083 44.336792 2.3509528e-038
-100.59978 360.05429 44.284328 2.3509528e-038
-95.418175 359.7749 44.249966 2.3509528e-038
-90.371559 360.00165 44.277855 2.3509528e-038
-83.588036 352.92209 43.407112 2.3509528e-038
-75.834106 340.58218 41.889389 2.3418052e-038
-68.835373 330.18552 40.610664 2.3509886e-038
-62.33696 320.84583 39.461941 2.3509886e-038
-56.629436 314.42618 38.672367 2.3509886e-038
-51.476566 310.25177 38.158947 2.3509886e-038
-47.236355 305.37723 37.559406 2.3509886e-038
-100.88629 358.07532 38.961491 2.3509528e-038
-99.979286 357.83347 38.935177 2.3509528e-038
-94.887741 357.77487 38.928802 2.3509528e-038
-89.907372 358.15253 38.969894 2.3509528e-038
-83.518761 352.62961 38.368954 2.3509528e-038
-75.984627 341.25821 37.131653 2.3509886e-038
-68.658066 329.33502 35.834316 2.3509886e-038
-62.083656 319.54208 34.768764 2.3509886e-038
-56.436989 313.35767 34.095848 2.3509886e-038
-51.024357 307.52628 33.461349 2.3509886e-038
-45.118546 297.35425 32.354549 2.3509886e-038
-39.052078 283.91614 30.892374 2.3509886e-038
-34.072197 276.19559 30.052315 2.3509886e-038
-32.741684 275.5798 29.985313 2.3509886e-038
-100.16764 357.25034 33.803997 2.3509528e-038
-99.781242 357.12466 33.792099 2.3509528e-038
-94.566078 356.56204 33.738865 2.3509528e-038
-89.55069 356.73166 33.754913 2.3509528e-038
-83.43737 352.28595 33.334251 2.3509886e-038
-76.074402 341.66141 32.328926 2.3509886e-038
-68.521881 328.68176 31.10076 2.3509886e-038
-61.943279 318.81955 30.16757 2.3509886e-038
-56.365257 312.95938 29.613062 2.3509886e-038
-50.764931 305.96268 28.951017 2.3509886e-038
-44.569431 293.73532 27.794031 2.3509886e-038
-38.683365 281.23553 26.611269 2.3509886e-038
-33.89278 274.74118 25.996754 2.3509886e-038
-30.366697 274.60715 25.984074 2.3509886e-038
-99.284691 357.02341 28.718012 2.3509528e-038
-94.417931 356.00345 28.635969 2.3509528e-038
-89.345718 355.91513 28.628864 2.3509528e-038
-83.447975 352.33075 28.340544 2.3509528e-038
-76.226143 342.34293 27.537149 2.3509886e-038
-68.495201 328.5538 26.427992 2.3509886e-038
-61.921268 318.70627 25.635883 2.3509886e-038
-56.372971 313.0022 25.177061 2.3509886e-038
-50.627037 305.13162 24.543972 2.3509886e-038
-44.273239 291.78323 23.470266 2.3509886e-038
-38.564686 280.37271 22.552433 2.3509886e-038
-33.885666 274.6835 22.094809 2.3509886e-038
-30.824448 274.09167 22.047201 2.3509886e-038
-98.534279 357.71155 23.699087 2.3509528e-038
-94.464821 356.18027 23.597637 2.3509528e-038
-89.240952 355.4978 23.552422 2.3509528e-038
-83.48735 352.49701 23.353615 2.3509528e-038
-76.404839 343.14545 22.734055 2.3509886e-038
-68.560638 328.86768 21.788124 2.3509886e-038
-61.954399 318.87677 21.126207 2.3509886e-038
-56.32708 312.74738 20.720123 2.3509886e-038
-50.426212 303.92123 20.135372 2.3509886e-038
-44.043552 290.2695 19.230919 2.3509886e-038
-38.587788 280.54068 18.586365 2.3509886e-038
-34.091572 276.35263 18.308901 2.3509886e-038
-32.03566 276.0965 18.291929 2.3509886e-038
-97.673691 358.20468 18.650499 2.3509528e-038
-94.568138 356.56982 18.565376 2.3509528e-038
-89.12532 355.03717 18.485579 2.3509528e-038
-83.424355 352.23099 18.33947 2.3509528e-038
-76.506157 343.60052 17.89011 2.3509886e-038
-68.681313 329.44653 17.15316 2.3509886e-038
-61.998409 319.1033 16.614624 2.3509886e-038
-56.137226 311.69324 16.228807 2.3509886e-038
-50.071911 301.78583 15.712961 2.3509886e-038
-43.838814 288.92017 15.04309 2.3509886e-038
-38.714954 281.46521 14.654935 2.3509886e-038
-34.467613 279.40085 14.547452 2.3509886e-038
-33.463188 279.70288 14.563177 2.3509886e-038
-96.536125 357.87061 13.556561 2.3509528e-038
-94.615105 356.74692 13.513994 2.3509528e-038
-88.955139 354.35928 13.423547 2.3509528e-038
-83.214493 351.34494 13.309361 2.3509528e-038
-76.488297 343.52026 13.012953 2.3509886e-038
-68.848358 330.2478 12.510176 2.3509886e-038
-62.034603 319.28958 12.095067 2.3509886e-038
-55.78027 309.7113 11.73223 2.3509886e-038
-49.573685 298.78299 11.318254 2.3509886e-038
-43.694279 287.96762 10.908553 2.3509886e-038
-38.930202 283.03009 10.721514 2.3509886e-038
-34.947899 283.29416 10.731518 2.3509886e-038
-34.883091 283.36423 10.734172 2.3509886e-038
-95.440117 357.58905 8.4733706 2.3509528e-038
-94.711716 357.11118 8.4620466 2.3509528e-038
-88.803047 353.75336 8.3824806 2.3509528e-038
-82.939743 350.18491 8.2979231 2.3509886e-038
-76.394035 343.09695 8.1299677 2.3509886e-038
-69.046211 331.19684 7.8479853 2.3509886e-038
-62.02401 319.23505 7.5645404 2.3509886e-038
-55.296181 307.02347 7.2751765 2.3509886e-038
-49.018696 295.43805 7.0006504 2.3509886e-038
-43.616749 287.45667 6.8115249 2.3509886e-038
-39.189598 284.91595 6.7513208 2.3509886e-038
-36.296814 286.13556 6.78022 2.3509886e-038
-94.401054 357.28766 3.3979661 2.3509528e-038
-88.597206 352.93341 3.3565552 2.3509886e-038
-82.535904 348.47983 3.3141999 2.3509886e-038
-76.119186 341.86252 3.2512662 2.3509886e-038
-69.091179 331.41257 3.1518822 2.3509886e-038
-61.868004 318.43213 3.0284326 2.3509886e-038
-54.849884 304.5455 2.8963642 2.3509886e-038
-48.683994 293.42078 2.7905636 2.3509886e-038
-43.702702 288.02313 2.7392294 2.3509886e-038
-39.470627 286.95908 2.7291098 2.3509886e-038
-37.555351 287.72626 2.7364058 2.3509886e-038
-93.524025 357.23904 -1.6700689 2.3509886e-038
-88.422714 352.23831 -1.6466907 2.3509886e-038
-82.138824 346.80328 -1.6212825 2.3509886e-038
-75.796753 340.41443 -1.5914149 2.3509886e-038
-69.043816 331.18536 -1.5482696 2.3509886e-038
-61.76178 317.88541 -1.4860932 2.3509886e-038
-54.728725 303.87277 -1.420585 2.3509886e-038
-48.784531 294.02673 -1.3745555 2.3509886e-038
-44.06625 290.4191 -1.3576901 2.3509886e-038
-39.918503 290.21521 -1.356737 2.3509886e-038
-38.687149 290.68454 -1.3589311 2.3509886e-038
-93.396286 358.45407 -6.7605577 2.3509886e-038
-88.470009 352.4267 -6.6468797 2.3509886e-038
-81.93441 345.94025 -6.5245428 2.3509886e-038
-75.638885 339.70544 -6.4069529 2.3509886e-038
-69.090355 331.4086 -6.2504711 2.3509886e-038
-61.909683 318.64664 -6.0097771 2.3509886e-038
-55.024418 305.51459 -5.7621021 2.3509886e-038
-49.270077 296.95316 -5.6006308 2.3509886e-038
-44.664738 294.36343 -5.5517879 2.3509886e-038
-40.564781 294.91379 -5.5621681 2.3509886e-038
-39.698158 295.35812 -5.5705481 2.3509886e-038
-95.505791 363.70557 -12.018906 2.3509886e-038
-88.848648 353.93503 -11.696032 2.3509886e-038
-81.926758 345.9079 -11.430769 2.3509886e-038
-75.663277 339.815 -11.229424 2.3509886e-038
-69.267487 332.25824 -10.979708 2.3509886e-038
-62.18222 320.04938 -10.576257 2.3509886e-038
-55.435314 307.79599 -10.171335 2.3509886e-038
-49.812473 300.2222 -9.9210529 2.3509886e-038
-45.232315 298.10403 -9.8510571 2.3509886e-038
-41.117905 298.93512 -9.878521 2.3509886e-038
-40.35004 299.37216 -9.8929625 2.3509886e-038
-123.95981 390.60983 -18.448912 2.3509886e-038
-119.47198 388.18277 -18.334278 2.3509886e-038
-113.76819 387.51086 -18.302546 2.3509886e-038
-107.12439 383.40634 -18.108683 2.3509886e-038
-98.279724 370.56436 -17.502144 2.3509886e-038
-89.486084 356.4743 -16.836657 2.3509886e-038
-82.073647 346.52808 -16.366884 2.3509886e-038
-75.771889 340.3028 -16.072859 2.3509886e-038
-69.436584 333.0694 -15.731215 2.3509886e-038
-62.353378 320.93033 -15.157876 2.3509886e-038
-55.692616 309.22464 -14.605003 2.3509886e-038
-50.171997 302.38907 -14.282152 2.3509886e-038
-45.573078 300.34985 -14.185839 2.3509886e-038
-41.395866 300.95596 -14.214465 2.3509886e-038
-40.570313 301.38583 -14.234768 2.3509886e-038
-124.74857 390.06653 -23.956507 2.3509886e-038
-118.87577 386.24561 -23.72184 2.3509886e-038
-113.12821 385.33102 -23.66567 2.3509886e-038
-106.93487 382.728 -23.505802 2.3509886e-038
-98.901283 372.90799 -22.902691 2.3509886e-038
-89.962524 358.37225 -22.009956 2.3509886e-038
-82.196953 347.04874 -21.314507 2.3509886e-038
-75.815765 340.49985 -20.912296 2.3509886e-038
-69.469597 333.22769 -20.465666 2.3509886e-038
-62.356426 320.94601 -19.71137 2.3509886e-038
-55.765171 309.62747 -19.016226 2.3509886e-038
-50.338734 303.39398 -18.633387 2.3509886e-038
-45.74662 301.49359 -18.51667 2.3509886e-038
-41.588951 302.35971 -18.569864 2.3509886e-038
-40.490074 303.16165 -18.619116 2.3509886e-038
-122.82692 387.81259 -29.319336 2.3509886e-038
-118.51862 385.08517 -29.113138 2.3509886e-038
-112.57649 383.45178 -28.989653 2.3509886e-038
-106.40136 380.81857 -28.790577 2.3509886e-038
-98.794167 372.50412 -28.161987 2.3509886e-038
-89.96521 358.38293 -27.094402 2.3509886e-038
-82.135468 346.78912 -26.217888 2.3509886e-038
-75.727402 340.103 -25.712404 2.3509886e-038
-69.397499 332.8819 -25.166475 2.3509886e-038
-62.3204 320.76059 -24.250082 2.3509886e-038
-55.805763 309.85287 -23.42544 2.3509886e-038
-50.448315 304.05444 -22.987068 2.3509886e-038
-45.898331 302.49341 -22.869053 2.3509886e-038
-41.853016 304.27951 -23.004084 2.3509886e-038
-40.110031 306.5274 -23.174028 2.3509886e-038
-120.11683 386.01462 -34.65918 2.3509886e-038
-118.50095 385.02777 -34.570576 2.3509886e-038
-112.20461 382.18509 -34.315342 2.3509886e-038
-105.75372 378.50061 -33.98452 2.3509886e-038
-98.303032 370.65228 -33.279842 2.3509886e-038
-89.655403 357.14883 -32.067402 2.3509886e-038
-81.914436 345.85593 -31.053444 2.3509886e-038
-75.58857 339.47946 -30.480921 2.3509886e-038
-69.397316 332.88101 -29.888462 2.3509886e-038
-62.439671 321.37445 -28.855322 2.3509886e-038
-55.978909 310.81424 -27.907148 2.3509886e-038
-50.621571 305.09866 -27.393963 2.3509886e-038
-46.061108 303.56622 -27.256371 2.3509886e-038
-42.016796 305.47021 -27.427324 2.3509886e-038
-39.187584 309.73917 -27.810621 2.3509886e-038
-117.30862 385.15723 -40.045792 2.3509886e-038
-112.01737 381.54733 -39.67046 2.3509886e-038
-105.14198 376.31113 -39.126038 2.3509886e-038
-97.707977 368.40863 -38.304394 2.3509886e-038
-89.283913 355.66895 -36.979816 2.3509886e-038
-81.700172 344.95123 -35.865471 2.3509886e-038
-75.488899 339.03186 -35.250015 2.3509886e-038
-69.485428 333.30362 -34.654438 2.3509886e-038
-62.687328 322.64914 -33.546665 2.3509886e-038
-56.252483 312.33319 -32.474087 2.3509886e-038
-50.829994 306.35486 -31.852503 2.3509886e-038
-46.200333 304.48376 -31.657965 2.3509886e-038
-42.076481 305.90414 -31.805641 2.3509886e-038
-38.355198 310.91437 -32.326569 2.3509886e-038
-37.764565 312.32953 -32.473705 2.3509886e-038
-113.86891 383.10443 -45.266857 2.3509886e-038
-111.94732 381.30875 -45.054676 2.3509886e-038
-104.6378 374.50665 -44.250957 2.3509886e-038
-97.137459 366.25745 -43.276245 2.3509886e-038
-88.984299 354.4754 -41.884106 2.3509886e-038
-81.597961 344.51968 -40.707756 2.3509886e-038
-75.457069 338.88885 -40.042431 2.3509886e-038
-69.588181 333.79654 -39.440727 2.3509886e-038
-62.951073 324.00665 -38.283978 2.3509886e-038
-56.536316 313.90915 -37.090874 2.3509886e-038
-51.017437 307.48456 -36.33176 2.3509886e-038
-46.282417 305.02478 -36.041119 2.3509886e-038
-42.037491 305.62067 -36.111526 2.3509886e-038
-38.149189 309.24442 -36.539703 2.3509886e-038
-35.875053 313.09537 -36.99472 2.3509886e-038
-110.04449 379.0593 -50.165977 2.3509886e-038
-104.11575 372.63818 -49.316185 2.3509886e-038
-96.477066 363.76749 -48.142204 2.3509886e-038
-88.662827 353.19479 -46.742985 2.3509886e-038
-81.558052 344.35117 -45.57259 2.3509886e-038
-75.474785 338.96841 -44.860218 2.3509886e-038
-69.670845 334.19308 -44.228233 2.3509886e-038
-63.174656 325.15741 -43.032417 2.3509886e-038
-56.784767 315.28864 -41.726353 2.3509886e-038
-51.169685 308.40219 -40.814976 2.3509886e-038
-46.321404 305.28171 -40.402004 2.3509886e-038
-41.936031 304.88306 -40.349243 2.3509886e-038
-37.867332 306.95966 -40.624069 2.3509886e-038
-34.001125 311.43079 -41.215794 2.3509886e-038
-33.758862 311.88324 -41.275673 2.3509886e-038
-106.82296 374.05124 -54.809238 2.3509886e-038
-103.28516 369.66544 -54.166592 2.3509886e-038
-95.495789 360.06754 -52.760223 2.3509886e-038
-88.106575 350.97891 -51.428482 2.3509886e-038
-81.414558 343.74533 -50.368549 2.3509886e-038
-75.48188 339.00027 -49.673267 2.3509886e-038
-69.752777 334.58606 -49.026455 2.3509886e-038
-63.383625 326.23294 -47.802486 2.3509886e-038
-57.019253 316.59058 -46.389603 2.3509886e-038
-51.324722 309.33658 -45.326683 2.3509886e-038
-46.382534 305.6846 -44.791565 2.3509886e-038
-41.878311 304.46341 -44.612629 2.3509886e-038
-37.684086 305.47421 -44.760738 2.3509886e-038
-33.736229 309.00446 -45.278019 2.3509886e-038
-32.050339 312.34064 -45.766869 2.3509886e-038
-104.10867 368.18762 -59.172951 2.3509886e-038
-102.13031 365.53214 -58.746174 2.3509886e-038
-94.401459 355.94135 -57.204803 2.3509886e-038
-87.429886 348.28329 -55.974045 2.3509886e-038
-81.101387 342.4231 -55.032223 2.3509886e-038
-75.336685 338.34821 -54.377335 2.3509886e-038
-69.711685 334.38895 -53.741024 2.3509886e-038
-63.521774 326.944 -52.544514 2.3509886e-038
-57.243076 317.83331 -51.080303 2.3509886e-038
-51.516716 310.49374 -49.90073 2.3509886e-038
-46.516296 306.56616 -49.269508 2.3509886e-038
-41.938541 304.90131 -49.001942 2.3509886e-038
-37.664658 305.31674 -49.06871 2.3509886e-038
-33.648712 308.20285 -49.532551 2.3509886e-038
-30.580933 313.33109 -50.356731 2.3509886e-038
-102.00228 363.21082 -63.525379 2.3509886e-038
-101.15046 362.02521 -63.318016 2.3509886e-038
-93.500656 352.54489 -61.659912 2.3509886e-038
-86.781792 345.70157 -60.46302 2.3509886e-038
-80.68187 340.65179 -59.579811 2.3509886e-038
-75.057419 337.09399 -58.957554 2.3509886e-038
-69.55352 333.63025 -58.351753 2.3509886e-038
-63.591995 327.30542 -57.245537 2.3509886e-038
-57.461552 319.04639 -55.801037 2.3509886e-038
-51.757557 311.94528 -54.559063 2.3509886e-038
-46.737179 308.02188 -53.872856 2.3509886e-038
-42.119583 306.21753 -53.557281 2.3509886e-038
-37.792587 306.35373 -53.5811 2.3509886e-038
-33.706554 308.73267 -53.997173 2.3509886e-038
-29.819498 313.9165 -54.903828 2.3509886e-038
-29.218864 315.0614 -55.104065 2.3509886e-038
-100.31331 360.15103 -68.099113 2.3509886e-038
-93.011978 350.7023 -66.3125 2.3509886e-038
-86.286133 343.72708 -64.993591 2.3509886e-038
-80.277565 338.94476 -64.089325 2.3509886e-038
-74.75824 335.75034 -63.48531 2.3509886e-038
-69.377197 332.78452 -62.924519 2.3509886e-038
-63.644627 327.57632 -61.939724 2.3509886e-038
-57.67643 320.23944 -60.552437 2.3509886e-038
-52.020824 313.53201 -59.284161 2.3509886e-038
-47.000805 309.75931 -58.570801 2.3509886e-038
-42.352737 307.9126 -58.221611 2.3509886e-038
-37.983635 307.9024 -58.219685 2.3509886e-038
-33.85033 310.04956 -58.625683 2.3509886e-038
-29.894073 314.7016 -59.50531 2.3509886e-038
-27.850616 318.54443 -60.231934 2.3509886e-038
-98.847069 358.59668 -72.892029 2.3509886e-038
-92.965683 350.52777 -71.251854 2.3509886e-038
-86.032478 342.71664 -69.664093 2.3509886e-038
-79.988304 337.72342 -68.649124 2.3509886e-038
-74.52874 334.7196 -68.038528 2.3509886e-038
-69.261131 332.22775 -67.532013 2.3509886e-038
-63.722855 327.97897 -66.668358 2.3509886e-038
-57.891041 321.43103 -65.337357 2.3509886e-038
-52.272007 315.04593 -64.039452 2.3509886e-038
-47.238899 311.32846 -63.28381 2.3509886e-038
-42.556179 309.39166 -62.890114 2.3509886e-038
-38.143673 309.19968 -62.851093 2.3509886e-038
-33.963478 311.08594 -63.234509 2.3509886e-038
-29.968386 315.48389 -64.128479 2.3509886e-038
-26.386171 322.55008 -65.564827 2.3509886e-038
-97.279343 357.17657 -77.670059 2.3509886e-038
-93.191551 351.37939 -76.409431 2.3509886e-038
-86.014755 342.646 -74.510307 2.3509886e-038
-79.862328 337.19156 -73.324203 2.3509886e-038
-74.416794 334.21683 -72.677338 2.3509886e-038
-69.225105 332.05493 -72.207222 2.3509886e-038
-63.841084 328.58746 -71.453201 2.3509886e-038
-58.148342 322.85968 -70.207657 2.3509886e-038
-52.570759 316.84653 -68.900063 2.3509886e-038
-47.493591 313.00702 -68.065147 2.3509886e-038
-42.769382 310.94171 -67.61602 2.3509886e-038
-38.315498 310.59253 -67.5401 2.3509886e-038
-34.09016 312.24631 -67.899719 2.3509886e-038
-30.069124 316.54437 -68.834366 2.3509886e-038
-26.201664 324.25238 -70.510506 2.3509886e-038
-24.843273 327.64508 -71.248268 2.3509886e-038
-95.241966 356.02518 -82.470032 2.3509886e-038
-93.924339 354.14236 -82.03389 2.3509886e-038
-86.43045 344.30197 -79.754448 2.3509886e-038
-80.023674 337.8728 -78.26519 2.3509886e-038
-74.469299 334.45267 -77.472946 2.3509886e-038
-69.279343 332.31512 -76.977806 2.3509886e-038
-64.000427 329.40762 -76.304306 2.3509886e-038
-58.468983 324.63998 -75.199921 2.3509886e-038
-52.976688 319.29306 -73.961365 2.3509886e-038
-47.856781 315.40063 -73.059715 2.3509886e-038
-43.084755 313.2345 -72.557953 2.3509886e-038
-38.574261 312.69009 -72.431847 2.3509886e-038
-34.283997 314.02167 -72.740295 2.3509886e-038
-30.215309 318.08331 -73.681137 2.3509886e-038
-26.320784 325.7265 -75.451614 2.3509886e-038
-22.409227 335.37552 -77.686722 2.3509886e-038
-92.595604 355.84302 -87.475609 2.3509886e-038
-87.563904 348.81714 -85.748466 2.3509886e-038
-80.711899 340.77859 -83.772377 2.3509886e-038
-74.832367 336.08322 -82.618134 2.3509886e-038
-69.496872 333.35852 -81.948334 2.3509886e-038
-64.239418 330.6377 -81.27948 2.3509886e-038
-58.861382 326.8187 -80.340668 2.3509886e-038
-53.489086 322.38132 -79.249847 2.3509886e-038
-48.347034 318.63165 -78.328072 2.3509886e-038
-43.511387 316.33618 -77.763786 2.3509886e-038
-38.921173 315.50226 -77.558784 2.3509886e-038
-34.547176 316.43228 -77.787407 2.3509886e-038
-30.396772 319.99362 -78.66288 2.3509886e-038
-26.410154 326.83249 -80.344055 2.3509886e-038
-22.329161 335.16678 -82.392853 2.3509886e-038
-18.076889 342.70926 -84.246994 2.3509886e-038
-89.008858 356.24017 -92.62664 2.3509886e-038
-82.228729 347.18289 -90.271637 2.3509886e-038
-75.757713 340.23911 -88.466171 2.3509886e-038
-70.051651 336.01965 -87.369064 2.3509886e-038
-64.67453 332.8772 -86.551987 2.3509886e-038
-59.358097 329.57663 -85.69381 2.3509886e-038
-54.061359 325.83044 -84.719749 2.3509886e-038
-48.888042 322.19717 -83.775047 2.3509886e-038
-43.957745 319.5813 -83.094894 2.3509886e-038
-39.28167 318.42453 -82.794121 2.3509886e-038
-34.842049 319.13312 -82.978371 2.3509886e-038
-30.60696 322.20633 -83.777435 2.3509886e-038
-26.49091 327.83188 -85.240143 2.3509886e-038
-22.300953 334.74338 -87.037216 2.3509886e-038
-17.895973 341.2937 -88.740372 2.3509886e-038
-13.257357 346.59506 -90.11879 2.3509886e-038
-12.479545 347.37051 -90.320419 2.3509886e-038
-84.70314 357.66159 -98.069771 2.3509886e-038
-77.389816 347.56912 -95.302437 2.3509886e-038
-71.165688 341.36343 -93.600861 2.3509886e-038
-65.495872 337.10461 -92.433113 2.3509886e-038
-60.057896 333.46219 -91.434357 2.3509886e-038
-54.723236 329.81958 -90.43557 2.3509886e-038
-49.489571 326.16153 -89.432549 2.3509886e-038
-44.442196 323.10333 -88.593994 2.3509886e-038
-39.670746 321.57843 -88.17588 2.3509886e-038
-35.167431 322.11346 -88.322571 2.3509886e-038
-30.853441 324.80106 -89.059509 2.3509886e-038
-26.62517 329.49338 -90.34613 2.3509886e-038
-22.344259 335.39343 -91.963913 2.3509886e-038
-17.902985 341.42746 -93.618416 2.3509886e-038
-13.27398 347.02969 -95.154533 2.3509886e-038
-8.4916658 352.86481 -96.754509 2.3509886e-038
-7.5540352 354.15466 -97.108185 2.3509886e-038
-79.275864 356.6662 -102.8563 2.3509886e-038
-72.893013 349.64899 -100.83266 2.3509886e-038
-66.868858 344.1713 -99.252983 2.3509886e-038
-61.153854 339.5473 -97.91951 2.3509886e-038
-55.678249 335.5755 -96.774109 2.3509886e-038
-50.348991 331.82556 -95.692696 2.3509886e-038
-45.158176 328.30869 -94.678482 2.3509886e-038
-40.249371 326.26889 -94.090248 2.3509886e-038
-35.632359 326.37192 -94.119957 2.3509886e-038
-31.205057 328.50259 -94.734406 2.3509886e-038
-26.859015 332.38727 -95.854683 2.3509886e-038
-22.475752 337.36716 -97.290794 2.3509886e-038
-17.978456 342.86673 -98.876778 2.3509886e-038
-13.339304 348.73749 -100.5698 2.3509886e-038
-8.5490427 355.24905 -102.44762 2.3509886e-038
-3.5805995 362.42685 -104.51757 2.3509886e-038
-3.0002995 363.31271 -104.77304 2.3509886e-038
-73.692566 358.64026 -108.51302 2.3509886e-038
-68.698402 353.58786 -106.98432 2.3509886e-038
-62.698433 348.12332 -105.33093 2.3509886e-038
-57.076725 344.00418 -104.08461 2.3509886e-038
-51.661686 340.4769 -103.01736 2.3509886e-038
-46.308121 336.66901 -101.86523 2.3509886e-038
-41.181103 333.82169 -101.00372 2.3509886e-038
-36.343491 332.88547 -100.72045 2.3509886e-038
-31.719137 333.91443 -101.03178 2.3509886e-038
-27.200541 336.61374 -101.8485 2.3509886e-038
-22.674431 340.34937 -102.97879 2.3509886e-038
-18.092632 345.04419 -104.39928 2.3509886e-038
-13.421907 350.897 -106.17017 2.3509886e-038
-8.606411 357.63293 -108.20823 2.3509886e-038
-3.6007006 364.46146 -110.27432 2.3509886e-038
1.445134 370.54544 -112.11514 2.3509886e-038
-64.317802 358.23151 -113.47102 2.3509886e-038
-58.849449 354.68851 -112.34875 2.3509886e-038
-53.413803 352.02426 -111.50484 2.3509886e-038
-47.904068 348.27182 -110.31625 2.3509886e-038
-42.47448 344.30603 -109.06007 2.3509886e-038
-37.295567 341.60593 -108.2048 2.3509886e-038
-32.380119 340.87274 -107.97256 2.3509886e-038
-27.625265 341.86981 -108.28838 2.3509886e-038
-22.923172 344.08304 -108.98944 2.3509886e-038
-18.231472 347.69202 -110.13259 2.3509886e-038
-13.500258 352.94537 -111.79662 2.3509886e-038
-8.6444016 359.21161 -113.78146 2.3509886e-038
-3.6129007 365.69635 -115.83553 2.3509886e-038
1.6001985 371.63464 -117.7165 2.3509886e-038
4.9360814 375.0806 -118.80801 2.3509886e-038
-54.103382 364.2005 -120.52802 2.3509886e-038
-49.66618 361.08273 -119.49622 2.3509886e-038
-43.919258 356.01767 -117.82 2.3509886e-038
-38.366264 351.41293 -116.29611 2.3509886e-038
-33.123592 348.69949 -115.39813 2.3509886e-038
-28.112053 347.89392 -115.13154 2.3509886e-038
-23.227175 348.64618 -115.38049 2.3509886e-038
-18.40654 351.03073 -116.16963 2.3509886e-038
-13.581514 355.06973 -117.50629 2.3509886e-038
-8.6666698 360.13696 -119.18324 2.3509886e-038
-3.6148925 365.89795 -121.08978 2.3509886e-038
1.600538 371.71353 -123.01437 2.3509886e-038
6.0887165 376.32251 -124.53966 2.3509886e-038
-44.703598 366.81744 -126.5975 2.3509886e-038
-39.465771 361.48376 -124.75671 2.3509886e-038
-33.946735 357.36484 -123.33517 2.3509886e-038
-28.682619 354.95483 -122.50343 2.3509886e-038
-23.597433 354.20389 -122.24426 2.3509886e-038
-18.621468 355.12958 -122.56373 2.3509886e-038
-13.674959 357.51273 -123.38622 2.3509886e-038
-8.6848974 360.89438 -124.55331 2.3509886e-038
-3.6093576 365.33774 -126.08681 2.3509886e-038
1.5955909 370.56458 -127.89072 2.3509886e-038
4.3746271 373.53323 -128.91527 2.3509886e-038
-36.495853 367.03342 -131.87856 2.3509886e-038
-34.731911 365.63055 -131.37451 2.3509886e-038
-29.241684 361.87341 -130.02452 2.3509886e-038
-23.961954 359.67548 -129.23477 2.3509886e-038
-18.835197 359.20566 -129.06598 2.3509886e-038
-13.772466 360.06186 -129.37361 2.3509886e-038
-8.7072477 361.82315 -130.00647 2.3509886e-038
-3.6024547 364.63901 -131.01822 2.3509886e-038
-0.22970228 367.26663 -131.96236 2.3509886e-038
-26.428041 364.78796 -136.24643 2.3509886e-038
-24.220491 363.55618 -135.78636 2.3509886e-038
-18.994701 362.24756 -135.29759 2.3509886e-038
-13.860029 362.3511 -135.33626 2.3509886e-038
-8.8276911 363.17853 -135.64529 2.3509886e-038
-119.83656 389.36734 -15.160382 2.3509886e-038
-118.66019 385.54517 -37.524139 2.3509886e-038
-114.0611 388.50854 -14.615213 2.3509886e-038
-111.92974 381.24887 -47.754555 2.3509886e-038
-102.11539 365.47873 62.284332 2.3509528e-038
-99.763763 357.0621 31.445238 2.3509528e-038
-107.01128 383.00146 -15.459538 2.3509886e-038
-100.86115 360.98975 -66.513649 2.3509886e-038
-96.267517 362.97733 63.54884 2.3509528e-038
-94.791489 357.41199 5.3247595 2.3509528e-038
-97.518448 367.69403 -13.662366 2.3509886e-038
-94.374825 355.84094 -84.199127 2.3509886e-038
-90.527954 360.62466 52.778885 2.3509528e-038
-89.403191 356.1441 -92.100288 2.3509886e-038
-83.588104 352.92239 43.523754 2.3509528e-038
-84.710457 357.66116 -98.062096 2.3509886e-038
-75.42205 338.7316 52.017838 2.3418052e-038
-79.417107 356.67401 -102.7301 2.3509886e-038
-69.698761 334.32697 81.438057 2.3418052e-038
-74.691528 358.27597 -107.58829 2.3509886e-038
-63.903183 328.9071 79.576721 2.3418052e-038
-69.715965 358.82523 -111.15012 2.3509886e-038
-57.675091 320.23199 75.928818 2.3418052e-038
-64.518723 358.23019 -113.38271 2.3509886e-038
-52.071869 313.83966 71.038498 2.3418052e-038
-59.6721 359.64661 -116.09753 2.3509886e-038
-45.632473 300.7413 35.296841 2.3509886e-038
-55.146137 363.44119 -119.73013 2.3509886e-038
-39.176003 284.81711 31.842213 2.3509886e-038
-50.331795 365.92184 -123.05196 2.3509886e-038
-34.109138 276.495 30.576511 2.3509886e-038
-34.98671 283.60876 10.455832 2.3509886e-038
-38.407688 311.33984 -30.535555 2.3509886e-038
-45.24741 366.78391 -126.25208 2.3509886e-038
-34.063076 311.9982 -40.627522 2.3509886e-038
-40.082989 367.13715 -129.73328 2.3509886e-038
-29.832287 314.05115 -52.887825 2.3509886e-038
-34.85326 366.90805 -132.78369 2.3509886e-038
-26.126413 323.32114 -66.536285 2.3509886e-038
-29.566113 365.88831 -135.26825 2.3509886e-038
-22.352737 335.52069 -77.796349 2.3509886e-038
-24.253508 364.05176 -136.6826 2.3509886e-038
-17.975784 342.8158 -84.365753 2.3509886e-038
-19.037649 363.06659 -137.11809 2.3509886e-038
-13.261703 346.70868 -89.458801 2.3509886e-038
-13.882625 362.94183 -136.82297 2.3509886e-038
-8.4832678 352.51581 -95.650703 2.3509886e-038
-8.7400656 363.18686 -135.61308 2.3509886e-038
-3.5780485 362.16861 -103.78885 2.3509886e-038
-3.6019037 364.58322 -133.54669 2.3509886e-038
1.5963924 370.7507 -112.35802 2.3509886e-038
1.5907998 369.45187 -131.0643 2.3509886e-038
