# .PCD v0.7 - Point Cloud Data file format
VERSION 0.7
FIELDS x y z rgb
SIZE 4 4 4 4
TYPE F F F F
COUNT 1 1 1 1
WIDTH 511
HEIGHT 1
VIEWPOINT 0 0 0 1 0 0 0
POINTS 511
DATA ascii
-83.665276 243.34792 -8.0226974 2.3418052e-038
0 0 0 2.3418409e-038
0 0 0 2.3418409e-038
0 0 0 2.3418409e-038
0 0 0 2.3418409e-038
-37.62558 247.1093 43.116737 2.3509886e-038
-34.801525 245.28635 42.79866 2.3509886e-038
-30.260365 245.8734 42.901093 2.3509886e-038
-27.464111 248.57964 43.373287 2.3509886e-038
-59.694527 247.21117 38.484913 2.3509886e-038
-58.332359 247.25258 38.491356 2.3509886e-038
-53.90876 248.2971 38.653965 2.3509886e-038
-49.661224 250.36133 38.975315 2.3509886e-038
-43.057343 247.27551 38.494926 2.3509886e-038
-39.175072 243.79381 37.952911 2.3509886e-038
-34.218822 241.17937 37.545902 2.3509886e-038
-29.920443 243.11142 37.846676 2.3509886e-038
-25.930578 248.69931 38.716576 2.3509886e-038
-21.34263 249.74815 38.87986 2.3509886e-038
-16.388134 245.8893 38.279125 2.3509886e-038
-11.729793 245.18672 38.169754 2.3509886e-038
-7.2168474 248.58258 38.69841 2.3509886e-038
-6.8673987 248.95604 38.756546 2.3509886e-038
-61.807766 241.4995 33.053574 2.3509886e-038
-61.494072 241.40852 33.041122 2.3509886e-038
-56.998547 241.59898 33.067188 2.3509886e-038
-53.254726 245.28471 33.571648 2.3509886e-038
-49.52718 249.7516 34.183025 2.3509886e-038
-44.23904 246.46039 33.732563 2.3509886e-038
-38.464401 239.3712 32.76228 2.3509886e-038
-33.721291 237.6727 32.529808 2.3509886e-038
-29.768536 241.87714 33.105263 2.3509886e-038
-26.037399 249.7238 34.179222 2.3509886e-038
-21.369076 250.05763 34.224911 2.3509886e-038
-16.252878 243.85992 33.37664 2.3509886e-038
-11.600638 242.48703 33.18874 2.3509886e-038
-7.1227055 245.33989 33.579201 2.3509886e-038
-4.3541465 247.8999 33.929588 2.3509886e-038
-63.034004 239.2905 28.250612 2.3509886e-038
-60.544487 237.68074 28.060564 2.3509886e-038
-55.984138 237.29922 28.015522 2.3509886e-038
-52.760735 243.00945 28.689671 2.3509886e-038
-49.491589 249.57211 29.464458 2.3509886e-038
-44.018002 245.22894 28.951706 2.3509886e-038
-38.018536 236.59648 27.932558 2.3509886e-038
-33.395187 235.37427 27.788265 2.3509886e-038
-29.743055 241.6701 28.531549 2.3509886e-038
-26.218281 251.45865 29.687183 2.3509886e-038
-21.435194 250.83133 29.613123 2.3509886e-038
-16.16124 242.48492 28.627748 2.3509886e-038
-11.506079 240.51045 28.39464 2.3509886e-038
-7.0994606 244.53923 28.870277 2.3509886e-038
-3.4162476 249.86623 29.499182 2.3509886e-038
-64.025177 240.08113 23.828466 2.3509886e-038
-60.317993 236.79158 23.501974 2.3509886e-038
-55.543373 235.43095 23.366928 2.3509886e-038
-52.504627 241.82986 24.002031 2.3509886e-038
-49.500061 249.61484 24.774702 2.3509886e-038
-43.964413 244.9304 24.309765 2.3509886e-038
-37.880898 235.73993 23.397594 2.3509886e-038
-33.35006 235.05621 23.329735 2.3509886e-038
-29.867598 242.68204 24.086611 2.3509886e-038
-26.341728 252.64264 25.075218 2.3509886e-038
-21.405191 250.48027 24.860598 2.3509886e-038
-16.078053 241.2368 23.943169 2.3509886e-038
-11.448577 239.30849 23.75178 2.3509886e-038
-7.1333585 245.70683 24.386827 2.3509886e-038
-2.6102083 255.30675 25.339636 2.3509886e-038
-2.5543916 255.41827 25.350704 2.3509886e-038
-63.913853 240.75539 19.367207 2.3509886e-038
-60.459312 237.34634 19.092974 2.3509886e-038
-55.503532 235.26207 18.925306 2.3509886e-038
-52.454773 241.60022 19.435169 2.3509886e-038
-49.645046 250.34598 20.138708 2.3509886e-038
-44.164967 246.0477 19.79294 2.3509886e-038
-37.995434 236.45271 19.021086 2.3509886e-038
-33.493313 236.06589 18.989969 2.3509886e-038
-30.094265 244.52377 19.670351 2.3509886e-038
-26.400385 253.20522 20.368715 2.3509886e-038
-21.258728 248.76636 20.011639 2.3509886e-038
-15.9788 239.74762 19.286139 2.3509886e-038
-11.464765 239.64685 19.278034 2.3509886e-038
-7.2232666 248.8037 20.014643 2.3509886e-038
-2.6540637 259.59628 20.882835 2.3509886e-038
-0.5043174 261.97815 21.074442 2.3509886e-038
-62.478668 240.41289 14.817928 2.3509886e-038
-60.80769 238.71399 14.713216 2.3509886e-038
-55.746758 236.29301 14.563998 2.3509886e-038
-52.788956 243.13942 14.985979 2.3509886e-038
-50.162796 252.95683 15.591079 2.3509886e-038
-44.663818 248.82686 15.336526 2.3509886e-038
-38.292854 238.30362 14.687922 2.3509886e-038
-33.72868 237.72478 14.652246 2.3509886e-038
-30.415257 247.13191 15.232058 2.3509886e-038
-26.480732 253.97581 15.653882 2.3509886e-038
-21.073914 246.60368 15.199499 2.3509886e-038
-15.879391 238.25606 14.68499 2.3509886e-038
-11.542766 241.27731 14.871206 2.3509886e-038
-7.332521 252.56694 15.567046 2.3509886e-038
-2.6736765 261.51465 16.118542 2.3509886e-038
2.2286515 259.61749 16.001608 2.3509886e-038
6.9370627 253.24637 15.608924 2.3509886e-038
9.6325293 251.55727 15.504815 2.3509886e-038
-60.280998 241.06212 10.323995 2.3509886e-038
-56.723198 240.43185 10.297003 2.3509886e-038
-54.206081 249.66653 10.692497 2.3509886e-038
-51.524227 259.82214 11.127432 2.3509886e-038
-45.678967 254.48236 10.898745 2.3509886e-038
-39.031391 242.89967 10.402693 2.3509886e-038
-34.326954 241.94153 10.361657 2.3509886e-038
-31.011185 251.97398 10.791319 2.3509886e-038
-26.746078 256.52075 10.986043 2.3509886e-038
-21.022236 245.99898 10.535426 2.3509886e-038
-15.861009 237.98024 10.192007 2.3509886e-038
-11.645119 243.41678 10.424838 2.3509886e-038
-7.4180379 255.51254 10.942864 2.3509886e-038
-2.668354 260.99402 11.177621 2.3509886e-038
2.196079 255.8231 10.956165 2.3509886e-038
6.8419456 249.77399 10.6971 2.3509886e-038
11.518816 249.32112 10.677704 2.3509886e-038
15.789194 251.62271 10.776275 2.3509886e-038
-59.815178 252.55869 6.0661907 2.3509886e-038
-59.677219 252.95302 6.0756626 2.3509886e-038
-57.208725 263.49634 6.3289018 2.3509886e-038
-53.440304 269.48438 6.4727278 2.3509886e-038
-47.486668 264.55325 6.3542876 2.3509886e-038
-41.05579 255.49791 6.1367874 2.3509886e-038
-36.149853 254.78957 6.1197743 2.3509886e-038
-32.315144 262.56897 6.3066273 2.3509886e-038
-27.286564 261.7045 6.2858639 2.3509886e-038
-21.158152 247.58943 5.9468346 2.3509886e-038
-15.975389 239.69644 5.7572536 2.3509886e-038
-11.796736 246.58603 5.9227338 2.3509886e-038
-7.497191 258.23895 6.2026248 2.3509886e-038
-2.6525846 259.4516 6.2317514 2.3509886e-038
2.1564453 251.20613 6.0337043 2.3509886e-038
6.750536 246.43698 5.9191542 2.3509886e-038
11.506558 249.05579 5.9820547 2.3509886e-038
16.621117 255.67448 6.1410289 2.3509886e-038
18.361265 258.73965 6.2146511 2.3509886e-038
-86.393234 244.45464 1.2737935 2.3418052e-038
-85.415886 244.90514 1.2761409 2.3418052e-038
-82.341858 249.54869 1.3003374 2.3418052e-038
-82.120735 250.49287 1.3052573 2.3418052e-038
-62.865711 278.09906 1.4491065 2.3509886e-038
-60.248417 277.4968 1.4459682 2.3509886e-038
-54.724026 275.95782 1.4379491 2.3509886e-038
-49.203354 274.11713 1.4283575 2.3509886e-038
-43.671471 271.77576 1.4161572 2.3509886e-038
-38.582722 271.9368 1.4169965 2.3509886e-038
-33.729347 274.05978 1.4280587 2.3509886e-038
-27.849657 267.10513 1.3918198 2.3509886e-038
-21.44219 250.91321 1.3074476 2.3509886e-038
-16.221251 243.38536 1.2682217 2.3509886e-038
-12.021827 251.29106 1.3094165 2.3509886e-038
-7.579411 261.07098 1.3603773 2.3509886e-038
-2.6329634 257.53244 1.3419389 2.3509886e-038
2.1254072 247.59047 1.2901336 2.3509886e-038
6.7129536 245.06497 1.2769738 2.3509886e-038
11.631192 251.75345 1.3118259 2.3509886e-038
17.054174 262.336 1.3669689 2.3509886e-038
20.274057 268.07874 1.396893 2.3509886e-038
-87.604721 242.31169 -3.2948234 2.3418052e-038
-84.23246 241.51199 -3.2839496 2.3418052e-038
-80.863945 245.06967 -3.3323247 2.3418052e-038
-79.821945 252.45222 -3.4327087 2.3418052e-038
-63.301743 285.077 -3.8763232 2.3509886e-038
-61.395554 282.78033 -3.8450944 2.3509886e-038
-55.058567 277.64484 -3.7752645 2.3509886e-038
-49.832458 277.62192 -3.7749529 2.3509886e-038
-44.882607 279.31287 -3.7979455 2.3509886e-038
-39.757275 280.21521 -3.8102148 2.3509886e-038
-34.402779 279.53159 -3.8009195 2.3509886e-038
-28.403786 272.41974 -3.7042165 2.3509886e-038
-22.107794 258.70197 -3.5176897 2.3509886e-038
-16.837851 252.63689 -3.4352195 2.3509886e-038
-12.436604 259.96112 -3.5348108 2.3509886e-038
-7.6810203 264.57089 -3.597492 2.3509886e-038
-2.6168349 255.9549 -3.4803362 2.3509886e-038
2.1154134 246.42627 -3.3507712 2.3509886e-038
6.781817 247.57892 -3.3664443 2.3509886e-038
11.880729 257.15457 -3.496649 2.3509886e-038
17.375723 267.28223 -3.6343591 2.3509886e-038
21.28495 272.72415 -3.7083557 2.3509886e-038
-89.040062 243.22456 -7.8818474 2.3418052e-038
-83.920319 240.61703 -7.7973485 2.3418052e-038
-80.327553 243.44408 -7.8889608 2.3418052e-038
-79.235374 254.64928 -8.2520723 2.3418052e-038
-79.319672 259.52673 -8.4101286 2.3509886e-038
-63.697754 284.55615 -9.2212229 2.3509886e-038
-61.103271 281.43414 -9.1200523 2.3509886e-038
-54.911377 276.90259 -8.9732046 2.3509886e-038
-49.753036 277.17944 -8.9821768 2.3509886e-038
-44.883461 279.31818 -9.0514841 2.3509886e-038
-39.834106 280.75674 -9.0981016 2.3509886e-038
-34.600689 281.13968 -9.1105099 2.3509886e-038
-29.07568 278.86389 -9.0367613 2.3509886e-038
-23.295984 272.60602 -8.833972 2.3509886e-038
-17.937864 269.1416 -8.7217054 2.3509886e-038
-12.992984 271.59106 -8.8010817 2.3509886e-038
-7.7802429 267.98859 -8.6843405 2.3509886e-038
-2.6104872 255.33401 -8.2742615 2.3509886e-038
2.1347082 248.67395 -8.0584383 2.3509886e-038
6.9763279 254.67979 -8.2530613 2.3509886e-038
12.206782 264.21191 -8.5619555 2.3509886e-038
17.56629 270.21359 -8.756444 2.3509886e-038
21.632027 274.20026 -8.8856344 2.3509886e-038
-89.813614 243.50204 -12.470678 2.3418052e-038
-89.370331 243.132 -12.451727 2.3418052e-038
-83.716972 240.03401 -12.293067 2.3418052e-038
-80.092674 242.73222 -12.431252 2.3418052e-038
-78.48423 252.23523 -12.917938 2.3418052e-038
-77.342979 264.55908 -13.54909 2.3509886e-038
-77.101791 266.48605 -13.647777 2.3509886e-038
-66.104813 283.61337 -14.524934 2.3509886e-038
-60.413067 278.25513 -14.250518 2.3509886e-038
-54.653839 275.60388 -14.114738 2.3509886e-038
-49.545044 276.02069 -14.136083 2.3509886e-038
-44.617508 277.66312 -14.220198 2.3509886e-038
-39.640232 279.39029 -14.308653 2.3509886e-038
-34.617691 281.2778 -14.40532 2.3509886e-038
-29.450464 282.45844 -14.465785 2.3509886e-038
-24.057905 281.52188 -14.417821 2.3509886e-038
-18.655355 279.90692 -14.335113 2.3509886e-038
-13.302809 278.06732 -14.240899 2.3509886e-038
-7.8261065 269.56836 -13.805634 2.3509886e-038
-2.6307254 257.31354 -13.178018 2.3509886e-038
2.1964748 255.86919 -13.104047 2.3509886e-038
7.2317929 264.00586 -13.520758 2.3509886e-038
12.459644 269.68503 -13.811609 2.3509886e-038
17.690317 272.12146 -13.936388 2.3509886e-038
21.802382 275.67004 -14.118126 2.3509886e-038
-89.995338 244.38594 -17.1124 2.3418052e-038
-89.751442 244.16884 -17.097197 2.3418052e-038
-84.064644 241.03084 -16.877468 2.3418052e-038
-80.285423 243.31638 -17.037508 2.3418052e-038
-77.554382 249.24687 -17.452772 2.3418052e-038
-74.824234 255.94348 -17.921682 2.3418052e-038
-71.963104 263.08215 -18.421545 2.3509886e-038
-69.037971 271.02377 -18.977636 2.3509886e-038
-64.749443 274.45261 -19.217728 2.3509886e-038
-59.328625 273.26031 -19.134243 2.3509886e-038
-54.156258 273.09476 -19.122648 2.3509886e-038
-49.237404 274.30679 -19.20752 2.3509886e-038
-44.340614 275.93997 -19.321878 2.3509886e-038
-39.406887 277.74564 -19.448315 2.3509886e-038
-34.507442 280.38202 -19.632917 2.3509886e-038
-29.493183 282.8681 -19.806999 2.3509886e-038
-24.226027 283.48923 -19.850492 2.3509886e-038
-18.831348 282.54755 -19.784554 2.3509886e-038
-13.400038 280.0997 -19.613148 2.3509886e-038
-7.9243984 272.95401 -19.112795 2.3509886e-038
-2.714149 265.47327 -18.58898 2.3509886e-038
2.2892251 266.67374 -18.673038 2.3509886e-038
7.4219189 270.94666 -18.972235 2.3509886e-038
12.55302 271.70615 -19.025415 2.3509886e-038
17.747473 273.00067 -19.11606 2.3509886e-038
21.89658 276.76932 -19.37995 2.3509886e-038
-87.683449 244.04567 -21.678629 2.3418052e-038
-84.793633 243.12103 -21.596491 2.3418052e-038
-80.769745 244.78419 -21.74423 2.3418052e-038
-77.094154 247.76775 -22.00926 2.3418052e-038
-73.422852 251.14989 -22.309698 2.3418052e-038
-70.013641 255.95531 -22.736565 2.3418052e-038
-66.690872 261.80969 -23.256611 2.3509886e-038
-62.749786 265.97665 -23.626764 2.3509886e-038
-58.152634 267.84387 -23.792627 2.3509886e-038
-53.49025 269.73627 -23.960728 2.3509886e-038
-48.844296 272.11676 -24.172188 2.3509886e-038
-44.051025 274.13779 -24.351717 2.3509886e-038
-39.151665 275.94681 -24.512411 2.3509886e-038
-34.313221 278.80389 -24.766209 2.3509886e-038
-29.388021 281.85953 -25.037642 2.3509886e-038
-24.207396 283.27121 -25.163042 2.3509886e-038
-18.858257 282.95129 -25.134623 2.3509886e-038
-13.465158 281.46088 -25.00223 2.3509886e-038
-8.0833807 278.43011 -24.733006 2.3509886e-038
-2.8191321 275.74176 -24.4942 2.3509886e-038
2.3630552 275.27429 -24.452671 2.3509886e-038
7.5082912 274.09979 -24.348343 2.3509886e-038
12.571112 272.09772 -24.170498 2.3509886e-038
17.753859 273.09888 -24.259432 2.3509886e-038
21.891953 276.71411 -24.580574 2.3509886e-038
-84.09166 247.99039 -26.693287 2.3418052e-038
-81.998505 248.50812 -26.749014 2.3418052e-038
-77.509407 249.10234 -26.812975 2.3418052e-038
-73.159142 250.24786 -26.936277 2.3418052e-038
-69.258904 253.19615 -27.253626 2.3418052e-038
-65.462296 256.98666 -27.661633 2.3418052e-038
-61.447323 260.45593 -28.035057 2.3509886e-038
-57.122524 263.0993 -28.319586 2.3509886e-038
-52.73098 265.90747 -28.621851 2.3509886e-038
-48.309357 269.13654 -28.969423 2.3509886e-038
-43.674477 271.79446 -29.255518 2.3509886e-038
-38.864285 273.9213 -29.484446 2.3509886e-038
-34.060852 276.75333 -29.789284 2.3509886e-038
-29.202686 280.082 -30.147573 2.3509886e-038
-24.136116 282.4371 -30.401075 2.3509886e-038
-18.864906 283.05106 -30.467157 2.3509886e-038
-13.502234 282.2359 -30.379416 2.3509886e-038
-8.1508694 280.75473 -30.21999 2.3509886e-038
-2.85588 279.33609 -30.067287 2.3509886e-038
2.3811343 277.38031 -29.856771 2.3509886e-038
7.5190368 274.4921 -29.545887 2.3509886e-038
12.589733 272.50076 -29.331543 2.3509886e-038
17.785831 273.59073 -29.448864 2.3509886e-038
21.911493 277.01871 -29.817846 2.3509886e-038
-79.862747 254.74289 -32.211369 2.3418052e-038
-79.162109 254.41382 -32.169754 2.3418052e-038
-73.970825 253.02431 -31.994057 2.3418052e-038
-69.282654 253.28296 -32.026764 2.3418052e-038
-64.839027 254.5399 -32.185699 2.3418052e-038
-60.554474 256.67142 -32.455223 2.3418052e-038
-56.235344 259.01306 -32.751316 2.3509886e-038
-51.915573 261.79562 -33.103157 2.3509886e-038
-47.594215 265.15244 -33.527615 2.3509886e-038
-43.084099 268.12045 -33.902908 2.3509886e-038
-38.397953 270.63449 -34.220806 2.3509886e-038
-33.703476 273.84958 -34.627342 2.3509886e-038
-28.980448 277.9505 -35.145889 2.3509886e-038
-24.041548 281.33051 -35.573277 2.3509886e-038
-18.842672 282.71747 -35.748657 2.3509886e-038
-13.496122 282.10812 -35.671608 2.3509886e-038
-8.1362333 280.25061 -35.436729 2.3509886e-038
-2.8462076 278.39005 -35.201469 2.3509886e-038
2.3708999 276.18814 -34.923042 2.3509886e-038
7.4992404 273.76938 -34.617199 2.3509886e-038
12.610544 272.9512 -34.513744 2.3509886e-038
17.850126 274.57974 -34.719669 2.3509886e-038
21.892099 277.66125 -35.109314 2.3509886e-038
-74.948334 258.47144 -37.54422 2.3418052e-038
-69.991837 255.87558 -37.16716 2.3418052e-038
-64.792694 254.35799 -36.946724 2.3418052e-038
-60.109894 254.787 -37.009037 2.3418052e-038
-55.6679 256.39948 -37.243263 2.3509886e-038
-51.313377 258.75891 -37.585976 2.3509886e-038
-46.960594 261.62247 -38.001926 2.3509886e-038
-42.447361 264.1579 -38.370209 2.3509886e-038
-37.827297 266.61243 -38.726742 2.3509886e-038
-33.24828 270.15097 -39.24073 2.3509886e-038
-28.664995 274.92499 -39.934181 2.3509886e-038
-23.874069 279.37067 -40.579937 2.3509886e-038
-18.77239 281.6629 -40.912895 2.3509886e-038
-13.461358 281.38147 -40.872017 2.3509886e-038
-8.1149063 279.51599 -40.601044 2.3509886e-038
-2.8377731 277.56506 -40.317661 2.3509886e-038
2.3647444 275.47107 -40.0135 2.3509886e-038
7.4942718 273.58801 -39.739979 2.3509886e-038
12.6479 273.75977 -39.764923 2.3509886e-038
17.951881 276.14499 -40.111389 2.3509886e-038
21.725571 278.79495 -40.496307 2.3509886e-038
-69.862221 259.95218 -42.64854 2.3418052e-038
-65.52047 257.21506 -42.199474 2.3418052e-038
-60.239235 255.33524 -41.891068 2.3418052e-038
-55.508232 255.66408 -41.945019 2.3509886e-038
-51.038353 257.37201 -42.225227 2.3509886e-038
-46.589245 259.55362 -42.583145 2.3509886e-038
-42.015755 261.47192 -42.897869 2.3509886e-038
-37.402058 263.6153 -43.249516 2.3509886e-038
-32.863937 267.02811 -43.809433 2.3509886e-038
-28.349916 271.90311 -44.609241 2.3509886e-038
-23.672194 277.00836 -45.446823 2.3509886e-038
-18.665894 280.06503 -45.948311 2.3509886e-038
-13.415679 280.42667 -46.007641 2.3509886e-038
-8.1073618 279.2561 -45.815594 2.3509886e-038
-2.8395693 277.74075 -45.566982 2.3509886e-038
2.3700197 276.08557 -45.295433 2.3509886e-038
7.5234036 274.65149 -45.06015 2.3509886e-038
12.721736 275.35794 -45.176052 2.3509886e-038
18.133228 278.93454 -45.76284 2.3509886e-038
21.399801 282.00641 -46.266819 2.3509886e-038
-65.268684 263.02759 -48.100163 2.3418052e-038
-61.419605 260.33847 -47.608402 2.3509886e-038
-55.965668 257.771 -47.138885 2.3509886e-038
-51.053612 257.44897 -47.079994 2.3509886e-038
-46.436207 258.70102 -47.308964 2.3509886e-038
-41.837002 260.35953 -47.612255 2.3509886e-038
-37.228424 262.39151 -47.983845 2.3509886e-038
-32.680939 265.5412 -48.55983 2.3509886e-038
-28.163712 270.11719 -49.396648 2.3509886e-038
-23.510777 275.11948 -50.311424 2.3509886e-038
-18.563272 278.5253 -50.934246 2.3509886e-038
-13.372876 279.53192 -51.118332 2.3509886e-038
-8.1016331 279.05881 -51.031815 2.3509886e-038
-2.8439193 278.1662 -50.868584 2.3509886e-038
2.3797457 277.21857 -50.69529 2.3509886e-038
7.5724225 276.44098 -50.553085 2.3509886e-038
12.846233 278.05264 -50.847809 2.3509886e-038
18.495031 284.49997 -52.026844 2.3509886e-038
21.01487 288.87637 -52.827164 2.3509886e-038
-61.115993 270.02621 -54.458714 2.3509886e-038
-57.628712 265.43076 -53.531902 2.3509886e-038
-51.547073 259.93735 -52.424 2.3509886e-038
-46.544933 259.30676 -52.296822 2.3509886e-038
-41.881969 260.63937 -52.565582 2.3509886e-038
-37.251839 262.55652 -52.952232 2.3509886e-038
-32.657825 265.35339 -53.516304 2.3509886e-038
-28.082386 269.33722 -54.319759 2.3509886e-038
-23.407438 273.91025 -55.242046 2.3509886e-038
-18.505919 277.66476 -55.999249 2.3509886e-038
-13.356362 279.18677 -56.306206 2.3509886e-038
-8.1000233 279.00336 -56.269218 2.3509886e-038
-2.8475215 278.51855 -56.171448 2.3509886e-038
2.3880775 278.18915 -56.105011 2.3509886e-038
7.6215024 278.23273 -56.1138 2.3509886e-038
12.99493 281.27112 -56.726582 2.3509886e-038
18.954647 291.57004 -58.803658 2.3509886e-038
20.591835 295.79565 -59.65588 2.3509886e-038
-53.907475 266.38763 -58.735153 2.3509886e-038
-52.540939 264.94916 -58.417984 2.3509886e-038
-47.131176 262.57278 -57.894028 2.3509886e-038
-42.27486 263.08438 -58.006828 2.3509886e-038
-37.52216 264.46179 -58.310528 2.3509886e-038
-32.821877 266.68631 -58.80101 2.3509886e-038
-28.142609 269.91479 -59.512852 2.3509886e-038
-23.416084 274.01144 -60.416107 2.3509886e-038
-18.532362 278.06152 -61.309097 2.3509886e-038
-13.397964 280.05634 -61.748928 2.3509886e-038
-8.1297884 280.02863 -61.742821 2.3509886e-038
-2.8588445 279.62607 -61.654064 2.3509886e-038
2.400362 279.62018 -61.65276 2.3509886e-038
7.6837397 280.50476 -61.847801 2.3509886e-038
13.154864 284.73285 -62.780045 2.3509886e-038
19.249681 296.1084 -65.288208 2.3509886e-038
19.712118 297.31335 -65.553886 2.3509886e-038
-46.936092 269.36993 -64.459068 2.3509886e-038
-43.286476 269.37985 -64.461449 2.3509886e-038
-38.341038 270.23337 -64.665688 2.3509886e-038
-33.390072 271.30307 -64.921661 2.3509886e-038
-28.471828 273.07236 -65.345047 2.3509886e-038
-23.61043 276.28561 -66.11396 2.3509886e-038
-18.678425 280.25305 -67.063354 2.3509886e-038
-13.523487 282.68015 -67.64415 2.3509886e-038
-8.2145548 282.94836 -67.708336 2.3509886e-038
-2.887578 282.43652 -67.585846 2.3509886e-038
2.427613 282.79468 -67.671562 2.3509886e-038
7.8136873 285.24866 -68.258781 2.3509886e-038
13.47836 291.7348 -69.81089 2.3509886e-038
18.366259 301.08615 -72.04863 2.3509886e-038
-38.267841 281.87396 -72.752777 2.3509886e-038
-34.571896 280.90573 -72.502869 2.3509886e-038
-29.215858 280.20831 -72.322861 2.3509886e-038
-24.058226 281.52567 -72.662872 2.3509886e-038
-18.97743 284.73938 -73.492348 2.3509886e-038
-13.777738 287.99472 -74.332558 2.3509886e-038
-8.4003658 289.34857 -74.681999 2.3509886e-038
-2.9592223 289.44412 -74.706657 2.3509886e-038
2.4994252 291.1601 -75.149559 2.3509886e-038
8.14149 297.21552 -76.712486 2.3509886e-038
14.232364 308.05499 -79.510201 2.3509886e-038
15.733171 311.09671 -80.295273 2.3509886e-038
-25.66947 288.51526 -79.893387 2.3509886e-038
-24.640299 288.33701 -79.844017 2.3509886e-038
-19.34358 290.23312 -80.369087 2.3509886e-038
-14.117151 295.08945 -81.713852 2.3509886e-038
-8.6592569 298.26602 -82.593483 2.3509886e-038
-3.0668266 299.96899 -83.065056 2.3509886e-038
2.613302 304.42575 -84.299194 2.3509886e-038
6.9368782 311.03259 -86.128708 2.3509886e-038
-89.436516 243.31206 -9.9511471 2.3418052e-038
-89.859238 244.46207 -17.869984 2.3418052e-038
-86.045425 246.71017 2.4354608 2.3418052e-038
-85.50087 245.1488 -24.465282 2.3418052e-038
-82.660751 250.51514 1.9143121 2.3418052e-038
-82.780098 250.87685 -28.702957 2.3418052e-038
-79.433426 255.2858 -5.8969927 2.3418052e-038
-79.38797 255.13971 -32.720222 2.3418052e-038
-77.784378 266.06891 -12.865479 2.3509886e-038
-75.479881 258.18616 -36.983593 2.3418052e-038
-73.482254 268.63583 -16.373835 2.3509886e-038
-71.014954 259.61594 -41.466717 2.3418052e-038
-61.635715 241.96458 33.598812 2.3509886e-038
-61.262863 240.50089 12.220863 2.3509886e-038
-70.068047 275.06757 -17.633364 2.3509886e-038
-66.58963 261.41226 -46.243725 2.3418052e-038
-58.614666 248.4492 39.719841 2.3509886e-038
-59.994205 254.29663 5.7874198 2.3509886e-038
-66.750206 282.9332 -15.443183 2.3509886e-038
-63.125721 267.57013 -51.80381 2.3509886e-038
-54.153015 249.4221 40.674103 2.3509886e-038
-58.55336 269.68958 -56.404285 2.3509886e-038
-49.648624 250.364 38.969913 2.3509886e-038
-52.742249 265.96429 -59.448055 2.3509886e-038
-44.580681 248.36371 38.115776 2.3509886e-038
-48.134384 268.16174 -63.340389 2.3509886e-038
-39.72451 247.21307 41.372154 2.3509886e-038
-43.895889 273.17236 -67.359459 2.3509886e-038
-34.971748 246.48611 44.374348 2.3509886e-038
-39.731583 280.03415 -71.520256 2.3509886e-038
-30.408356 247.07585 44.68671 2.3509886e-038
-35.007996 284.44913 -74.964592 2.3509886e-038
-26.02083 249.5649 42.313614 2.3509886e-038
-29.939259 287.14642 -77.929001 2.3509886e-038
-21.346125 249.78905 39.127399 2.3509886e-038
-24.676067 288.75552 -80.291809 2.3509886e-038
-16.424877 246.4406 39.442078 2.3509886e-038
-19.438663 291.65976 -82.240585 2.3509886e-038
-11.794489 246.53906 40.501373 2.3509886e-038
-14.236034 297.57446 -84.421989 2.3509886e-038
-7.2267671 248.92426 39.132282 2.3509886e-038
-8.750493 301.40863 -85.588203 2.3509886e-038
-2.607955 255.08633 25.566738 2.3509886e-038
-3.1002893 303.242 -85.85556 2.3509886e-038
2.2403274 260.97763 18.47928 2.3509886e-038
2.6355276 307.01483 -86.15979 2.3509886e-038
6.9512177 253.76311 16.341141 2.3509886e-038
8.5607634 312.52164 -85.964508 2.3509886e-038
11.58729 250.80321 14.645849 2.3509886e-038
14.455086 312.87573 -82.182922 2.3509886e-038
16.421913 252.6102 9.7431765 2.3509886e-038
19.351704 297.67776 -67.286209 2.3509886e-038
