# .PCD v0.7 - Point Cloud Data file format
VERSION 0.7
FIELDS x y z rgb
SIZE 4 4 4 4
TYPE F F F F
COUNT 1 1 1 1
WIDTH 779
HEIGHT 1
VIEWPOINT 0 0 0 1 0 0 0
POINTS 779
DATA ascii
-106.73118 249.032 -12.901569 2.3418052e-038
-69.81913 251.26248 67.452377 9.1476764e-041
4.6395531 246.2756 70.753181 3.5733111e-043
46.180645 239.15607 32.664364 2.3509528e-038
-27.445337 253.36462 82.336006 2.3418409e-038
-31.953648 254.69933 85.492226 2.3418409e-038
-27.223246 252.8972 84.887329 2.3418409e-038
-23.066278 253.09917 84.955116 2.3418409e-038
-33.180481 256.40189 81.24398 2.3418409e-038
-32.319447 255.60477 80.991394 2.3418409e-038
-27.261499 253.25256 80.246078 2.3418409e-038
-22.538418 253.67421 80.379677 2.3418409e-038
-21.337429 254.26093 80.56559 2.3418409e-038
-33.49509 257.84973 76.855789 2.3418409e-038
-32.464912 256.75522 76.529564 2.3418409e-038
-27.342903 254.00877 75.710938 2.3418409e-038
-22.606184 254.43694 75.838562 2.3418409e-038
-20.539074 255.4068 76.12764 2.3418409e-038
0.17397805 247.9176 73.895378 3.5733111e-043
1.2711325 247.30005 73.711304 3.5733111e-043
5.8848696 245.84225 73.276787 3.5733111e-043
7.8005495 245.70343 73.235405 3.5733111e-043
-74.490929 252.78745 70.595108 9.1476764e-041
-69.416458 250.76056 70.029076 9.1476764e-041
-64.747002 250.32202 69.906601 9.1476764e-041
-33.670094 259.06848 72.349197 2.3418409e-038
-32.595615 257.78894 71.991859 2.3418409e-038
-27.406233 254.59709 71.100487 2.3418409e-038
-22.643713 254.85933 71.173721 2.3418409e-038
-20.193472 255.86798 71.455406 2.3418409e-038
-1.5662 249.8054 69.762329 3.5733111e-043
1.2726443 247.59416 69.144798 3.5733111e-043
5.8930459 246.18382 68.750938 3.5733111e-043
8.6995115 246.14728 68.74073 3.5733111e-043
-75.478546 254.1483 66.197784 9.1476764e-041
-75.053436 253.88371 66.128868 9.1476764e-041
-69.554482 251.25916 65.445244 9.1476764e-041
-64.617111 250.42853 65.228897 9.1476764e-041
-62.385128 250.8089 65.327972 9.1476764e-041
-33.740776 259.60904 67.620132 2.3418409e-038
-32.647644 258.20038 67.253227 2.3418409e-038
-27.426104 254.78169 66.362762 2.3418409e-038
-22.673479 255.19434 66.470245 2.3418409e-038
-19.997368 256.28793 66.755089 2.3418409e-038
-2.4974947 250.57715 65.267609 3.5733111e-043
1.2742863 247.91364 64.573837 3.5733111e-043
5.9123735 246.99123 64.333588 3.5733111e-043
8.7588034 247.18105 64.383026 3.5733111e-043
-74.973366 254.86458 61.59351 9.1476764e-041
-69.78595 252.09531 60.924263 9.1476764e-041
-64.762764 250.99301 60.657867 9.1476764e-041
-60.842041 251.78093 60.848282 9.1476764e-041
-33.698399 259.28311 62.66135 2.3418409e-038
-32.628635 258.05008 62.363361 2.3418409e-038
-27.462889 255.12341 61.656067 2.3418409e-038
-22.718607 255.70226 61.795956 2.3418409e-038
-19.632683 256.91666 62.089439 2.3418409e-038
-3.3786688 250.53629 60.547489 3.5733111e-043
1.2752914 248.10918 59.960922 3.5733111e-043
5.9379115 248.05807 59.948574 3.5733111e-043
8.6680794 248.83156 60.135502 3.5733111e-043
-73.987633 255.2267 56.883381 9.1476764e-041
-69.978294 252.79015 56.340336 9.1476764e-041
-64.901184 251.52945 56.059361 9.1476764e-041
-60.353458 252.28369 56.227459 9.1476764e-041
-59.442192 252.93056 56.371628 9.1476764e-041
-33.621201 258.689 57.655033 2.3418409e-038
-32.597767 257.80591 57.458218 2.3418409e-038
-27.532879 255.77361 57.005272 2.3418409e-038
-22.802856 256.65051 57.20071 2.3418409e-038
-19.105362 258.63232 57.642406 2.3418409e-038
-4.1614161 249.70618 55.653 3.5733111e-043
-3.4036558 249.21381 55.543262 3.5733111e-043
1.2732639 247.71472 55.209156 3.5733111e-043
5.9519939 248.64639 55.416801 3.5733111e-043
8.6291609 250.42039 55.81218 3.5733111e-043
-72.798454 255.21291 52.082924 9.1476764e-041
-70.125908 253.32338 51.697315 9.1476764e-041
-64.884605 251.46523 51.318108 9.1476764e-041
-60.276058 251.96016 51.419113 9.1476764e-041
-57.794231 253.37836 51.708534 9.1476764e-041
-33.630123 258.75766 52.80632 2.3418409e-038
-32.635109 258.10126 52.672367 2.3418409e-038
-27.613316 256.52084 52.349838 2.3418409e-038
-22.881109 257.53125 52.556042 2.3418409e-038
-18.510567 260.69308 53.201294 2.3418409e-038
-5.0723414 250.01311 51.021767 3.5733111e-043
-3.3969266 248.7211 50.758099 3.5733111e-043
1.2720153 247.47182 50.503151 3.5733111e-043
5.9724245 249.49988 50.917027 3.5733111e-043
8.5808525 252.6221 51.554199 3.5733111e-043
-71.472649 254.56894 47.166225 9.1476764e-041
-70.216637 253.65111 46.996174 9.1476764e-041
-64.905319 251.54549 46.606041 9.1476764e-041
-60.290787 252.02173 46.694283 9.1476764e-041
-56.13026 254.14571 47.087811 9.1476764e-041
-33.720718 259.45483 48.07148 2.3509886e-038
-32.728748 258.84183 47.957897 2.3418409e-038
-27.687113 257.20642 47.654892 2.3418409e-038
-22.902491 257.77191 47.759666 2.3418409e-038
-18.256643 260.62201 48.287727 2.3418409e-038
-18.024796 260.8172 48.323895 2.3418409e-038
-6.4130659 252.06541 46.702374 2.3418409e-038
-3.4032936 249.18727 46.169117 3.5733111e-043
1.2737762 247.81439 45.914749 3.5733111e-043
5.9941516 250.40755 46.395206 3.5733111e-043
8.3915348 254.0732 47.074375 3.5733111e-043
-70.305222 254.17918 42.316044 9.1476764e-041
-65.151909 252.50119 42.036694 9.1476764e-041
-60.518372 252.97305 42.11525 9.1476764e-041
-55.999596 254.04599 42.293873 9.1476764e-041
-54.42152 254.72606 42.407093 9.1476764e-041
-33.817272 260.19763 43.318008 2.3418409e-038
-32.807011 259.46078 43.195332 2.3418409e-038
-27.719807 257.51013 42.870586 2.3418409e-038
-22.899704 257.74057 42.908947 2.3418409e-038
-18.215935 260.04086 43.291904 2.3418409e-038
-17.847998 260.29333 43.333935 2.3418409e-038
-7.7924285 253.24789 42.161003 2.3418409e-038
-3.4058764 249.37639 41.516472 3.5733111e-043
1.276804 248.40344 41.354496 3.5733111e-043
6.0049171 250.85727 41.763012 3.5733111e-043
7.9841342 253.71608 42.238953 3.5733111e-043
-69.512291 255.11226 37.675907 9.1476764e-041
-65.496735 253.83759 37.487656 9.1476764e-041
-60.743561 253.91435 37.498997 9.1476764e-041
-56.055 254.29735 37.555557 9.1476764e-041
-52.736664 255.03778 37.664909 9.1476764e-041
-33.976097 261.41287 38.606403 2.3509886e-038
-32.920414 260.35764 38.450565 2.3418409e-038
-27.745214 257.74615 38.064888 2.3418409e-038
-22.911428 257.8725 38.083546 2.3418409e-038
-18.197741 259.78116 38.365425 2.3418409e-038
-17.895311 259.94968 38.390316 2.3418409e-038
-8.8388968 253.82784 37.486217 2.3418409e-038
-8.2149773 253.1181 37.381401 2.3418409e-038
-3.4065104 249.42282 36.835667 3.5733111e-043
1.2787364 248.77939 36.740646 3.5733111e-043
6.0086269 251.01224 37.0704 3.5733111e-043
7.2992396 252.63062 37.30941 3.5733111e-043
43.999107 240.52148 35.521088 2.3509528e-038
46.274433 239.6201 35.387966 2.3509528e-038
50.79903 239.71602 35.402134 2.3509528e-038
50.820759 239.72676 35.403721 2.3509528e-038
-68.883476 257.06985 33.13271 9.1476764e-041
-65.976059 255.69525 32.955544 9.1476764e-041
-60.900223 254.56923 32.810413 9.1476764e-041
-56.079636 254.4091 32.789776 9.1476764e-041
-51.481388 255.32178 32.907406 9.1476764e-041
-51.052574 255.63383 32.947624 9.1476764e-041
-34.185169 262.83847 33.876202 2.3509886e-038
-33.065193 261.50266 33.704037 2.3509886e-038
-27.816139 258.40503 33.304794 2.3418409e-038
-22.955259 258.36584 33.299744 2.3418409e-038
-18.213375 259.89343 33.496624 2.3418409e-038
-9.4299107 254.45634 32.795864 2.3418409e-038
-8.2133589 253.06824 32.616959 3.5733111e-043
-3.4078305 249.51945 32.159569 3.5733111e-043
1.2786534 248.76324 32.062103 3.5733111e-043
5.9916444 250.3028 32.260529 3.5733111e-043
6.3090892 250.58478 32.296875 3.5733111e-043
39.447033 241.15504 31.081512 2.3509528e-038
41.801262 239.79857 30.906683 2.3509528e-038
46.096363 238.698 30.764835 2.3509528e-038
50.474586 239.18546 30.82766 2.3509528e-038
-68.138794 259.48975 28.566828 9.1476764e-041
-66.688316 258.45563 28.452986 9.1476764e-041
-61.166321 255.68155 28.147589 9.1476764e-041
-56.166733 254.80423 28.051006 9.1476764e-041
-51.527763 255.55179 28.133305 9.1476764e-041
-49.308933 257.60233 28.359047 9.1476764e-041
-34.412178 263.48688 29.006868 2.3509886e-038
-33.118553 261.92468 28.834887 2.3509886e-038
-27.860411 258.81631 28.492689 2.3509886e-038
-22.95471 258.35965 28.442417 2.3418409e-038
-18.548082 259.53372 28.571671 2.3418409e-038
-9.9886608 255.59178 28.137709 3.5733111e-043
-8.2290373 253.55133 27.913078 3.5733111e-043
-3.4146335 250.01758 27.524052 3.5733111e-043
1.2819248 249.39972 27.456034 3.5733111e-043
5.209136 250.4689 27.573738 3.5733111e-043
35.924122 243.34811 26.78982 2.3509528e-038
37.623695 241.92085 26.632696 2.3509528e-038
41.888577 240.29947 26.454199 2.3509528e-038
46.37273 240.1291 26.435444 2.3509528e-038
49.009544 240.57005 26.483988 2.3509528e-038
-66.9972 261.16977 23.842411 9.1476764e-041
-61.542759 257.2551 23.485039 9.1476764e-041
-56.358704 255.67511 23.340799 9.1476764e-041
-51.698929 256.40067 23.407036 9.1476764e-041
-47.781746 261.33694 23.857674 9.1476764e-041
-47.308685 262.5293 23.966522 9.1476764e-041
-35.264286 264.10248 24.110142 2.3509886e-038
-33.074642 261.57739 23.879625 2.3509886e-038
-27.857071 258.78528 23.624729 2.3509886e-038
-22.926077 258.03738 23.556454 3.5733111e-043
-18.152119 259.12988 23.656187 3.5733111e-043
-17.873777 259.28043 23.66993 3.5733111e-043
-11.48651 257.67038 23.522949 3.5733111e-043
-8.2512655 254.23619 23.20944 3.5733111e-043
-3.4306707 251.19182 22.931517 3.5733111e-043
1.2908782 251.14157 22.926928 3.5733111e-043
4.2820044 252.33495 23.035873 3.5733111e-043
32.332417 245.20477 22.384953 2.3509528e-038
33.406281 244.33537 22.305584 2.3509528e-038
37.656826 242.13387 22.104609 2.3509528e-038
42.156242 241.83496 22.07732 2.3509528e-038
46.872314 242.71606 22.157757 2.3509528e-038
46.888779 242.72328 22.158417 2.3509528e-038
-65.500275 261.6626 18.968788 9.1476764e-041
-61.860645 258.58389 18.745605 9.1476764e-041
-56.526875 256.43802 18.590042 9.1476764e-041
-51.779247 256.79901 18.616213 9.1476764e-041
-47.391087 259.20029 18.790287 9.1476764e-041
-43.227707 263.52219 19.103596 2.3509886e-038
-40.488117 264.87189 19.201443 2.3509886e-038
-40.246479 264.87433 19.20162 2.3509886e-038
-38.383865 264.27768 19.158363 2.3509886e-038
-32.943192 260.53781 18.887249 2.3509886e-038
-27.853628 258.7533 18.757885 2.3509886e-038
-22.926294 258.03983 18.706163 2.3509886e-038
-18.091118 258.25906 18.722055 3.5733111e-043
-13.217525 257.88919 18.69524 3.5733111e-043
-8.250186 254.20293 18.428013 3.5733111e-043
-3.4443858 252.19601 18.282526 3.5733111e-043
1.3005103 253.01552 18.341934 3.5733111e-043
3.9039593 255.02592 18.487675 3.5733111e-043
28.174534 246.54282 17.872705 2.3509528e-038
28.995596 245.88058 17.824697 2.3509528e-038
33.307232 243.61093 17.660164 2.3509528e-038
37.774338 242.8895 17.607864 2.3509528e-038
42.473354 243.65411 17.663294 2.3509528e-038
44.20277 244.47389 17.722723 2.3509528e-038
-63.85091 261.3685 14.034365 9.1476764e-041
-62.187546 259.95038 13.958217 9.1476764e-041
-56.69595 257.20505 13.810804 9.1476764e-041
-51.773624 256.77112 13.787504 9.1476764e-041
-47.045532 257.3103 13.816456 2.3509886e-038
-42.427586 258.64453 13.888099 2.3509886e-038
-37.715084 259.67303 13.943325 2.3509886e-038
-32.838493 259.70978 13.945297 2.3509886e-038
-27.911674 259.29251 13.922893 2.3509886e-038
-22.961174 258.43237 13.876707 2.3509886e-038
-18.048292 257.64771 13.834573 2.3509886e-038
-13.160837 256.78314 13.788149 3.5733111e-043
-8.2682228 254.75868 13.679445 3.5733111e-043
-3.4627011 253.53706 13.613849 3.5733111e-043
1.3073924 254.35445 13.65774 2.3509886e-038
4.2803583 257.16827 13.808828 2.3509886e-038
23.607296 248.43076 13.339663 2.3509528e-038
24.542156 247.5807 13.294019 2.3509528e-038
28.88048 244.90443 13.150314 2.3509528e-038
33.339283 243.84535 13.093447 2.3509528e-038
37.931416 243.89949 13.096353 2.3509528e-038
41.252674 245.26483 13.169666 2.3509528e-038
-62.745953 262.50058 9.1607857 9.1476764e-041
-57.024044 258.69345 9.0279245 9.1476764e-041
-51.956902 257.68008 8.9925594 2.3509886e-038
-47.158241 257.92676 9.0011683 2.3509886e-038
-42.407528 258.52225 9.0219488 2.3509886e-038
-37.63678 259.13391 9.0432949 2.3509886e-038
-32.873398 259.98584 9.0730257 2.3509886e-038
-28.006893 260.17706 9.0796995 2.3509886e-038
-23.025362 259.15485 9.0440264 2.3509886e-038
-18.092039 258.27219 9.0132236 2.3509886e-038
-13.201327 257.57312 8.9888268 2.3509886e-038
-8.313406 256.15088 8.9391928 2.3509886e-038
-3.4764526 254.54393 8.8831129 2.3509886e-038
1.3054917 253.98466 8.863596 2.3509886e-038
5.9827414 256.05054 8.9356909 2.3509886e-038
18.574751 250.73442 8.7501688 2.3509528e-038
20.041513 249.48866 8.7066946 2.3509528e-038
24.451359 246.66473 8.6081438 2.3509528e-038
28.921177 245.24953 8.5587559 2.3509528e-038
33.504486 245.05367 8.5519209 2.3509528e-038
38.221699 245.89351 8.5812292 2.3509528e-038
-62.272171 264.54218 4.2592711 2.3509886e-038
-57.504013 260.87088 4.200161 2.3509886e-038
-52.30265 259.39484 4.1763959 2.3509886e-038
-47.421211 259.36502 4.1759162 2.3509886e-038
-42.605076 259.72653 4.1817365 2.3509886e-038
-37.780281 260.12192 4.1881027 2.3509886e-038
-32.964104 260.70319 4.1974611 2.3509886e-038
-28.055912 260.63245 4.1963224 2.3509886e-038
-23.06019 259.54684 4.1788435 2.3509886e-038
-18.145805 259.03973 4.1706786 2.3509886e-038
-13.25552 258.63049 4.1640897 2.3509886e-038
-8.343152 257.06738 4.1389227 2.3509886e-038
-3.4779918 254.65665 4.1001086 2.3509886e-038
1.2994632 252.81178 4.0704055 2.3509886e-038
6.0445471 252.51282 4.0655918 2.3509886e-038
10.793967 252.5779 4.0666399 2.3509886e-038
15.44065 250.93388 4.0401707 2.3509886e-038
19.98634 248.80183 4.0058427 2.3509528e-038
24.526789 247.42566 3.9836862 2.3509528e-038
29.105181 246.80988 3.9737713 2.3509528e-038
33.818844 247.35292 3.9825146 2.3509528e-038
35.034073 247.90469 3.9913986 2.3509528e-038
-62.033401 265.67767 -0.71654361 2.3509886e-038
-57.811813 262.26724 -0.70734555 2.3509886e-038
-52.482239 260.28549 -0.70200074 2.3509886e-038
-47.539047 260.00952 -0.70125645 2.3509886e-038
-42.69899 260.29904 -0.70203727 2.3509886e-038
-37.862217 260.68604 -0.70308101 2.3509886e-038
-33.013348 261.09262 -0.70417762 2.3509886e-038
-28.068014 260.74487 -0.70323968 2.3509886e-038
-23.078379 259.75156 -0.70056069 2.3509886e-038
-18.169636 259.37991 -0.69955838 2.3509886e-038
-13.269705 258.90726 -0.69828355 2.3509886e-038
-8.3577547 257.51733 -0.69453484 2.3509886e-038
-3.4915948 255.65263 -0.6895057 2.3509886e-038
1.306656 254.21118 -0.6856181 2.3509886e-038
6.0673594 253.46581 -0.6836077 2.3509886e-038
10.802107 252.76837 -0.68172675 2.3509886e-038
15.471478 251.43489 -0.67813027 2.3509528e-038
20.079777 249.96498 -0.67416584 2.3509528e-038
24.704592 249.21936 -0.6721549 2.3509528e-038
29.379139 249.13301 -0.67192197 2.3509528e-038
31.609844 249.92738 -0.67406446 2.3509528e-038
-62.134476 266.77145 -5.7341518 2.3509886e-038
-57.967453 262.9733 -5.6525116 2.3509886e-038
-52.536697 260.55557 -5.600543 2.3509886e-038
-47.569729 260.17734 -5.5924139 2.3509886e-038
-42.712685 260.38254 -5.5968242 2.3509886e-038
-37.875191 260.77539 -5.6052685 2.3509886e-038
-33.032318 261.24265 -5.6153121 2.3509886e-038
-28.099276 261.03528 -5.6108546 2.3509886e-038
-23.125135 260.27783 -5.5945735 2.3509886e-038
-18.196217 259.75937 -5.5834293 2.3509886e-038
-13.286988 259.24448 -5.5723619 2.3509886e-038
-8.3864145 258.40039 -5.5542183 2.3509886e-038
-3.5171638 257.52478 -5.5353975 2.3509886e-038
1.3207382 256.9509 -5.5230618 2.3509886e-038
6.1381063 256.4213 -5.5116787 2.3509886e-038
10.904185 255.157 -5.4845028 2.3509886e-038
15.584858 253.27748 -5.4441032 2.3509528e-038
20.224182 251.76263 -5.4115424 2.3509528e-038
24.928022 251.47331 -5.4053235 2.3509528e-038
28.431822 252.46548 -5.42665 2.3509528e-038
-113.4585 248.27699 -10.003617 2.3418052e-038
-110.56311 247.89827 -9.9883575 2.3418052e-038
-106.55515 249.42432 -10.049845 2.3418052e-038
-102.96423 252.11194 -10.158135 2.3418052e-038
-99.956535 255.19839 -10.282495 2.3418052e-038
-62.333504 267.31696 -10.770779 2.3509886e-038
-58.031254 263.26276 -10.607425 2.3509886e-038
-52.644722 261.09131 -10.519934 2.3509886e-038
-47.673374 260.7442 -10.505948 2.3509886e-038
-42.756165 260.64758 -10.502055 2.3509886e-038
-37.870346 260.74203 -10.50586 2.3509886e-038
-33.028912 261.21573 -10.524946 2.3509886e-038
-28.14683 261.47705 -10.535476 2.3509886e-038
-23.185629 260.95871 -10.51459 2.3509886e-038
-18.22452 260.16342 -10.482547 2.3509886e-038
-13.314291 259.77719 -10.466985 2.3509886e-038
-8.4187727 259.3974 -10.451682 2.3509886e-038
-3.5364838 258.93939 -10.433228 2.3509886e-038
1.3299077 258.73483 -10.424986 2.3509886e-038
6.1871219 258.46893 -10.414271 2.3509886e-038
10.986312 257.07877 -10.358259 2.3509886e-038
15.685847 254.9187 -10.271225 2.3509528e-038
20.368849 253.56352 -10.216622 2.3509528e-038
25.224205 254.4612 -10.252792 2.3509528e-038
25.832178 254.89166 -10.270137 2.3509528e-038
-112.08041 246.69489 -14.577147 2.3418052e-038
-110.01163 246.66179 -14.575191 2.3418052e-038
-105.95182 248.01205 -14.654977 2.3418052e-038
-102.42525 250.79227 -14.81926 2.3418052e-038
-99.216476 254.65643 -15.047593 2.3418052e-038
-96.041977 259.00476 -15.304535 2.3418052e-038
-94.890144 260.63248 -15.400716 2.3418052e-038
-62.946507 267.70673 -15.818732 2.3418052e-038
-57.977512 263.01892 -15.541732 2.3509886e-038
-52.64695 261.10239 -15.428482 2.3509886e-038
-47.701267 260.89676 -15.416332 2.3509886e-038
-42.788601 260.84534 -15.413294 2.3509886e-038
-37.881878 260.82144 -15.41188 2.3509886e-038
-33.051029 261.39066 -15.445517 2.3509886e-038
-28.210171 262.06546 -15.485391 2.3509886e-038
-23.243029 261.60474 -15.458166 2.3509886e-038
-18.246626 260.479 -15.391647 2.3509886e-038
-13.330832 260.09991 -15.369246 2.3509886e-038
-8.4385147 260.00568 -15.363678 2.3509886e-038
-3.546366 259.66296 -15.343427 2.3509886e-038
1.3338276 259.49744 -15.333646 2.3509886e-038
6.2077012 259.32864 -15.323671 2.3509886e-038
11.027357 258.03922 -15.24748 2.3509886e-038
15.773635 256.3454 -15.147392 2.3509886e-038
20.541298 255.71028 -15.109864 2.3509528e-038
24.002993 256.9856 -15.185223 2.3509528e-038
-109.778 248.20227 -19.33181 2.3418052e-038
-106.11056 248.38361 -19.345934 2.3418052e-038
-102.17206 250.17229 -19.485249 2.3418052e-038
-98.703209 253.33902 -19.731897 2.3418052e-038
-95.284348 256.96161 -20.014051 2.3418052e-038
-92.017494 261.40292 -20.359974 2.3418052e-038
-90.4813 265.33414 -20.666162 2.3418052e-038
-64.858955 269.02982 -20.954012 2.3418052e-038
-64.165352 268.2178 -20.890764 2.3418052e-038
-57.893326 262.63702 -20.456093 2.3418052e-038
-52.563095 260.68649 -20.304171 2.3509886e-038
-47.607216 260.38239 -20.280485 2.3509886e-038
-42.745796 260.58438 -20.296219 2.3509886e-038
-37.905869 260.9866 -20.327545 2.3509886e-038
-33.126434 261.98703 -20.405468 2.3509886e-038
-28.301489 262.91379 -20.477652 2.3509886e-038
-23.331842 262.60437 -20.45355 2.3509886e-038
-18.315289 261.4592 -20.364357 2.3509886e-038
-13.370357 260.87109 -20.318548 2.3509886e-038
-8.4645748 260.80865 -20.313686 2.3509886e-038
-3.5578234 260.50186 -20.289791 2.3509886e-038
1.3387215 260.44955 -20.285719 2.3509886e-038
6.2307162 260.2901 -20.273296 2.3509886e-038
11.065189 258.9245 -20.166933 2.3509886e-038
15.854355 257.6572 -20.068228 2.3509886e-038
20.710606 257.81793 -20.080748 2.3509886e-038
22.987459 259.01318 -20.173841 2.3509886e-038
-106.67093 250.60172 -24.22941 2.3418052e-038
-102.5352 251.06146 -24.273863 2.3418052e-038
-98.539589 252.91908 -24.453466 2.3418052e-038
-94.691208 255.36203 -24.689663 2.3418052e-038
-90.977097 258.44739 -24.98797 2.3418052e-038
-87.516365 262.6412 -25.393448 2.3418052e-038
-84.254791 266.19046 -25.73661 2.3418052e-038
-69.192863 271.13037 -26.214226 2.3418052e-038
-63.793056 266.66156 -25.782156 2.3418052e-038
-57.919613 262.75629 -25.404575 2.3418052e-038
-52.626629 261.00159 -25.234922 2.3509886e-038
-47.642769 260.57681 -25.193853 2.3509886e-038
-42.793743 260.87668 -25.222847 2.3509886e-038
-37.984421 261.52744 -25.285765 2.3509886e-038
-33.211838 262.66245 -25.395504 2.3509886e-038
-28.37438 263.59094 -25.485273 2.3509886e-038
-23.425692 263.66064 -25.492012 2.3509886e-038
-18.411617 262.83435 -25.412123 2.3509886e-038
-13.424001 261.91776 -25.323502 2.3509886e-038
-8.4841595 261.41208 -25.274612 2.3509886e-038
-3.5661798 261.11371 -25.245764 2.3509886e-038
1.3445442 261.58234 -25.291075 2.3509886e-038
6.2628818 261.63382 -25.296049 2.3509886e-038
11.121469 260.24142 -25.161427 2.3509886e-038
15.936719 258.99573 -25.040987 2.3509886e-038
20.839216 259.41895 -25.081905 2.3509886e-038
22.553783 260.48828 -25.185293 2.3509886e-038
-103.23607 254.75117 -29.419298 2.3418052e-038
-99.094582 254.34357 -29.372227 2.3418052e-038
-94.476669 254.78348 -29.423029 2.3418052e-038
-90.212646 256.27573 -29.595354 2.3418052e-038
-86.34391 259.12259 -29.924118 2.3418052e-038
-82.45182 262.23563 -30.283619 2.3418052e-038
-78.225975 264.61551 -30.558455 2.3418052e-038
-73.637711 266.00946 -30.719431 2.3418052e-038
-68.739403 266.40479 -30.765085 2.3418052e-038
-63.348694 264.80411 -30.580235 2.3418052e-038
-57.992901 263.08878 -30.382143 2.3418052e-038
-52.842846 262.07391 -30.264944 2.3509886e-038
-47.831612 261.60968 -30.211332 2.3509886e-038
-42.889095 261.45795 -30.193813 2.3509886e-038
-38.016258 261.74667 -30.227154 2.3509886e-038
-33.23167 262.81927 -30.351025 2.3509886e-038
-28.425722 264.0679 -30.495214 2.3509886e-038
-23.512146 264.6337 -30.560555 2.3509886e-038
-18.505766 264.17834 -30.507969 2.3509886e-038
-13.49119 263.2287 -30.398302 2.3509886e-038
-8.5132008 262.30688 -30.291851 2.3509886e-038
-3.5777137 261.95822 -30.251583 2.3509886e-038
1.3492976 262.50717 -30.314978 2.3509886e-038
6.2842822 262.52783 -30.317364 2.3509886e-038
11.166407 261.29297 -30.174761 2.3509886e-038
16.001532 260.04904 -30.031109 2.3509886e-038
20.937 260.6362 -30.098915 2.3509886e-038
22.406277 261.72797 -30.224995 2.3509886e-038
-98.291634 257.07803 -34.520462 2.3418052e-038
-95.087593 256.431 -34.433582 2.3418052e-038
-90.358994 256.6915 -34.468559 2.3418052e-038
-86.092323 258.36755 -34.693626 2.3418052e-038
-81.890205 260.4494 -34.973175 2.3418052e-038
-77.501465 262.16467 -35.203503 2.3418052e-038
-72.879456 263.27032 -35.351967 2.3418052e-038
-68.065102 263.79147 -35.421944 2.3418052e-038
-63.059986 263.59726 -35.395863 2.3418052e-038
-58.043503 263.3183 -35.358406 2.3509886e-038
-53.01989 262.95197 -35.309219 2.3509886e-038
-48.022312 262.65271 -35.269028 2.3509886e-038
-42.994202 262.09869 -35.194637 2.3509886e-038
-38.038651 261.90082 -35.168068 2.3509886e-038
-33.254837 263.00247 -35.316002 2.3509886e-038
-28.489838 264.66351 -35.539043 2.3509886e-038
-23.590509 265.51569 -35.653473 2.3509886e-038
-18.578445 265.21588 -35.613213 2.3509886e-038
-13.554782 264.46945 -35.512985 2.3509886e-038
-8.5603161 263.75861 -35.41753 2.3509886e-038
-3.5999036 263.58295 -35.393948 2.3509886e-038
1.354695 263.55719 -35.390484 2.3509886e-038
6.2913437 262.82285 -35.291878 2.3509886e-038
11.180202 261.61575 -35.129787 2.3509886e-038
16.04323 260.72672 -35.01041 2.3509886e-038
21.0214 261.68686 -35.139336 2.3509886e-038
22.124712 262.54068 -35.253986 2.3509886e-038
-94.121719 261.30328 -39.999706 2.3509886e-038
-91.74353 260.62463 -39.895824 2.3509886e-038
-86.711006 260.22424 -39.834534 2.3418052e-038
-81.906898 260.5025 -39.877129 2.3418052e-038
-77.231255 261.25064 -39.99165 2.3509886e-038
-72.536812 262.03253 -40.11134 2.3509886e-038
-67.72879 262.48807 -40.181072 2.3509886e-038
-62.85791 262.75256 -40.221561 2.3509886e-038
-57.996548 263.10532 -40.275555 2.3509886e-038
-53.07151 263.20798 -40.291271 2.3509886e-038
-48.115864 263.16437 -40.284599 2.3509886e-038
-43.070133 262.56158 -40.192326 2.3509886e-038
-38.08429 262.21509 -40.139282 2.3509886e-038
-33.302109 263.37634 -40.317047 2.3509886e-038
-28.546202 265.1871 -40.594234 2.3509886e-038
-23.667158 266.37842 -40.776596 2.3509886e-038
-18.659336 266.37064 -40.775402 2.3509886e-038
-13.620207 265.74597 -40.679783 2.3509886e-038
-8.6095629 265.27597 -40.607841 2.3509886e-038
-3.6199169 265.04834 -40.57299 2.3509886e-038
1.358896 264.37451 -40.469849 2.3509886e-038
6.2951207 262.98062 -40.25647 2.3509886e-038
11.183462 261.69205 -40.059219 2.3509886e-038
16.078917 261.30667 -40.000225 2.3509886e-038
21.12051 262.92068 -40.247295 2.3509886e-038
21.554565 263.25882 -40.299053 2.3509886e-038
-90.640625 266.08667 -45.733711 2.3509886e-038
-88.203262 264.70258 -45.495823 2.3509886e-038
-82.337532 261.8721 -45.009338 2.3509886e-038
-77.06424 260.68567 -44.80542 2.3509886e-038
-72.200417 260.81735 -44.828045 2.3509886e-038
-67.363739 261.0733 -44.87204 2.3509886e-038
-62.5564 261.49222 -44.944042 2.3509886e-038
-57.770466 262.07965 -45.045006 2.3509886e-038
-52.916985 262.44162 -45.107216 2.3509886e-038
-48.022949 262.65619 -45.144096 2.3509886e-038
-43.048538 262.42996 -45.105217 2.3509886e-038
-38.123123 262.48242 -45.114235 2.3509886e-038
-33.355934 263.80206 -45.341045 2.3509886e-038
-28.616535 265.84052 -45.691406 2.3509886e-038
-23.774967 267.5918 -45.992409 2.3509886e-038
-18.770651 267.95969 -46.055637 2.3509886e-038
-13.694986 267.20499 -45.925926 2.3509886e-038
-8.6513176 266.56253 -45.815502 2.3509886e-038
-3.6331153 266.01471 -45.721344 2.3509886e-038
1.3618777 264.95459 -45.539139 2.3509886e-038
6.3083673 263.534 -45.294975 2.3509886e-038
11.216973 262.4762 -45.113167 2.3509886e-038
16.16272 262.66861 -45.146233 2.3509886e-038
20.908651 264.78116 -45.509327 2.3509886e-038
-86.400604 267.70892 -51.04483 2.3509886e-038
-83.349808 265.09161 -50.54578 2.3509886e-038
-77.274658 261.39746 -49.841404 2.3509886e-038
-72.028809 260.19742 -49.612595 2.3509886e-038
-67.041786 259.82553 -49.541683 2.3509886e-038
-62.184944 259.93948 -49.563412 2.3509886e-038
-57.390705 260.35684 -49.642986 2.3509886e-038
-52.589195 260.81595 -49.73053 2.3509886e-038
-47.762386 261.23108 -49.809681 2.3509886e-038
-42.909069 261.57971 -49.876156 2.3509886e-038
-38.111748 262.40411 -50.033344 2.3509886e-038
-33.384018 264.02417 -50.342247 2.3509886e-038
-28.669891 266.33618 -50.783081 2.3509886e-038
-23.853823 268.47934 -51.191727 2.3509886e-038
-18.868925 269.36261 -51.360142 2.3509886e-038
-13.768072 268.63098 -51.220642 2.3509886e-038
-8.6827745 267.53174 -51.011047 2.3509886e-038
-3.642499 266.70175 -50.852791 2.3509886e-038
1.3647515 265.51373 -50.626263 2.3509886e-038
6.3286142 264.37982 -50.410061 2.3509886e-038
11.281449 263.98495 -50.33477 2.3509886e-038
16.314087 265.12854 -50.552822 2.3509886e-038
20.55452 268.43469 -51.183216 2.3509886e-038
-82.113861 269.24173 -56.39817 2.3509886e-038
-78.635201 265.99976 -55.719078 2.3509886e-038
-72.379814 261.46539 -54.769264 2.3509886e-038
-66.968864 259.54294 -54.366566 2.3509886e-038
-61.970715 259.04401 -54.262051 2.3509886e-038
-57.090164 258.99341 -54.251453 2.3509886e-038
-52.284233 259.30347 -54.316406 2.3509886e-038
-47.498611 259.78836 -54.417976 2.3509886e-038
-42.736591 260.52826 -54.572964 2.3509886e-038
-38.048908 261.97144 -54.875267 2.3509886e-038
-33.380585 263.99698 -55.299557 2.3509886e-038
-28.689163 266.5152 -55.827049 2.3509886e-038
-23.888817 268.87323 -56.32098 2.3509886e-038
-18.936852 270.33231 -56.626617 2.3509886e-038
-13.831114 269.86099 -56.527889 2.3509886e-038
-8.7118578 268.42789 -56.227695 2.3509886e-038
-3.6519647 267.39484 -56.011303 2.3509886e-038
1.3676056 266.06897 -55.733574 2.3509886e-038
6.3475528 265.17099 -55.545475 2.3509886e-038
11.36044 265.83331 -55.684212 2.3509886e-038
16.582497 269.4906 -56.450302 2.3509886e-038
20.722294 276.76526 -57.974129 2.3509886e-038
-77.407181 270.67511 -61.786476 2.3509886e-038
-73.784981 266.54141 -60.842884 2.3509886e-038
-67.535507 261.73898 -59.746643 2.3509886e-038
-62.155956 259.81833 -59.308216 2.3509886e-038
-57.128548 259.16754 -59.159668 2.3509886e-038
-52.229279 259.03094 -59.128483 2.3509886e-038
-47.404888 259.27576 -59.184368 2.3509886e-038
-42.696308 260.28268 -59.414219 2.3509886e-038
-38.070065 262.11713 -59.832958 2.3509886e-038
-33.425827 264.3548 -60.343746 2.3509886e-038
-28.735441 266.94513 -60.935036 2.3509886e-038
-23.936249 269.40707 -61.497017 2.3509886e-038
-18.998596 271.21375 -61.909428 2.3509886e-038
-13.890149 271.01285 -61.863567 2.3509886e-038
-8.7457972 269.47357 -61.512203 2.3509886e-038
-3.6635673 268.24438 -61.231617 2.3509886e-038
1.3722337 266.96939 -60.940575 2.3509886e-038
6.38342 266.66934 -60.872082 2.3509886e-038
11.48885 268.83807 -61.367138 2.3509886e-038
17.044044 276.99146 -63.228294 2.3509886e-038
20.844742 287.5676 -65.642487 2.3509886e-038
-72.526619 271.81671 -67.156548 2.3509886e-038
-69.237251 268.33423 -66.29615 2.3509886e-038
-62.887764 262.87738 -64.947945 2.3509886e-038
-57.466606 260.70117 -64.410286 2.3509886e-038
-52.428532 260.01913 -64.241776 2.3509886e-038
-47.546616 260.05093 -64.249626 2.3509886e-038
-42.835571 261.13168 -64.516647 2.3509886e-038
-38.212036 263.0946 -65.001625 2.3509886e-038
-33.535748 265.22415 -65.527756 2.3509886e-038
-28.810469 267.64212 -66.125153 2.3509886e-038
-23.997698 270.09869 -66.732086 2.3509886e-038
-19.05744 272.05374 -67.215118 2.3509886e-038
-13.942483 272.03394 -67.21022 2.3509886e-038
-8.7838182 270.64511 -66.867088 2.3509886e-038
-3.6809239 269.51523 -66.587929 2.3509886e-038
1.3810555 268.68567 -66.38298 2.3509886e-038
6.4472203 269.33463 -66.543312 2.3509886e-038
11.700284 273.78561 -67.643005 2.3509886e-038
17.718428 287.9512 -71.14283 2.3509886e-038
20.490885 297.57254 -73.519928 2.3509886e-038
-66.780273 271.54056 -72.192635 2.3509886e-038
-64.251938 268.57974 -71.405472 2.3509886e-038
-58.232685 264.17654 -70.234818 2.3509886e-038
-52.916725 262.44034 -69.773216 2.3509886e-038
-47.901173 261.99014 -69.653526 2.3509886e-038
-43.085304 262.65405 -69.830048 2.3509886e-038
-38.38036 264.25354 -70.25528 2.3509886e-038
-33.651695 266.14114 -70.757126 2.3509886e-038
-28.901426 268.48706 -71.380821 2.3509886e-038
-24.086899 271.10263 -72.07621 2.3509886e-038
-19.143248 273.27869 -72.654739 2.3509886e-038
-14.025637 273.65637 -72.75515 2.3509886e-038
-8.8509855 272.71463 -72.504784 2.3509886e-038
-3.7147291 271.99042 -72.312233 2.3509886e-038
1.3974544 271.8761 -72.281845 2.3509886e-038
6.5509138 273.66644 -72.757835 2.3509886e-038
12.025084 281.38593 -74.810158 2.3509886e-038
18.566404 301.73209 -80.219452 2.3509886e-038
19.617443 305.75558 -81.289146 2.3509886e-038
-59.387138 270.68036 -77.052071 2.3509886e-038
-53.943966 267.53491 -76.156685 2.3509886e-038
-48.629963 265.97617 -75.712967 2.3509886e-038
-43.56424 265.5737 -75.598404 2.3509886e-038
-38.701664 266.46576 -75.852333 2.3509886e-038
-33.874382 267.90228 -76.261261 2.3509886e-038
-29.087135 270.21225 -76.918816 2.3509886e-038
-24.2792 273.26703 -77.788391 2.3509886e-038
-19.331469 275.96564 -78.556572 2.3509886e-038
-14.199327 277.04529 -78.863914 2.3509886e-038
-8.9786196 276.64728 -78.75061 2.3509886e-038
-3.7732074 276.27216 -78.643829 2.3509886e-038
1.4232075 276.88641 -78.818687 2.3509886e-038
6.7129507 280.43558 -79.829002 2.3509886e-038
12.48239 292.08688 -83.14566 2.3509886e-038
17.841221 309.79974 -88.187813 2.3509886e-038
-51.778915 275.05334 -83.467232 2.3509886e-038
-50.123917 274.14719 -83.192245 2.3509886e-038
-44.597649 271.87354 -82.502289 2.3509886e-038
-39.434361 271.51047 -82.39212 2.3509886e-038
-34.442665 272.3967 -82.661041 2.3509886e-038
-29.570845 274.70581 -83.361763 2.3509886e-038
-24.705835 278.06891 -84.382324 2.3509886e-038
-19.7251 281.5849 -85.44928 2.3509886e-038
-14.565262 284.18509 -86.238335 2.3509886e-038
-9.2444534 284.83807 -86.436485 2.3509886e-038
-3.8926222 285.01566 -86.490372 2.3509886e-038
1.4761143 287.17944 -87.146996 2.3509886e-038
7.0385027 294.03561 -89.227554 2.3509886e-038
13.198682 308.84802 -93.722504 2.3509886e-038
14.355522 312.1897 -94.736572 2.3509886e-038
-38.850304 279.57864 -90.095863 2.3509886e-038
-35.501797 280.77304 -90.480766 2.3509886e-038
-30.596863 284.23727 -91.59713 2.3509886e-038
-25.481405 286.7981 -92.422371 2.3509886e-038
-20.302383 289.8259 -93.398094 2.3509886e-038
-15.100183 294.62201 -94.943672 2.3509886e-038
-9.6574345 297.56277 -95.891357 2.3509886e-038
-4.0939484 299.75665 -96.598343 2.3509886e-038
1.5696063 305.36841 -98.406769 2.3509886e-038
4.9462299 310.61685 -100.09811 2.3509886e-038
-111.62376 250.27638 -7.0349016 2.3418052e-038
-110.44863 247.64157 -18.101727 2.3418052e-038
-107.38579 251.36867 -6.6594419 2.3418052e-038
-106.95824 250.36787 -23.805029 2.3418052e-038
-103.24193 252.79192 -8.0570765 2.3418052e-038
-103.80322 254.16624 -28.654919 2.3418052e-038
-99.597908 255.63544 -10.603559 2.3418052e-038
-99.941795 256.5181 -32.926083 2.3418052e-038
-96.255608 259.58087 -14.024169 2.3418052e-038
-96.029358 258.97073 -37.25045 2.3509886e-038
-92.444626 262.61633 -18.06443 2.3418052e-038
-92.725349 263.41382 -42.320385 2.3509886e-038
-88.798172 266.48795 -22.453426 2.3418052e-038
-89.049461 267.24207 -47.983326 2.3509886e-038
-83.685684 266.15985 -26.101393 2.3418052e-038
-84.297035 268.10428 -53.505936 2.3509886e-038
-74.805466 253.04491 70.055992 9.1476764e-041
-75.268753 254.61206 63.502357 9.1476764e-041
-78.906494 266.91748 -28.4137 2.3418052e-038
-80.008759 270.64612 -59.239044 2.3509886e-038
-69.423805 250.78708 73.267532 9.1476764e-041
-70.359352 254.16666 42.579105 9.1476764e-041
-74.36721 268.64468 -28.774776 2.3418052e-038
-74.899208 270.5665 -64.170616 2.3509886e-038
-64.59346 250.33685 69.691795 9.1476764e-041
-67.308922 260.86087 25.006517 9.1476764e-041
-69.9636 271.14926 -26.794062 2.3418052e-038
-70.419548 272.91632 -69.73262 2.3509886e-038
-60.351616 252.276 59.238781 9.1476764e-041
-62.77634 262.41159 9.3675699 9.1476764e-041
-64.249176 268.56818 -19.813141 2.3418052e-038
-64.75808 270.69543 -73.359009 2.3509886e-038
-56.033119 254.19807 46.81739 9.1476764e-041
-59.657677 270.64111 -76.856697 2.3509886e-038
-51.494366 255.38614 34.156693 9.1476764e-041
-54.991936 272.73233 -80.739403 2.3509886e-038
-47.800766 261.44095 24.843063 9.1476764e-041
-50.420841 275.77118 -84.431381 2.3509886e-038
-43.441078 264.82294 20.152897 2.3509886e-038
-45.519917 277.49582 -87.154083 2.3509886e-038
-38.449722 264.73111 19.576715 2.3509886e-038
-40.490223 278.78018 -89.331787 2.3509886e-038
-32.238029 254.96086 85.046501 2.3418409e-038
-35.725628 282.54324 -91.871384 2.3509886e-038
-27.251074 253.1557 88.56179 2.3418409e-038
-31.061657 288.55508 -94.64933 2.3509886e-038
-22.505129 253.29953 83.779495 2.3418409e-038
-25.88061 291.2912 -95.917076 2.3509886e-038
-18.27873 260.93732 51.236717 2.3418409e-038
-18.205803 259.89621 33.577057 2.3418409e-038
-18.159924 259.24127 24.422224 3.5733111e-043
-20.568127 293.61948 -96.764008 2.3509886e-038
-13.266579 258.84625 21.597593 3.5733111e-043
-15.329128 299.08899 -98.570038 2.3509886e-038
-8.2265472 253.47459 40.44223 2.3418409e-038
-9.822958 302.66284 -99.6866 2.3509886e-038
-3.4212558 250.50247 60.298759 3.5733111e-043
-4.163228 304.82928 -100.10272 2.3509886e-038
1.2709285 247.26038 75.114746 3.5733111e-043
1.5861744 308.59177 -100.41908 2.3509886e-038
5.8822732 245.7338 75.603958 3.5733111e-043
5.9919281 250.31465 30.881727 3.5733111e-043
6.1251965 255.88196 8.6753712 2.3509886e-038
7.4650135 311.85324 -99.513 2.3509886e-038
10.840919 253.67656 5.7912374 2.3509886e-038
13.34448 312.25967 -95.741493 2.3509886e-038
15.506197 251.99911 6.8058829 2.3509886e-038
18.9505 307.97424 -84.462601 2.3509886e-038
20.083677 250.01353 9.9982862 2.3509528e-038
21.204224 263.96277 -43.052124 2.3509886e-038
24.587795 248.04111 14.308761 2.3509528e-038
25.312857 255.35551 -11.459364 2.3509528e-038
29.032307 246.19191 18.758497 2.3509528e-038
29.624323 251.21214 -3.5303137 2.3509528e-038
33.472347 244.8186 23.74457 2.3509528e-038
33.965546 248.4259 2.5557132 2.3509528e-038
37.657097 242.13564 28.954243 2.3509528e-038
38.240227 245.88518 8.6090708 2.3509528e-038
41.932243 240.54999 33.733147 2.3509528e-038
42.682571 244.85432 15.39941 2.3509528e-038
46.473892 240.65294 36.983944 2.3509528e-038
46.875416 242.73213 22.135851 2.3509528e-038
50.801903 239.72957 35.435627 2.3509528e-038
50.688427 239.19409 31.579456 2.3509528e-038
