# .PCD v0.7 - Point Cloud Data file format
VERSION 0.7
FIELDS x y z rgb
SIZE 4 4 4 4
TYPE F F F F
COUNT 1 1 1 1
WIDTH 777
HEIGHT 1
VIEWPOINT 0 0 0 1 0 0 0
POINTS 777
DATA ascii
-106.68454 248.9232 -14.068292 2.3418052e-038
-69.754158 251.02869 68.571884 9.1476764e-041
4.6401677 246.30823 69.602509 3.5733111e-043
44.929775 238.49513 30.327599 2.3509528e-038
-27.454067 253.44521 81.168541 2.3418409e-038
-31.59767 254.20114 84.886238 2.3418409e-038
-27.28116 252.90385 84.453033 2.3418409e-038
-22.950754 253.47835 84.644875 2.3418409e-038
-33.029076 256.00214 80.680176 2.3418409e-038
-32.342754 255.36981 80.480896 2.3418409e-038
-27.317553 253.24121 79.810059 2.3418409e-038
-22.615993 253.84819 80.001358 2.3418409e-038
-21.060432 254.56831 80.228302 2.3418409e-038
-33.278511 256.00287 75.87291 2.3418409e-038
-32.336445 255.31998 75.670525 2.3418409e-038
-27.377293 253.79503 75.218567 2.3418409e-038
-22.670198 254.4566 75.414642 2.3418409e-038
-20.391451 255.47766 75.717255 2.3418409e-038
0.1416924 247.75806 73.429352 3.5733111e-043
1.187415 247.23859 73.275398 3.5733111e-043
5.7986875 245.89763 72.877975 3.5733111e-043
8.4964056 245.77689 72.842186 3.5733111e-043
-75.110474 252.84558 70.18898 9.1476764e-041
-74.688812 252.61536 70.125069 9.1476764e-041
-69.390182 250.61182 69.568886 9.1476764e-041
-65.025719 250.27052 69.474144 9.1476764e-041
-33.262058 255.55504 70.941109 2.3418409e-038
-32.316299 255.16093 70.831711 2.3418409e-038
-27.434439 254.3248 70.599602 2.3418409e-038
-22.726618 255.08987 70.811981 2.3418409e-038
-20.223099 256.22983 71.128426 2.3418409e-038
-1.4621048 249.50066 69.260437 3.5733111e-043
1.1887844 247.52373 68.711647 3.5733111e-043
5.8084512 246.31169 68.375191 3.5733111e-043
9.7162228 246.85612 68.526321 3.5733111e-043
-75.516777 253.81691 65.692169 9.1476764e-041
-74.949272 253.49629 65.609192 9.1476764e-041
-69.55439 251.20488 65.016136 9.1476764e-041
-64.67955 250.59485 64.858253 9.1476764e-041
-62.699608 251.05211 64.976593 9.1476764e-041
-33.343853 256.15259 66.296692 2.3418409e-038
-32.375668 255.62968 66.161346 2.3418409e-038
-27.459007 254.55254 65.882568 2.3418409e-038
-22.754148 255.39886 66.101608 2.3418409e-038
-20.072735 256.56784 66.404167 2.3418409e-038
-2.2400355 250.39148 64.805611 3.5733111e-043
1.1907074 247.92413 64.167023 3.5733111e-043
5.8302183 247.23473 63.988598 3.5733111e-043
9.5654068 248.14729 64.224777 3.5733111e-043
-74.839722 254.29744 61.041069 9.1476764e-041
-69.755028 251.92949 60.472672 9.1476764e-041
-64.855675 251.27724 60.316105 9.1476764e-041
-61.116474 252.60699 60.6353 9.1476764e-041
-33.533726 257.61139 61.836544 2.3418409e-038
-32.518314 256.75598 61.631214 2.3418409e-038
-27.493895 254.87596 61.179935 2.3418409e-038
-22.769344 255.56946 61.346405 2.3418409e-038
-19.69293 256.85889 61.655914 2.3418409e-038
-3.0533602 250.1955 60.05645 3.5733111e-043
1.1908113 247.94574 59.516418 3.5733111e-043
5.8484545 248.00804 59.531376 3.5733111e-043
9.0393152 249.07997 59.788677 3.5733111e-043
-73.828827 254.63641 56.340611 9.1476764e-041
-69.922928 252.53587 55.875847 9.1476764e-041
-64.947426 251.63272 55.676014 9.1476764e-041
-60.482826 252.72256 55.917152 9.1476764e-041
-59.477982 253.51981 56.093548 9.1476764e-041
-33.656078 258.55118 57.206787 2.3418409e-038
-32.631462 257.64935 57.007248 2.3418409e-038
-27.565569 255.54041 56.540623 2.3418409e-038
-22.837742 256.33716 56.716915 2.3418409e-038
-19.174643 258.6618 57.231262 2.3418409e-038
-3.91644 249.46104 55.195511 3.5733111e-043
-3.4821734 249.14728 55.126091 3.5733111e-043
1.1882961 247.42206 54.744366 3.5733111e-043
5.8543587 248.25844 54.929424 3.5733111e-043
8.7066164 249.92546 55.298267 3.5733111e-043
-72.716545 254.89857 51.611855 9.1476764e-041
-70.082092 253.11073 51.249855 9.1476764e-041
-64.870735 251.33559 50.890423 9.1476764e-041
-60.306175 251.98445 51.021805 9.1476764e-041
-57.636433 253.85085 51.399712 9.1476764e-041
-33.713669 258.99374 52.441044 2.3418409e-038
-32.707104 258.24661 52.289764 2.3418409e-038
-27.653269 256.35339 51.906433 2.3418409e-038
-22.91823 257.2406 52.086071 2.3418409e-038
-18.597914 260.95944 52.839062 2.3418409e-038
-4.8602571 249.76654 50.572723 3.5733111e-043
-3.4752483 248.65181 50.347012 3.5733111e-043
1.1871239 247.17799 50.048592 3.5733111e-043
5.8674111 248.81192 50.379429 3.5733111e-043
8.6072941 251.36742 50.89687 3.5733111e-043
-71.424614 254.54008 46.759251 9.1476764e-041
-70.239388 253.67883 46.60104 9.1476764e-041
-64.932037 251.57312 46.214214 9.1476764e-041
-60.342758 252.1373 46.317856 9.1476764e-041
-56.14933 254.59242 46.768867 9.1476764e-041
-55.888866 254.89316 46.824108 9.1476764e-041
-33.808262 259.72028 47.710854 2.3418409e-038
-32.804859 259.01846 47.581928 2.3418409e-038
-27.739218 257.15018 47.238728 2.3418409e-038
-22.966011 257.77689 47.353855 2.3418409e-038
-18.367878 261.22827 47.987873 2.3509886e-038
-18.137377 261.46307 48.03101 2.3509886e-038
-5.9307771 250.84465 46.080399 3.5733111e-043
-3.4782343 248.86545 45.716816 3.5733111e-043
1.1891161 247.5928 45.483032 3.5733111e-043
5.8909936 249.81195 45.89069 3.5733111e-043
8.6140919 253.12674 46.499619 3.5733111e-043
-70.146568 254.21596 41.925766 2.3509886e-038
-65.218231 252.68195 41.672775 9.1476764e-041
-60.587559 253.16017 41.751644 9.1476764e-041
-56.086815 254.30898 41.941105 9.1476764e-041
-54.125706 255.29727 42.104099 9.1476764e-041
-33.840508 259.96786 42.874382 2.3418409e-038
-32.837173 259.27362 42.759884 2.3418409e-038
-27.780172 257.52982 42.472294 2.3418409e-038
-22.984955 257.98953 42.548107 2.3418409e-038
-18.351196 260.99103 43.043125 2.3509886e-038
-17.961203 261.33105 43.099201 2.3509886e-038
-7.0720077 251.83987 41.533897 3.5733111e-043
-3.4809792 249.06184 41.075741 3.5733111e-043
1.1923354 248.26309 40.944012 3.5733111e-043
5.9148369 250.82304 41.366199 3.5733111e-043
8.5133924 254.28912 41.937832 3.5733111e-043
-69.140961 254.78172 37.23452 9.1476764e-041
-65.533157 253.90208 37.105961 9.1476764e-041
-60.790798 254.0094 37.121647 9.1476764e-041
-56.099216 254.3652 37.173649 9.1476764e-041
-52.401184 255.26663 37.305386 9.1476764e-041
-33.775593 259.4646 37.918884 2.3418409e-038
-32.795208 258.94229 37.842552 2.3418409e-038
-27.802338 257.73532 37.666164 2.3418409e-038
-23.000183 258.16043 37.728291 2.3418409e-038
-18.343435 260.88065 38.125832 2.3418409e-038
-17.911667 261.23474 38.177574 2.3418409e-038
-8.1658163 253.20969 37.004772 2.3509886e-038
-3.484118 249.28641 36.431416 3.5733111e-043
1.194049 248.6199 36.334011 3.5733111e-043
5.9192171 251.0088 36.683132 3.5733111e-043
8.0243616 253.70645 37.077374 3.5733111e-043
-68.468559 256.4277 32.659603 2.3509886e-038
-65.930687 255.44226 32.534088 9.1476764e-041
-60.900002 254.4657 32.409714 9.1476764e-041
-56.089912 254.323 32.391537 9.1476764e-041
-51.509418 255.29173 32.514919 9.1476764e-041
-50.731857 256.00076 32.605225 9.1476764e-041
-33.764763 259.22672 33.016094 2.3418409e-038
-32.793537 258.92908 32.978184 2.3418409e-038
-27.852812 258.20322 32.885735 2.3418409e-038
-23.034405 258.54456 32.929211 2.3418409e-038
-18.338966 260.81711 33.218651 2.3509886e-038
-17.883192 261.13065 33.258583 2.3509886e-038
-9.0391054 254.11124 32.364567 3.5733111e-043
-8.2923689 253.16006 32.24342 3.5733111e-043
-3.4850044 249.34984 31.758133 3.5733111e-043
1.1942031 248.65199 31.669256 3.5733111e-043
5.9041009 250.3678 31.887785 3.5733111e-043
7.0562062 251.55911 32.039516 3.5733111e-043
40.409637 239.85214 30.548473 2.3509528e-038
41.603622 239.35692 30.485401 2.3509528e-038
45.986912 238.7775 30.411602 2.3509528e-038
50.847836 240.56061 30.638706 2.3509528e-038
50.991581 240.67656 30.653473 2.3509528e-038
-68.081383 259.08661 28.132843 2.3509886e-038
-66.597176 258.02454 28.017519 2.3509886e-038
-61.123985 255.40158 27.732704 9.1476764e-041
-56.163734 254.65775 27.651936 9.1476764e-041
-51.5578 255.53152 27.746813 9.1476764e-041
-49.093407 258.20285 28.036879 9.1476764e-041
-33.988644 259.7262 28.202291 2.3418409e-038
-32.842449 259.31525 28.157671 2.3418409e-038
-27.872332 258.38416 28.056568 2.3418409e-038
-23.035686 258.55896 28.075548 2.3418409e-038
-18.324968 260.61801 28.299129 2.3509886e-038
-17.712543 260.98007 28.338444 2.3509886e-038
-9.8990536 255.33382 27.725346 2.3509886e-038
-8.297576 253.31903 27.506571 3.5733111e-043
-3.4930642 249.92651 27.138195 3.5733111e-043
1.1983943 249.52467 27.094563 3.5733111e-043
5.8441329 251.24657 27.281534 3.5733111e-043
36.910011 241.68791 26.24361 2.3509528e-038
37.422634 241.38168 26.210358 2.3509528e-038
41.743153 240.15967 26.077667 2.3509528e-038
46.342449 240.62354 26.128035 2.3509528e-038
50.049366 242.11388 26.289864 2.3509528e-038
-67.527855 261.75052 23.50668 2.3509886e-038
-61.520576 257.05872 23.085327 9.1476764e-041
-56.362473 255.55885 22.950632 9.1476764e-041
-51.713295 256.30219 23.017387 9.1476764e-041
-47.652802 260.4151 23.386751 9.1476764e-041
-47.065762 261.42474 23.477423 9.1476764e-041
-34.80489 260.81619 23.42277 2.3418409e-038
-32.895512 259.73425 23.325605 2.3418409e-038
-27.858845 258.25916 23.193134 2.3418409e-038
-23.000042 258.15887 23.184128 2.3509886e-038
-18.267206 259.79654 23.3312 2.3509886e-038
-16.861475 260.41907 23.387108 2.3509886e-038
-11.403399 257.38773 23.114876 2.3509886e-038
-8.3175545 253.92896 22.804258 3.5733111e-043
-3.5117815 251.2657 22.565084 3.5733111e-043
1.2089784 251.72841 22.606638 3.5733111e-043
4.7216015 253.76147 22.789217 3.5733111e-043
33.486713 243.23045 21.843472 2.3509528e-038
37.479519 241.74861 21.710394 2.3509528e-038
42.049229 241.92061 21.725842 2.3509528e-038
46.949722 243.77669 21.892527 2.3509528e-038
48.187016 244.68994 21.974543 2.3509528e-038
-66.13945 262.50476 18.644829 2.3509886e-038
-61.877983 258.55209 18.364084 2.3509886e-038
-56.556644 256.43927 18.214018 9.1476764e-041
-51.785095 256.65805 18.229557 9.1476764e-041
-47.279926 258.37741 18.351675 9.1476764e-041
-42.904144 261.27798 18.557693 9.1476764e-041
-41.988453 261.72147 18.589193 9.1476764e-041
-38.140903 261.98199 18.607698 9.1476764e-041
-38.098255 261.97018 18.606861 9.1476764e-041
-32.904198 259.8028 18.452917 2.3509886e-038
-27.8661 258.32642 18.348055 2.3509886e-038
-22.970549 257.82782 18.312641 2.3509886e-038
-18.156382 258.22037 18.340523 2.3509886e-038
-13.27662 257.62579 18.298292 2.3509886e-038
-8.3209572 254.03285 18.043097 2.3509886e-038
-3.5277023 252.40485 17.927465 3.5733111e-043
1.219842 253.99042 18.040083 3.5733111e-043
4.0925784 256.92514 18.248526 3.5733111e-043
29.593519 245.05551 17.405468 2.3509528e-038
33.136761 243.19472 17.273302 2.3509528e-038
37.634678 242.74942 17.241674 2.3509528e-038
42.420792 244.05832 17.334641 2.3509528e-038
45.363846 245.84225 17.461346 2.3509528e-038
-64.365685 261.69012 13.672669 2.3509886e-038
-62.194351 259.87402 13.577782 2.3509886e-038
-56.732506 257.23666 13.439986 2.3509886e-038
-51.797699 256.72052 13.413018 9.1476764e-041
-47.048405 257.11218 13.433482 9.1476764e-041
-42.370998 258.03119 13.481499 2.3509886e-038
-37.660011 258.95673 13.529856 2.3509886e-038
-32.861992 259.46957 13.55665 2.3509886e-038
-27.942341 259.03317 13.53385 2.3509886e-038
-22.99687 258.12329 13.48631 2.3509886e-038
-18.095432 257.35355 13.446094 2.3509886e-038
-13.217307 256.47485 13.400184 2.3509886e-038
-8.3404474 254.62785 13.303682 2.3509886e-038
-3.5447309 253.62321 13.251193 2.3509886e-038
1.2256682 255.20352 13.333759 3.5733111e-043
4.2862325 258.80624 13.521994 3.5733111e-043
25.038605 246.44409 12.876101 2.3509528e-038
28.738777 244.63319 12.781486 2.3509528e-038
33.199772 243.65718 12.730493 2.3509528e-038
37.834774 244.04007 12.750497 2.3509528e-038
42.073357 246.07114 12.856615 2.3509528e-038
-63.432262 263.29172 8.8119736 2.3509886e-038
-62.886395 262.76569 8.7943678 2.3509886e-038
-57.077282 258.79993 8.6616411 2.3509886e-038
-52.010616 257.77579 8.6273642 2.3509886e-038
-47.212536 258.00912 8.6351738 2.3509886e-038
-42.454018 258.53677 8.652833 2.3509886e-038
-37.677574 259.07748 8.6709299 2.3509886e-038
-32.914566 259.88467 8.6979456 2.3509886e-038
-28.047659 260.00949 8.7021227 2.3509886e-038
-23.066219 258.90164 8.6650448 2.3509886e-038
-18.134022 257.90237 8.6316013 2.3509886e-038
-13.254236 257.19144 8.6078072 2.3509886e-038
-8.3830299 255.92789 8.5655184 2.3509886e-038
-3.556109 254.43733 8.5156307 2.3509886e-038
1.2214653 254.3284 8.5119858 2.3509886e-038
5.9154396 257.37994 8.6141167 2.3509886e-038
20.198252 248.83969 8.3282871 2.3509528e-038
24.332067 246.53065 8.2510071 2.3509528e-038
28.819958 245.32423 8.2106295 2.3509528e-038
33.408657 245.1902 8.2061443 2.3509528e-038
38.163071 246.15764 8.2385225 2.3509528e-038
38.704235 246.46387 8.2487717 2.3509528e-038
-62.878101 265.39093 3.8984444 2.3509886e-038
-57.551464 260.94998 3.8332093 2.3509886e-038
-52.347565 259.44577 3.8111131 2.3509886e-038
-47.467514 259.40256 3.8104784 2.3509886e-038
-42.651577 259.73987 3.8154335 2.3509886e-038
-37.823406 260.08026 3.8204336 2.3509886e-038
-33.001404 260.57031 3.8276322 2.3509886e-038
-28.093481 260.4343 3.8256342 2.3509886e-038
-23.106344 259.35202 3.8097363 2.3509886e-038
-18.196489 258.7908 3.801492 2.3509886e-038
-13.312216 258.31653 3.7945254 2.3509886e-038
-8.4141397 256.87766 3.7733891 2.3509886e-038
-3.5585186 254.60974 3.7400746 2.3509886e-038
1.214614 252.90186 3.7149868 2.3509886e-038
5.963551 252.88879 3.7147949 2.3509886e-038
10.71689 252.99081 3.7162936 2.3509886e-038
15.333602 250.79552 3.6840458 2.3509528e-038
19.878576 248.73447 3.6537702 2.3509528e-038
24.433052 247.55383 3.6364272 2.3509528e-038
29.035278 247.1571 3.6305997 2.3509528e-038
33.783325 247.93993 3.6420989 2.3509528e-038
35.567265 248.73465 3.6537728 2.3509528e-038
-62.478928 266.67346 -1.0905871 2.3509886e-038
-57.867435 262.38266 -1.0730394 2.3509886e-038
-52.51239 260.26266 -1.0643694 2.3509886e-038
-47.573196 259.98007 -1.0632138 2.3509886e-038
-42.733379 260.23801 -1.0642686 2.3509886e-038
-37.897518 260.58987 -1.0657076 2.3509886e-038
-33.049618 260.95102 -1.0671844 2.3509886e-038
-28.10535 260.54434 -1.0655214 2.3509886e-038
-23.132223 259.64252 -1.0618333 2.3509886e-038
-18.229897 259.2659 -1.0602931 2.3509886e-038
-13.331944 258.69931 -1.0579759 2.3509886e-038
-8.4294481 257.345 -1.0524373 2.3509886e-038
-3.5723124 255.59666 -1.0452874 2.3509886e-038
1.2209202 254.21492 -1.0396366 2.3509886e-038
5.9776573 253.48698 -1.0366597 2.3509886e-038
10.709023 252.80508 -1.0338709 2.3509528e-038
15.374219 251.45984 -1.0283694 2.3509528e-038
19.99177 250.15083 -1.0230162 2.3509528e-038
24.6196 249.44392 -1.0201252 2.3509528e-038
29.336489 249.72112 -1.0212587 2.3509528e-038
32.407578 251.07205 -1.0267835 2.3509528e-038
-62.482056 267.89081 -6.1263065 2.3509886e-038
-58.034904 263.142 -6.0177073 2.3509886e-038
-52.565216 260.52448 -5.9578485 2.3509886e-038
-47.605881 260.15869 -5.9494834 2.3509886e-038
-42.745911 260.31433 -5.953043 2.3509886e-038
-37.905041 260.6416 -5.9605269 2.3509886e-038
-33.069019 261.10419 -5.9711056 2.3509886e-038
-28.146963 260.93008 -5.9671245 2.3509886e-038
-23.185078 260.23575 -5.9512458 2.3509886e-038
-18.256504 259.64432 -5.9377208 2.3509886e-038
-13.351121 259.07144 -5.9246192 2.3509886e-038
-8.4598341 258.27267 -5.906353 2.3509886e-038
-3.5987191 257.48605 -5.8883634 2.3509886e-038
1.2338876 256.91492 -5.8753023 2.3509886e-038
6.0437708 256.29059 -5.8610249 2.3509886e-038
10.798774 254.92383 -5.8297687 2.3509528e-038
15.473793 253.08847 -5.787797 2.3509528e-038
20.129908 251.8793 -5.7601447 2.3509528e-038
24.83429 251.61913 -5.7541952 2.3509528e-038
29.281359 252.97127 -5.7851167 2.3509528e-038
-113.11863 246.98672 -10.286423 2.3418052e-038
-110.21963 247.18762 -10.294789 2.3418052e-038
-106.39429 249.09955 -10.374416 2.3418052e-038
-102.97665 252.18579 -10.502952 2.3418052e-038
-100.37875 256.31369 -10.674869 2.3418052e-038
-62.501534 267.87668 -11.156441 2.3509886e-038
-58.06966 263.29959 -10.965815 2.3509886e-038
-52.661304 261.00073 -10.870073 2.3509886e-038
-47.701134 260.67926 -10.856685 2.3509886e-038
-42.779285 260.51761 -10.849952 2.3509886e-038
-37.886894 260.51682 -10.849919 2.3509886e-038
-33.068005 261.09619 -10.874048 2.3509886e-038
-28.209414 261.50903 -10.891243 2.3509886e-038
-23.25185 260.98523 -10.869428 2.3509886e-038
-18.287655 260.08734 -10.832032 2.3509886e-038
-13.384878 259.7265 -10.817004 2.3509886e-038
-8.4969826 259.40677 -10.803688 2.3509886e-038
-3.6196246 258.98181 -10.785991 2.3509886e-038
1.2429231 258.79623 -10.778261 2.3509886e-038
6.0939074 258.41666 -10.762452 2.3509886e-038
10.880097 256.84363 -10.696939 2.3509528e-038
15.574556 254.73654 -10.609184 2.3509528e-038
20.276371 253.71198 -10.566513 2.3509528e-038
25.111794 254.4308 -10.596451 2.3509528e-038
26.601862 255.45609 -10.639152 2.3509528e-038
-112.605 246.40146 -14.889239 2.3418052e-038
-109.90388 246.47951 -14.893955 2.3418052e-038
-105.91194 247.97025 -14.984035 2.3418052e-038
-102.45117 250.8989 -15.161005 2.3418052e-038
-99.431786 255.24295 -15.423501 2.3418052e-038
-96.474884 260.19556 -15.722772 2.3418052e-038
-95.279907 261.83633 -15.821917 2.3418052e-038
-62.851742 267.20187 -16.146141 2.3509886e-038
-57.94146 262.71829 -15.875213 2.3509886e-038
-52.654835 260.96866 -15.769487 2.3509886e-038
-47.721165 260.7887 -15.758614 2.3509886e-038
-42.803528 260.66522 -15.751151 2.3509886e-038
-37.896824 260.58511 -15.74631 2.3509886e-038
-33.094006 261.30145 -15.789598 2.3509886e-038
-28.273226 262.10059 -15.837886 2.3509886e-038
-23.298717 261.51129 -15.802278 2.3509886e-038
-18.298849 260.24655 -15.725853 2.3509886e-038
-13.399255 260.00543 -15.711284 2.3509886e-038
-8.5183945 260.06046 -15.714608 2.3509886e-038
-3.6301723 259.73651 -15.695034 2.3509886e-038
1.2465448 259.55035 -15.683785 2.3509886e-038
6.112699 259.21353 -15.663432 2.3509886e-038
10.919031 257.7627 -15.575762 2.3509886e-038
15.658187 256.1044 -15.475557 2.3509528e-038
20.460999 256.02216 -15.470587 2.3509528e-038
24.636024 258.05475 -15.59341 2.3509528e-038
-110.41145 247.87994 -19.633533 2.3418052e-038
-106.05698 248.3098 -19.667582 2.3418052e-038
-102.19308 250.26685 -19.82259 2.3418052e-038
-98.811584 253.65088 -20.090624 2.3418052e-038
-95.416862 257.34204 -20.382988 2.3418052e-038
-91.728607 260.59311 -20.640491 2.3418052e-038
-89.720757 263.61813 -20.880091 2.3418052e-038
-64.622894 268.11099 -21.23595 2.3418052e-038
-63.980946 267.33917 -21.174818 2.3418052e-038
-57.833408 262.22836 -20.770014 2.3509886e-038
-52.57402 260.56812 -20.63851 2.3509886e-038
-47.622814 260.25122 -20.613411 2.3509886e-038
-42.771946 260.4729 -20.630968 2.3509886e-038
-37.94812 260.93781 -20.667793 2.3509886e-038
-33.176075 261.94949 -20.747923 2.3509886e-038
-28.351639 262.82748 -20.817467 2.3509886e-038
-23.369352 262.30414 -20.776012 2.3509886e-038
-18.35043 260.98013 -20.671144 2.3509886e-038
-13.427864 260.56061 -20.637917 2.3509886e-038
-8.5404768 260.73462 -20.651699 2.3509886e-038
-3.6409249 260.50586 -20.633579 2.3509886e-038
1.250352 260.34308 -20.620687 2.3509886e-038
6.1305323 259.96976 -20.59112 2.3509886e-038
10.952081 258.54291 -20.478102 2.3509886e-038
15.735652 257.37143 -20.385313 2.3509886e-038
20.646353 258.34143 -20.462145 2.3509886e-038
23.413597 260.48984 -20.632311 2.3509886e-038
-106.97956 250.29066 -24.524704 2.3418052e-038
-106.89973 250.28294 -24.523947 2.3418052e-038
-102.46988 250.9447 -24.588789 2.3418052e-038
-98.574478 253.04222 -24.794315 2.3418052e-038
-94.73513 255.50339 -25.035473 2.3418052e-038
-90.884727 258.19574 -25.29928 2.3418052e-038
-87.404526 262.30255 -25.701687 2.3418052e-038
-83.820938 266.14917 -26.078598 2.3418052e-038
-69.405182 272.83847 -26.734049 2.3418052e-038
-63.81818 266.65906 -26.128559 2.3418052e-038
-57.920399 262.6228 -25.733068 2.3509886e-038
-52.653809 260.96356 -25.570488 2.3509886e-038
-47.662315 260.46707 -25.521839 2.3509886e-038
-42.832767 260.84326 -25.558701 2.3509886e-038
-38.049519 261.63507 -25.636284 2.3509886e-038
-33.269653 262.68835 -25.739492 2.3509886e-038
-28.429077 263.54535 -25.823465 2.3509886e-038
-23.475616 263.49686 -25.81871 2.3509886e-038
-18.458797 262.52133 -25.723124 2.3509886e-038
-13.48577 261.68423 -25.641102 2.3509886e-038
-8.5617189 261.38315 -25.611599 2.3509886e-038
-3.6504929 261.19043 -25.592718 2.3509886e-038
1.2557663 261.4704 -25.620152 2.3509886e-038
6.1610236 261.26279 -25.599806 2.3509886e-038
11.007082 259.84128 -25.460522 2.3509886e-038
15.820257 258.75522 -25.354103 2.3509886e-038
20.760593 259.7709 -25.453625 2.3509886e-038
22.712467 261.29715 -25.603174 2.3509886e-038
-103.30263 253.84584 -29.64003 2.3509886e-038
-99.012505 254.16663 -29.677486 2.3418052e-038
-94.518593 254.91937 -29.765381 2.3418052e-038
-90.252487 256.3996 -29.938217 2.3418052e-038
-86.382927 259.23669 -30.269487 2.3418052e-038
-82.310204 261.76657 -30.564886 2.3418052e-038
-77.988503 263.7757 -30.79948 2.3418052e-038
-73.829224 266.64401 -31.134394 2.3418052e-038
-69.030289 267.45142 -31.228668 2.3418052e-038
-63.399509 264.9097 -30.931887 2.3418052e-038
-58.027515 263.10849 -30.721573 2.3509886e-038
-52.881699 262.09305 -30.603004 2.3509886e-038
-47.886898 261.6944 -30.556459 2.3509886e-038
-42.968143 261.66769 -30.553341 2.3509886e-038
-38.103889 262.00891 -30.593182 2.3509886e-038
-33.302498 262.94769 -30.702795 2.3509886e-038
-28.48852 264.09641 -30.836927 2.3509886e-038
-23.56949 264.55051 -30.889948 2.3509886e-038
-18.564108 264.01907 -30.827896 2.3509886e-038
-13.560163 263.12781 -30.723827 2.3509886e-038
-8.5904427 262.26004 -30.622505 2.3509886e-038
-3.6600876 261.87692 -30.57777 2.3509886e-038
1.2597131 262.29221 -30.626259 2.3509886e-038
6.1829433 262.19232 -30.614595 2.3509886e-038
11.05929 261.07376 -30.483992 2.3509886e-038
15.903373 260.11465 -30.372 2.3509886e-038
20.850216 260.8923 -30.462801 2.3509886e-038
22.444977 262.08014 -30.601498 2.3509886e-038
-98.985802 257.32608 -34.878742 2.3418052e-038
-95.157326 256.64203 -34.786026 2.3418052e-038
-90.377327 256.75424 -34.801235 2.3418052e-038
-86.124519 258.46121 -35.0326 2.3418052e-038
-81.869362 260.36459 -35.290592 2.3418052e-038
-77.425888 261.8728 -35.495018 2.3418052e-038
-72.88147 263.22107 -35.677765 2.3418052e-038
-68.102707 263.85757 -35.764038 2.3418052e-038
-63.076584 263.56036 -35.723755 2.3418052e-038
-58.063988 263.27386 -35.684921 2.3509886e-038
-53.046486 262.90976 -35.635571 2.3509886e-038
-48.081738 262.75919 -35.615162 2.3509886e-038
-43.077133 262.33142 -35.557182 2.3509886e-038
-38.121479 262.12988 -35.529861 2.3509886e-038
-33.328312 263.15152 -35.668339 2.3509886e-038
-28.553549 264.69925 -35.87812 2.3509886e-038
-23.648464 265.43695 -35.978111 2.3509886e-038
-18.642517 265.13419 -35.937073 2.3509886e-038
-13.626197 264.40912 -35.838799 2.3509886e-038
-8.6339264 263.58755 -35.72744 2.3509886e-038
-3.6802382 263.3187 -35.690998 2.3509886e-038
1.2645905 263.30774 -35.689514 2.3509886e-038
6.1915016 262.55521 -35.587517 2.3509886e-038
11.072974 261.39682 -35.430504 2.3509886e-038
15.946435 260.81897 -35.352177 2.3509886e-038
20.949575 262.13556 -35.530636 2.3509886e-038
22.306179 263.25211 -35.681973 2.3509886e-038
-94.395088 260.9686 -40.273209 2.3509886e-038
-91.605347 260.24295 -40.161221 2.3418052e-038
-86.712509 260.2258 -40.158577 2.3418052e-038
-81.911133 260.49741 -40.200493 2.3418052e-038
-77.179329 261.03888 -40.284054 2.3418052e-038
-72.48925 261.8045 -40.402203 2.3418052e-038
-67.724968 262.39404 -40.493183 2.3418052e-038
-62.876156 262.7229 -40.543938 2.3418052e-038
-58.022274 263.08475 -40.599773 2.3509886e-038
-53.102222 263.186 -40.615402 2.3509886e-038
-48.159275 263.18292 -40.614925 2.3509886e-038
-43.125671 262.62701 -40.529137 2.3509886e-038
-38.146477 262.30176 -40.478943 2.3509886e-038
-33.365101 263.44199 -40.654903 2.3509886e-038
-28.611654 265.23788 -40.932056 2.3509886e-038
-23.734657 266.40439 -41.112068 2.3509886e-038
-18.728144 266.35199 -41.103985 2.3509886e-038
-13.68971 265.64157 -40.99435 2.3509886e-038
-8.6822243 265.06207 -40.904919 2.3509886e-038
-3.7020452 264.87897 -40.876659 2.3509886e-038
1.2693914 264.30737 -40.788452 2.3509886e-038
6.1983929 262.84744 -40.563156 2.3509886e-038
11.074742 261.43854 -40.345734 2.3509886e-038
15.973028 261.25394 -40.317238 2.3509886e-038
21.057625 263.48755 -40.661938 2.3509886e-038
21.898094 264.2558 -40.780491 2.3509886e-038
-90.926796 266.78076 -46.180031 2.3509886e-038
-88.442551 265.41766 -45.944077 2.3509886e-038
-82.438713 262.17526 -45.382813 2.3509886e-038
-77.067482 260.66058 -45.120625 2.3418052e-038
-72.172394 260.66016 -45.120544 2.3418052e-038
-67.346695 260.92847 -45.166988 2.3509886e-038
-62.559814 261.40109 -45.248802 2.3509886e-038
-57.782146 261.99594 -45.351772 2.3509886e-038
-52.942238 262.3931 -45.420521 2.3509886e-038
-48.057915 262.62897 -45.461353 2.3509886e-038
-43.093132 262.42889 -45.426716 2.3509886e-038
-38.177048 262.51196 -45.441097 2.3509886e-038
-33.408627 263.78568 -45.661575 2.3509886e-038
-28.68247 265.89438 -46.0266 2.3509886e-038
-23.851463 267.71545 -46.341824 2.3509886e-038
-18.84741 268.04819 -46.399426 2.3509886e-038
-13.769349 267.18695 -46.25034 2.3509886e-038
-8.7286081 266.47815 -46.127647 2.3509886e-038
-3.7179151 266.01447 -46.047382 2.3509886e-038
1.2729738 265.05328 -45.881001 2.3509886e-038
6.2164888 263.61484 -45.632004 2.3509886e-038
11.114862 262.38568 -45.419235 2.3509886e-038
16.065994 262.77448 -45.486534 2.3509886e-038
21.276653 266.22818 -46.084377 2.3509886e-038
21.346186 266.30365 -46.097443 2.3509886e-038
-86.957069 269.58859 -51.728691 2.3509886e-038
-83.643105 266.00552 -51.041172 2.3509886e-038
-77.269661 261.34439 -50.146797 2.3509886e-038
-72.006119 260.05963 -49.900272 2.3509886e-038
-67.036278 259.72577 -49.836216 2.3509886e-038
-62.192154 259.86484 -49.862896 2.3509886e-038
-57.39473 260.23929 -49.93475 2.3509886e-038
-52.609352 260.74323 -50.031441 2.3509886e-038
-47.803326 261.2377 -50.126324 2.3509886e-038
-42.960316 261.62006 -50.199688 2.3509886e-038
-38.163094 262.41602 -50.352413 2.3509886e-038
-33.430569 263.95889 -50.648464 2.3509886e-038
-28.735283 266.38397 -51.113789 2.3509886e-038
-23.933477 268.63602 -51.54591 2.3509886e-038
-18.949488 269.49997 -51.711685 2.3509886e-038
-13.849389 268.74005 -51.565876 2.3509886e-038
-8.7643757 267.5701 -51.341385 2.3509886e-038
-3.7272658 266.6835 -51.171261 2.3509886e-038
1.2754004 265.55853 -50.955402 2.3509886e-038
6.237927 264.52393 -50.756882 2.3509886e-038
11.186513 264.07709 -50.671146 2.3509886e-038
16.241447 265.6442 -50.97184 2.3509886e-038
20.928101 270.35297 -51.875359 2.3509886e-038
-81.868347 267.96808 -56.449944 2.3509886e-038
-78.260323 264.69507 -55.760452 2.3509886e-038
-72.264198 260.99173 -54.980305 2.3509886e-038
-66.967323 259.45862 -54.657345 2.3509886e-038
-62.00602 259.0871 -54.579075 2.3509886e-038
-57.125008 259.01633 -54.564171 2.3509886e-038
-52.316914 259.29385 -54.622635 2.3509886e-038
-47.549965 259.85312 -54.740448 2.3509886e-038
-42.808975 260.69839 -54.918518 2.3509886e-038
-38.117687 262.10379 -55.214573 2.3509886e-038
-33.429703 263.95209 -55.603931 2.3509886e-038
-28.746927 266.49191 -56.138973 2.3509886e-038
-23.968153 269.02521 -56.672634 2.3509886e-038
-19.020708 270.51285 -56.986019 2.3509886e-038
-13.91786 270.0687 -56.892456 2.3509886e-038
-8.7964449 268.54913 -56.572346 2.3509886e-038
-3.73627 267.32773 -56.315041 2.3509886e-038
1.2778026 266.05872 -56.04771 2.3509886e-038
6.2557163 265.27829 -55.883308 2.3509886e-038
11.260283 265.81854 -55.99712 2.3509886e-038
16.484785 269.62421 -56.798817 2.3509886e-038
21.000332 277.561 -58.470779 2.3509886e-038
-77.332314 268.62381 -61.63258 2.3509886e-038
-73.371643 264.99136 -60.799164 2.3509886e-038
-67.438667 261.28479 -59.948734 2.3509886e-038
-62.16362 259.74564 -59.595589 2.3509886e-038
-57.169701 259.21899 -59.474758 2.3509886e-038
-52.275883 259.09048 -59.445274 2.3509886e-038
-47.458675 259.35425 -59.505787 2.3509886e-038
-42.770714 260.46539 -59.760727 2.3509886e-038
-38.149662 262.32364 -60.187088 2.3509886e-038
-33.486065 264.39709 -60.662811 2.3509886e-038
-28.794422 266.93222 -61.244469 2.3509886e-038
-24.012941 269.52795 -61.840027 2.3509886e-038
-19.081697 271.38022 -62.265007 2.3509886e-038
-13.976172 271.20023 -62.223713 2.3509886e-038
-8.8318901 269.63126 -61.863731 2.3509886e-038
-3.7496784 268.28708 -61.555325 2.3509886e-038
1.282661 267.07031 -61.276154 2.3509886e-038
6.2932677 266.8707 -61.230354 2.3509886e-038
11.384809 268.75821 -61.663418 2.3509886e-038
16.872385 275.96375 -63.31665 2.3509886e-038
21.372019 287.76831 -66.025063 2.3509886e-038
-72.172768 269.37042 -66.862396 2.3509886e-038
-68.814209 266.61423 -66.178253 2.3509886e-038
-62.847881 262.60474 -65.183037 2.3509886e-038
-57.49992 260.71625 -64.714272 2.3509886e-038
-52.483353 260.11874 -64.565964 2.3509886e-038
-47.601482 260.13467 -64.569923 2.3509886e-038
-42.890663 261.19586 -64.833328 2.3509886e-038
-38.261642 263.09366 -65.30439 2.3509886e-038
-33.580383 265.14182 -65.812775 2.3509886e-038
-28.870693 267.63925 -66.432686 2.3509886e-038
-24.072699 270.19867 -67.06797 2.3509886e-038
-19.139778 272.20624 -67.566292 2.3509886e-038
-14.030034 272.24539 -67.576004 2.3509886e-038
-8.871089 270.82797 -67.224182 2.3509886e-038
-3.7684226 269.62823 -66.926384 2.3509886e-038
1.2910879 268.82489 -66.726982 2.3509886e-038
6.3570046 269.57352 -66.912804 2.3509886e-038
11.59705 273.76852 -67.954071 2.3509886e-038
17.488533 286.04144 -71.000427 2.3509886e-038
21.386272 298.51614 -74.096863 2.3509886e-038
-66.72892 271.55853 -72.505142 2.3509886e-038
-64.451096 269.30365 -71.903091 2.3509886e-038
-58.370754 264.66479 -70.664543 2.3509886e-038
-52.991234 262.63593 -70.122833 2.3509886e-038
-47.961594 262.1026 -69.980446 2.3509886e-038
-43.134628 262.68158 -70.135017 2.3509886e-038
-38.411358 264.12311 -70.519913 2.3509886e-038
-33.686337 265.97836 -71.015251 2.3509886e-038
-28.967722 268.53876 -71.698868 2.3509886e-038
-24.166216 271.24832 -72.42231 2.3509886e-038
-19.221804 273.37283 -72.989548 2.3509886e-038
-14.10738 273.74625 -73.089249 2.3509886e-038
-8.9330645 272.72003 -72.815254 2.3509886e-038
-3.8006973 271.93747 -72.606308 2.3509886e-038
1.305854 271.89948 -72.596161 2.3509886e-038
6.4558468 273.76495 -73.094246 2.3509886e-038
11.925401 281.51984 -75.164764 2.3509886e-038
18.38579 300.71692 -80.290314 2.3509886e-038
20.547535 308.58188 -82.390244 2.3509886e-038
-60.272305 272.88516 -77.983879 2.3509886e-038
-60.158241 272.76962 -77.950859 2.3509886e-038
-54.049603 267.88141 -76.553925 2.3509886e-038
-48.667496 265.96024 -76.004898 2.3509886e-038
-43.618584 265.62875 -75.910172 2.3509886e-038
-38.734314 266.34381 -76.11451 2.3509886e-038
-33.914116 267.77686 -76.52404 2.3509886e-038
-29.153336 270.25943 -77.233505 2.3509886e-038
-24.358139 273.40253 -78.131721 2.3509886e-038
-19.403418 275.95578 -78.861382 2.3509886e-038
-14.270397 276.90952 -79.133926 2.3509886e-038
-9.0552549 276.45044 -79.002739 2.3509886e-038
-3.8585167 276.0744 -78.895279 2.3509886e-038
1.3283659 276.58679 -79.04171 2.3509886e-038
6.6004844 279.89844 -79.988091 2.3509886e-038
12.363125 291.85303 -83.404427 2.3509886e-038
18.187389 311.7554 -89.092033 2.3509886e-038
-50.795742 273.92914 -83.426331 2.3509886e-038
-50.080368 273.68137 -83.350876 2.3509886e-038
-44.672974 272.04977 -82.853966 2.3509886e-038
-39.476791 271.44925 -82.671066 2.3509886e-038
-34.521679 272.57404 -83.013634 2.3509886e-038
-29.62888 274.66785 -83.651314 2.3509886e-038
-24.77232 278.05139 -84.681786 2.3509886e-038
-19.793268 281.50018 -85.732132 2.3509886e-038
-14.616652 283.62842 -86.380287 2.3509886e-038
-9.3078318 284.16141 -86.542618 2.3509886e-038
-3.9760075 284.48077 -86.639877 2.3509886e-038
1.3745756 286.2084 -87.166031 2.3509886e-038
6.8827996 291.87024 -88.890373 2.3509886e-038
12.992172 306.70282 -93.407707 2.3509886e-038
13.482022 308.21927 -93.869537 2.3509886e-038
-35.270485 282.59976 -91.37397 2.3509886e-038
-30.597496 283.64722 -91.712646 2.3509886e-038
-25.485065 286.05145 -92.490021 2.3509886e-038
-20.386189 289.93274 -93.744965 2.3509886e-038
-15.124229 293.47769 -94.891167 2.3509886e-038
-9.6888809 295.79459 -95.640297 2.3509886e-038
-4.1631026 297.86734 -96.310486 2.3509886e-038
1.4550858 302.97186 -97.960953 2.3509886e-038
2.1448879 303.83426 -98.239792 2.3509886e-038
-110.71406 248.29646 -7.298233 2.3418052e-038
-110.49503 247.80525 -19.471384 2.3418052e-038
-106.85747 250.18401 -6.9707713 2.3418052e-038
-106.92017 250.33081 -24.600454 2.3418052e-038
-103.21514 252.76982 -8.4011211 2.3418052e-038
-103.54733 253.58334 -29.294565 2.3509886e-038
-100.07085 256.88345 -11.002574 2.3418052e-038
-99.990303 256.67667 -33.767815 2.3418052e-038
-96.829475 261.15189 -14.442168 2.3418052e-038
-96.262993 259.62405 -38.10738 2.3418052e-038
-92.248558 262.07028 -18.296679 2.3418052e-038
-92.678947 263.29297 -42.853344 2.3509886e-038
-88.377457 265.22232 -22.501005 2.3418052e-038
-89.598076 268.88544 -48.568352 2.3509886e-038
-83.679276 266.12054 -26.150305 2.3418052e-038
-84.505951 268.7496 -53.95948 2.3509886e-038
-74.633934 252.42975 71.42823 9.1476764e-041
-75.143791 254.15421 62.703968 9.1476764e-041
-78.645813 265.99887 -28.54261 2.3418052e-038
-79.365608 268.43341 -59.418926 2.3509886e-038
-69.395531 250.63112 73.550926 9.1476764e-041
-70.38298 254.19745 42.89748 2.3509886e-038
-74.589661 269.39044 -29.420284 2.3418052e-038
-74.430931 268.81714 -64.553841 2.3509886e-038
-64.610931 250.32899 68.84417 9.1476764e-041
-67.546799 261.70377 23.602543 2.3509886e-038
-70.511665 273.19086 -27.619577 2.3418052e-038
-69.840271 270.58963 -69.456398 2.3509886e-038
-60.573021 253.09944 59.052097 9.1476764e-041
-63.225433 264.18234 7.036654 2.3509886e-038
-64.034943 267.56476 -20.161007 2.3418052e-038
-65.094345 271.99139 -74.017746 2.3509886e-038
-56.176174 254.71413 47.581188 9.1476764e-041
-60.183487 272.88409 -78.041679 2.3509886e-038
-51.544193 255.46408 34.900551 9.1476764e-041
-55.037117 272.77576 -81.118126 2.3509886e-038
-47.712719 260.74255 24.67565 9.1476764e-041
-50.179016 274.22046 -83.776588 2.3509886e-038
-42.99894 261.85526 19.22324 9.1476764e-041
-45.280758 275.7511 -85.945976 2.3509886e-038
-38.101643 261.99347 18.642941 9.1476764e-041
-40.326958 277.2951 -87.964546 2.3509886e-038
-32.29467 254.99016 83.434868 2.3418409e-038
-35.730392 282.11771 -91.069496 2.3509886e-038
-27.281731 252.90915 87.458977 2.3418409e-038
-30.879847 286.26465 -93.730957 2.3509886e-038
-22.595375 253.61678 84.022247 2.3418409e-038
-25.79505 289.53082 -95.475555 2.3509886e-038
-18.376122 261.34552 50.901421 2.3418409e-038
-20.66028 293.83084 -97.110619 2.3509886e-038
-13.331236 258.68558 20.958921 2.3509886e-038
-15.352303 297.90329 -98.475037 2.3509886e-038
-8.2989578 253.36122 36.398567 2.3509886e-038
-9.8429432 300.49799 -99.186966 2.3509886e-038
-3.4909656 249.77635 57.549076 3.5733111e-043
-4.2151771 301.5932 -98.984917 2.3509886e-038
1.1875821 247.27339 74.654083 3.5733111e-043
1.4583265 303.64667 -98.393723 2.3509886e-038
5.7975798 245.85068 75.397667 3.5733111e-043
5.9228635 251.16342 27.575397 3.5733111e-043
6.0644875 257.1691 8.3258276 2.3509886e-038
7.1931825 305.03226 -96.777184 2.3509886e-038
10.76138 254.04108 5.1239753 2.3509886e-038
13.041121 307.85834 -94.132675 2.3509886e-038
15.353467 251.12042 5.4812579 2.3509528e-038
19.061411 311.76733 -87.380402 2.3509886e-038
19.898314 248.98145 8.1073647 2.3509528e-038
21.301729 266.54196 -46.54401 2.3509886e-038
24.352251 246.73515 12.208077 2.3509528e-038
25.34124 256.75552 -13.476182 2.3509528e-038
28.81991 245.32382 16.602997 2.3509528e-038
29.68712 252.70578 -5.1497631 2.3509528e-038
33.161751 243.37814 21.450499 2.3509528e-038
34.044094 249.85374 1.4125158 2.3509528e-038
37.427666 241.41415 26.926014 2.3509528e-038
38.241692 246.66475 7.5936594 2.3509528e-038
41.61301 239.41092 31.761677 2.3509528e-038
42.772701 246.08296 13.806615 2.3509528e-038
46.04385 239.07314 34.791508 2.3509528e-038
47.208935 245.12259 20.34704 2.3509528e-038
50.816509 240.41241 33.078079 2.3509528e-038
50.889172 240.75616 29.853559 2.3509528e-038
