# .PCD v0.7 - Point Cloud Data file format
VERSION 0.7
FIELDS x y z rgb
SIZE 4 4 4 4
TYPE F F F F
COUNT 1 1 1 1
WIDTH 784
HEIGHT 1
VIEWPOINT 0 0 0 1 0 0 0
POINTS 784
DATA ascii
-106.89173 249.4066 -10.57171 2.3418052e-038
-71.178444 251.88512 68.80584 9.1476764e-041
4.646018 246.61879 70.851776 3.5733111e-043
44.012577 239.61688 30.470243 2.3509528e-038
-27.453184 253.43707 83.553169 2.3418409e-038
-32.301567 254.47639 85.893997 2.3418409e-038
-32.171337 254.40147 85.868706 2.3418409e-038
-27.240929 253.07346 85.420456 2.3418409e-038
-23.341232 253.62402 85.606293 2.3418409e-038
-33.170052 255.72908 81.504372 2.3418409e-038
-32.256886 255.07796 81.296852 2.3418409e-038
-27.275534 253.39496 80.76046 2.3418409e-038
-22.60388 254.48552 81.108032 2.3418409e-038
-21.828402 255.05469 81.289436 2.3418409e-038
-33.382706 256.84204 77.025703 2.3418409e-038
-32.372494 255.99214 76.770821 2.3418409e-038
-27.324514 253.84998 76.128403 2.3418409e-038
-22.641272 254.90648 76.445236 2.3418409e-038
-20.906124 256.23233 76.84285 2.3418409e-038
0.21828027 247.68683 74.280098 3.5733111e-043
1.3033073 247.27107 74.155411 3.5733111e-043
5.9364357 246.43463 73.904564 3.5733111e-043
8.5159416 247.11566 74.10881 3.5733111e-043
-75.95433 254.64442 71.574608 9.1476764e-041
-75.179161 254.13326 71.430931 9.1476764e-041
-69.629326 251.36285 70.652237 9.1476764e-041
-65.114937 250.46986 70.401237 9.1476764e-041
-33.529156 257.90891 72.492172 2.3418409e-038
-32.494274 256.95514 72.224098 2.3418409e-038
-27.392574 254.48227 71.52903 2.3418409e-038
-22.664661 255.16982 71.722275 2.3418409e-038
-20.387037 256.55957 72.112907 2.3418409e-038
-1.5334524 249.15738 70.032326 3.5733111e-043
1.3045487 247.50662 69.568336 3.5733111e-043
5.9414272 246.64185 69.325272 3.5733111e-043
9.5226774 247.74687 69.635864 3.5733111e-043
-76.62989 255.71098 67.062286 9.1476764e-041
-75.372269 254.78604 66.81971 9.1476764e-041
-69.706589 251.64178 65.995102 9.1476764e-041
-64.727097 250.69687 65.747299 9.1476764e-041
-62.742725 251.31833 65.910278 9.1476764e-041
-33.684265 258.62411 67.826279 2.3418409e-038
-32.562725 257.49646 67.53054 2.3418409e-038
-27.429235 254.82288 66.829376 2.3418409e-038
-22.673607 255.27054 66.946777 2.3418409e-038
-20.119759 256.37128 67.235458 2.3418409e-038
-2.480751 250.3576 65.658318 3.5733111e-043
1.3071821 248.00623 65.041656 3.5733111e-043
5.9579287 247.32684 64.863472 3.5733111e-043
9.3117933 247.92197 65.019554 3.5733111e-043
-76.088936 256.31937 62.398289 9.1476764e-041
-75.74453 256.0444 62.331356 9.1476764e-041
-69.9086 252.37102 61.437103 9.1476764e-041
-64.899658 251.36525 61.192261 9.1476764e-041
-61.161922 253.23695 61.647907 9.1476764e-041
-33.998535 259.30664 63.125507 2.3418409e-038
-32.60862 257.85938 62.77319 2.3418409e-038
-27.465149 255.15652 62.115204 2.3418409e-038
-22.69976 255.56499 62.214642 2.3418409e-038
-19.856956 256.51883 62.446846 2.3418409e-038
-3.4324188 250.98306 61.09922 3.5733111e-043
-3.3998477 250.95267 61.09182 3.5733111e-043
1.3091834 248.38593 60.466972 3.5733111e-043
5.9864783 248.51199 60.497665 3.5733111e-043
8.9203243 249.55141 60.750698 3.5733111e-043
-75.116241 256.94815 57.715973 9.1476764e-041
-70.150238 253.24336 56.883797 9.1476764e-041
-65.038757 251.90395 56.582939 9.1476764e-041
-60.580238 253.08186 56.847523 9.1476764e-041
-59.450069 254.15411 57.088375 9.1476764e-041
-34.75309 261.40842 58.717842 2.3418409e-038
-32.753864 259.0079 58.178638 2.3418409e-038
-27.545906 255.90675 57.482056 2.3418409e-038
-22.774826 256.41013 57.595119 2.3418409e-038
-19.438591 257.82169 57.912186 2.3418409e-038
-4.3945022 251.09132 56.400406 3.5733111e-043
-3.3885229 250.11673 56.181496 3.5733111e-043
1.3079091 248.14418 55.738415 3.5733111e-043
6.0076609 249.39133 56.018555 3.5733111e-043
8.7244902 251.55058 56.503563 3.5733111e-043
-73.489258 255.925 52.670021 9.1476764e-041
-70.212006 253.46634 52.164021 9.1476764e-041
-64.987007 251.70354 51.801231 9.1476764e-041
-60.387783 252.27785 51.919426 9.1476764e-041
-57.557453 253.97079 52.267841 9.1476764e-041
-35.593147 263.05969 54.138363 2.3509886e-038
-32.853001 259.79184 53.465828 2.3418409e-038
-27.640043 256.78131 52.846249 2.3418409e-038
-22.865726 257.4335 52.980476 2.3418409e-038
-18.810696 259.82614 53.472889 2.3418409e-038
-5.4560509 250.92722 51.64146 3.5733111e-043
-3.3751419 249.12906 51.271397 3.5733111e-043
1.30612 247.80476 50.998856 3.5733111e-043
6.0277438 250.22504 51.496952 3.5733111e-043
8.5814619 253.80853 52.234444 3.5733111e-043
-71.668533 254.51955 47.591095 9.1476764e-041
-70.237488 253.55833 47.411362 9.1476764e-041
-64.991364 251.7204 47.067696 9.1476764e-041
-60.394917 252.30765 47.177502 9.1476764e-041
-56.12714 254.48528 47.584682 9.1476764e-041
-55.955914 254.661 47.617538 9.1476764e-041
-35.78672 263.37543 49.247002 2.3509886e-038
-32.916851 260.29675 48.671337 2.3418409e-038
-27.739698 257.70712 48.187119 2.3418409e-038
-22.944651 258.32208 48.302105 2.3418409e-038
-18.257496 260.8089 48.767097 2.3418409e-038
-18.241592 260.81976 48.769131 2.3418409e-038
-6.7548513 251.86885 47.095451 2.3418409e-038
-3.373081 248.97691 46.554707 3.5733111e-043
1.306716 247.91782 46.356674 3.5733111e-043
6.048697 251.09485 46.950729 3.5733111e-043
8.3796177 255.35533 47.747372 3.5733111e-043
-70.166107 254.03827 42.720463 9.1476764e-041
-65.245094 252.70313 42.495941 9.1476764e-041
-60.628414 253.28311 42.593472 9.1476764e-041
-56.103336 254.37737 42.777485 9.1476764e-041
-54.382851 255.06804 42.893635 9.1476764e-041
-35.140522 261.81689 44.028557 2.3509886e-038
-32.867699 259.90811 43.707569 2.3418409e-038
-27.781382 258.09436 43.402561 2.3418409e-038
-22.994017 258.87787 43.534317 2.3418409e-038
-18.273787 261.04163 43.898186 2.3418409e-038
-18.021435 261.17157 43.92004 2.3418409e-038
-7.9997621 253.11789 42.565685 2.3418409e-038
-3.3767962 249.25116 41.915436 3.5733111e-043
1.3096249 248.4697 41.784023 3.5733111e-043
6.0612569 251.61624 42.313164 3.5733111e-043
8.109724 255.33667 42.938808 3.5733111e-043
-69.072723 254.8506 38.061153 9.1476764e-041
-65.610649 254.11897 37.951889 9.1476764e-041
-60.847965 254.2003 37.964035 9.1476764e-041
-56.155685 254.61472 38.025928 9.1476764e-041
-52.809853 255.43594 38.148575 9.1476764e-041
-34.560261 261.63419 39.074261 2.3509886e-038
-32.898705 260.15329 38.853096 2.3418409e-038
-27.780983 258.09067 38.545052 2.3418409e-038
-22.972267 258.633 38.626045 2.3418409e-038
-18.242439 260.59384 38.918892 2.3418409e-038
-18.121485 260.65372 38.92783 2.3418409e-038
-8.9315786 254.14285 37.955456 2.3418409e-038
-8.1979084 253.28535 37.827393 2.3418409e-038
-3.3811784 249.57463 37.273205 3.5733111e-043
1.3126876 249.05078 37.194969 3.5733111e-043
6.0622306 251.65665 37.584148 3.5733111e-043
7.5745025 253.91394 37.921268 3.5733111e-043
44.038754 240.80284 35.963165 2.3509528e-038
46.411446 239.90685 35.82935 2.3509528e-038
49.695629 240.09685 35.857731 2.3509528e-038
-68.096176 256.39825 33.467255 9.1476764e-041
-66.029884 255.74272 33.381691 9.1476764e-041
-60.975323 254.73238 33.249809 9.1476764e-041
-56.153141 254.60318 33.232944 9.1476764e-041
-51.57851 255.67702 33.373116 9.1476764e-041
-51.153301 256.02295 33.418266 9.1476764e-041
-34.295494 262.49109 34.262543 2.3509886e-038
-33.025455 261.15558 34.088219 2.3509886e-038
-27.818005 258.4346 33.733055 2.3418409e-038
-22.953421 258.42084 33.731258 2.3418409e-038
-18.540377 259.9259 33.927711 2.3418409e-038
-9.5295725 255.21547 33.31287 2.3418409e-038
-8.2098675 253.65483 33.109161 3.5733111e-043
-3.3852763 249.87709 32.616058 3.5733111e-043
1.3136033 249.2245 32.530876 3.5733111e-043
6.0515695 251.21408 32.790577 3.5733111e-043
6.7000308 251.95009 32.886642 3.5733111e-043
39.222466 241.98111 31.585407 2.3509528e-038
41.926491 240.07713 31.336885 2.3509528e-038
46.234051 238.98987 31.194967 2.3509528e-038
50.26823 239.91975 31.316343 2.3509528e-038
-67.143051 258.18552 28.841871 9.1476764e-041
-66.584198 257.88968 28.808825 9.1476764e-041
-61.197746 255.66158 28.559923 9.1476764e-041
-56.213184 254.87543 28.472101 9.1476764e-041
-51.555485 255.56287 28.548897 9.1476764e-041
-49.346096 257.54901 28.770769 9.1476764e-041
-34.405945 263.16373 29.397987 2.3509886e-038
-33.096092 261.71417 29.236057 2.3509886e-038
-27.849932 258.7312 28.902832 2.3509886e-038
-22.931717 258.17648 28.840862 2.3509886e-038
-18.921843 258.98169 28.930811 2.3418409e-038
-10.21571 256.16708 28.616392 2.3509886e-038
-8.2196121 253.9559 28.369383 3.5733111e-043
-3.3917992 250.35858 27.967525 3.5733111e-043
1.3162065 249.71838 27.896009 3.5733111e-043
5.6754169 251.7213 28.119755 3.5733111e-043
35.690544 244.74748 27.340712 2.3509528e-038
37.799843 242.58806 27.099483 2.3509528e-038
42.042389 240.74078 26.893122 2.3509528e-038
46.550339 240.62479 26.880165 2.3509528e-038
48.932194 241.25778 26.950876 2.3509528e-038
-66.340363 260.30066 24.17968 9.1476764e-041
-61.590561 257.30261 23.901186 9.1476764e-041
-56.419136 255.80922 23.762465 9.1476764e-041
-51.721973 256.38815 23.816242 9.1476764e-041
-47.703346 260.79581 24.225674 9.1476764e-041
-47.279041 261.75888 24.315138 9.1476764e-041
-35.224136 264.13998 24.53632 2.3509886e-038
-33.103058 261.76923 24.316099 2.3509886e-038
-27.862158 258.84479 24.044443 2.3509886e-038
-22.929031 258.14624 23.979551 2.3509886e-038
-18.200264 258.96436 24.05555 2.3509886e-038
-11.89273 257.73587 23.941433 2.3509886e-038
-8.2261152 254.15686 23.608973 3.5733111e-043
-3.4035087 251.22289 23.336433 3.5733111e-043
1.3237263 251.1451 23.329208 3.5733111e-043
4.7260771 253.09485 23.510323 3.5733111e-043
32.061104 246.22591 22.872257 2.3509528e-038
33.539833 244.81534 22.741226 2.3509528e-038
37.79184 242.5367 22.529562 2.3509528e-038
42.372494 242.63101 22.538322 2.3509528e-038
47.065296 244.53955 22.715609 2.3509528e-038
-65.465393 261.90237 19.399847 9.1476764e-041
-61.974037 258.90463 19.177797 9.1476764e-041
-56.610771 256.6781 19.012873 9.1476764e-041
-51.839119 256.96884 19.034409 9.1476764e-041
-47.425205 259.27521 19.205246 9.1476764e-041
-43.306343 263.90854 19.54845 2.3509886e-038
-42.513817 264.62183 19.601286 2.3509886e-038
-38.600899 265.09058 19.636007 2.3509886e-038
-38.504536 265.04138 19.632364 2.3509886e-038
-33.023266 261.13828 19.343248 2.3509886e-038
-27.882666 259.03531 19.187477 2.3509886e-038
-22.967987 258.58481 19.154106 2.3509886e-038
-18.135021 259.05933 19.189257 2.3509886e-038
-13.2242 258.36176 19.137585 2.3509886e-038
-8.2347393 254.42329 18.84585 2.3509886e-038
-3.4172881 252.23997 18.684126 3.5733111e-043
1.3331622 252.93535 18.735636 3.5733111e-043
4.1727805 255.49138 18.924969 3.5733111e-043
28.168476 247.12619 18.305336 2.3509528e-038
29.108484 246.30217 18.244297 2.3509528e-038
33.407883 243.85222 18.062822 2.3509528e-038
37.8829 243.12112 18.008669 2.3509528e-038
42.746635 244.77342 18.131058 2.3509528e-038
44.612152 246.46994 18.256723 2.3509528e-038
-64.383667 262.54355 14.50666 2.3509886e-038
-62.375164 260.58038 14.398186 2.3509886e-038
-56.788673 257.48474 14.227138 9.1476764e-041
-51.854958 257.04736 14.202971 9.1476764e-041
-47.117966 257.59552 14.233258 2.3509886e-038
-42.525887 259.15244 14.319285 2.3509886e-038
-37.81271 260.27927 14.381548 2.3509886e-038
-32.897358 260.14264 14.373998 2.3509886e-038
-27.943506 259.60056 14.344046 2.3509886e-038
-22.99617 258.9021 14.305452 2.3509886e-038
-18.079197 258.2619 14.270079 2.3509886e-038
-13.168757 257.27856 14.215746 2.3509886e-038
-8.2558756 255.07632 14.094062 2.3509886e-038
-3.4360905 253.62784 14.014027 2.3509886e-038
1.3402593 254.28185 14.050164 3.5733111e-043
4.3879051 257.49277 14.227582 3.5733111e-043
23.908947 248.43835 13.727287 2.3509528e-038
24.625128 247.82877 13.693604 2.3509528e-038
28.971189 245.14044 13.545062 2.3509528e-038
33.425194 243.97856 13.480864 2.3509528e-038
37.987312 243.79117 13.47051 2.3509528e-038
41.386288 245.59312 13.570076 2.3509528e-038
-63.382915 263.32578 9.5944767 2.3509886e-038
-62.922546 262.86716 9.5777674 2.3509886e-038
-57.10973 258.94043 9.4346933 2.3509886e-038
-52.040894 257.96906 9.3993006 2.3509886e-038
-47.19841 258.03531 9.4017143 2.3509886e-038
-42.427727 258.55426 9.4206228 2.3509886e-038
-37.652767 259.17834 9.4433622 2.3509886e-038
-32.896748 260.13779 9.4783201 2.3509886e-038
-28.033737 260.43881 9.4892874 2.3509886e-038
-23.046547 259.46927 9.4539623 2.3509886e-038
-18.094461 258.47995 9.4179153 2.3509886e-038
-13.193508 257.76215 9.3917618 2.3509886e-038
-8.2966251 256.33533 9.3397741 2.3509886e-038
-3.4505057 254.69186 9.2798939 2.3509886e-038
1.3392323 254.08701 9.2578545 2.3509886e-038
6.0261259 256.18958 9.334465 2.3509886e-038
18.872215 250.95975 9.1439114 2.3509528e-038
20.131252 249.93811 9.1066875 2.3509528e-038
24.552942 247.10231 9.0033627 2.3509528e-038
29.029253 245.63177 8.9497814 2.3509528e-038
33.605621 245.29555 8.9375324 2.3509528e-038
38.047546 245.6344 8.9498777 2.3509528e-038
-62.77425 264.96515 4.6679449 2.3509886e-038
-57.574394 261.04727 4.5989232 2.3509886e-038
-52.368706 259.59402 4.5733204 2.3509886e-038
-47.45121 259.41736 4.5702085 2.3509886e-038
-42.620953 259.73178 4.5757475 2.3509886e-038
-37.78738 260.10492 4.5823212 2.3509886e-038
-32.979485 260.79208 4.5944271 2.3509886e-038
-28.081915 260.88638 4.5960879 2.3509886e-038
-23.08148 259.86258 4.5780516 2.3509886e-038
-18.14607 259.21716 4.5666814 2.3509886e-038
-13.24638 258.79507 4.5592456 2.3509886e-038
-8.3285503 257.32172 4.533289 2.3509886e-038
-3.4554152 255.05426 4.4933429 2.3509886e-038
1.3348608 253.2576 4.4616909 2.3509886e-038
6.0914202 252.86838 4.454834 2.3509886e-038
10.853494 252.94867 4.4562483 2.3509528e-038
15.525999 251.52925 4.4312415 2.3509528e-038
20.088568 249.40817 4.3938746 2.3509528e-038
24.630236 247.88017 4.3669553 2.3509528e-038
29.227541 247.30959 4.3569031 2.3509528e-038
34.016617 248.29552 4.3742728 2.3509528e-038
34.969849 248.83987 4.3838625 2.3509528e-038
-62.556923 266.86807 -0.32059506 2.3509886e-038
-57.917248 262.60181 -0.31546983 2.3509886e-038
-52.529579 260.39151 -0.31281456 2.3509886e-038
-47.574944 260.09381 -0.31245694 2.3509886e-038
-42.721828 260.3465 -0.3127605 2.3509886e-038
-37.858643 260.59543 -0.31305957 2.3509886e-038
-33.010372 261.03632 -0.31358922 2.3509886e-038
-28.080172 260.87018 -0.31338963 2.3509886e-038
-23.096821 260.03528 -0.31238663 2.3509886e-038
-18.179146 259.6897 -0.31197146 2.3509886e-038
-13.269503 259.24683 -0.31143945 2.3509886e-038
-8.3500252 257.9852 -0.30992383 2.3509886e-038
-3.4698305 256.11829 -0.30768105 2.3509886e-038
1.3416247 254.54092 -0.3057861 2.3509886e-038
6.1094618 253.61731 -0.30467659 2.3509528e-038
10.851933 252.91231 -0.30382964 2.3509528e-038
15.542739 251.80045 -0.30249393 2.3509528e-038
20.175489 250.48734 -0.30091646 2.3509528e-038
24.812286 249.71234 -0.29998547 2.3509528e-038
29.527929 249.85132 -0.30015239 2.3509528e-038
31.651728 250.95329 -0.30147621 2.3509528e-038
-112.72885 252.49953 -5.0550027 2.3418052e-038
-112.70444 252.48878 -5.0547881 2.3418052e-038
-107.76778 252.05568 -5.0461173 2.3418052e-038
-107.37313 252.21184 -5.0492435 2.3418052e-038
-62.730774 268.87094 -5.3827567 2.3509886e-038
-58.152405 263.668 -5.2785945 2.3509886e-038
-52.585976 260.67105 -5.2185955 2.3509886e-038
-47.613655 260.30542 -5.2112761 2.3509886e-038
-42.751106 260.52493 -5.2156706 2.3509886e-038
-37.874607 260.70532 -5.2192817 2.3509886e-038
-33.015194 261.07446 -5.2266717 2.3509886e-038
-28.088926 260.95151 -5.2242107 2.3509886e-038
-23.126854 260.37341 -5.2126369 2.3509886e-038
-18.201946 260.01538 -5.2054691 2.3509886e-038
-13.286766 259.58411 -5.1968355 2.3509886e-038
-8.3796387 258.90018 -5.1831431 2.3509886e-038
-3.4950688 257.9812 -5.1647458 2.3509886e-038
1.3556345 257.19891 -5.1490836 2.3509886e-038
6.1790833 256.50745 -5.1352415 2.3509528e-038
10.948718 255.16797 -5.1084251 2.3509528e-038
15.641863 253.40628 -5.0731564 2.3509528e-038
20.308012 252.13266 -5.0476584 2.3509528e-038
25.043348 252.03777 -5.0457587 2.3509528e-038
28.576687 253.67981 -5.0786324 2.3509528e-038
-115.26609 249.96581 -9.7082758 2.3418052e-038
-110.80517 248.23392 -9.6410122 2.3418052e-038
-106.66653 249.48 -9.6894073 2.3418052e-038
-103.14907 252.36052 -9.8012838 2.3418052e-038
-99.875565 256.14481 -9.9482584 2.3418052e-038
-99.164383 257.86124 -10.014921 2.3418052e-038
-62.991329 269.40939 -10.463434 2.3509886e-038
-58.225082 263.99756 -10.253247 2.3509886e-038
-52.707485 261.27338 -10.147445 2.3509886e-038
-47.724968 260.914 -10.133486 2.3509886e-038
-42.802433 260.83774 -10.130525 2.3509886e-038
-37.890968 260.81793 -10.129756 2.3509886e-038
-33.030521 261.19562 -10.144424 2.3509886e-038
-28.138306 261.41028 -10.152761 2.3509886e-038
-23.184282 261.01999 -10.137603 2.3509886e-038
-18.226601 260.36758 -10.112265 2.3509886e-038
-13.308461 260.00793 -10.098297 2.3509886e-038
-8.4092464 259.81494 -10.090801 2.3509886e-038
-3.5143969 259.40787 -10.074991 2.3509886e-038
1.3655181 259.0741 -10.062028 2.3509886e-038
6.2335811 258.76978 -10.050208 2.3509886e-038
11.037531 257.23779 -9.9907093 2.3509528e-038
15.733918 254.89766 -9.8998213 2.3509528e-038
20.418642 253.50618 -9.8457785 2.3509528e-038
25.267651 254.29517 -9.8764219 2.3509528e-038
25.869907 254.76065 -9.8945007 2.3509528e-038
-112.59609 247.05743 -14.244576 2.3418052e-038
-110.16411 246.79778 -14.229605 2.3418052e-038
-106.0714 248.08803 -14.303998 2.3418052e-038
-102.5577 250.91371 -14.466918 2.3418052e-038
-99.401894 254.92999 -14.698484 2.3418052e-038
-97.065742 261.56232 -15.080884 2.3418052e-038
-96.294205 266.78214 -15.381843 2.3509886e-038
-63.754448 269.74008 -15.552388 2.3509886e-038
-58.150646 263.66003 -15.201832 2.3509886e-038
-52.727837 261.37427 -15.070042 2.3509886e-038
-47.764305 261.12906 -15.055903 2.3509886e-038
-42.830914 261.01126 -15.049112 2.3509886e-038
-37.901112 260.88779 -15.041991 2.3509886e-038
-33.062702 261.45013 -15.074416 2.3509886e-038
-28.217911 262.14981 -15.114758 2.3509886e-038
-23.256056 261.82803 -15.096205 2.3509886e-038
-18.258371 260.82141 -15.038165 2.3509886e-038
-13.327321 260.37643 -15.012509 2.3509886e-038
-8.4255018 260.31717 -15.009093 2.3509886e-038
-3.5218296 259.95651 -14.988297 2.3509886e-038
1.3691711 259.76718 -14.977382 2.3509886e-038
6.2561011 259.70465 -14.973777 2.3509886e-038
11.087171 258.39468 -14.898248 2.3509528e-038
15.826696 256.4007 -14.783281 2.3509528e-038
20.571928 255.4093 -14.72612 2.3509528e-038
24.00926 256.42648 -14.784767 2.3509528e-038
-110.09615 248.35872 -18.993349 2.3418052e-038
-106.26978 248.55202 -19.008133 2.3418052e-038
-102.28833 250.25465 -19.138344 2.3418052e-038
-98.784576 253.3468 -19.374815 2.3418052e-038
-95.622032 257.672 -19.705585 2.3418052e-038
-92.742126 263.26154 -20.133051 2.3418052e-038
-90.801636 266.9418 -20.414501 2.3509886e-038
-65.826927 271.3317 -20.750219 2.3509886e-038
-64.542778 269.63589 -20.620533 2.3509886e-038
-58.048923 263.19882 -20.128254 2.3509886e-038
-52.653976 261.00815 -19.96072 2.3509886e-038
-47.678249 260.6586 -19.933989 2.3509886e-038
-42.78207 260.71362 -19.938198 2.3509886e-038
-37.916767 260.99554 -19.959757 2.3509886e-038
-33.136799 262.03604 -20.039331 2.3509886e-038
-28.320635 263.10413 -20.121014 2.3509886e-038
-23.355459 262.94717 -20.109009 2.3509886e-038
-18.33127 261.86279 -20.026081 2.3509886e-038
-13.369948 261.20926 -19.976099 2.3509886e-038
-8.451005 261.10513 -19.968138 2.3509886e-038
-3.5326993 260.75882 -19.941654 2.3509886e-038
1.3740287 260.68875 -19.936295 2.3509886e-038
6.2767749 260.56287 -19.926666 2.3509886e-038
11.128204 259.35098 -19.83399 2.3509886e-038
15.921988 257.94446 -19.726425 2.3509886e-038
20.754471 257.67566 -19.705868 2.3509528e-038
23.027826 258.81479 -19.792984 2.3509886e-038
-107.21532 251.06668 -23.925148 2.3418052e-038
-102.65919 251.16202 -23.934235 2.3418052e-038
-98.593384 252.85646 -24.095703 2.3418052e-038
-94.766396 255.3663 -24.334875 2.3418052e-038
-91.056801 258.47751 -24.631355 2.3418052e-038
-87.306198 261.81693 -24.949581 2.3418052e-038
-83.85479 264.36731 -25.192619 2.3509886e-038
-69.851563 273.37592 -26.051085 2.3509886e-038
-64.023552 267.46677 -25.487976 2.3509886e-038
-58.04641 263.18741 -25.080179 2.3509886e-038
-52.723423 261.35239 -24.905315 2.3509886e-038
-47.720066 260.88721 -24.860985 2.3509886e-038
-42.83947 261.06342 -24.877777 2.3509886e-038
-38.011486 261.64752 -24.933439 2.3509886e-038
-33.225868 262.74042 -25.037582 2.3509886e-038
-28.390661 263.7547 -25.134239 2.3509886e-038
-23.444843 263.95349 -25.153183 2.3509886e-038
-18.424738 263.19797 -25.081186 2.3509886e-038
-13.425729 262.29904 -24.995525 2.3509886e-038
-8.4700317 261.69296 -24.937769 2.3509886e-038
-3.5405247 261.33646 -24.903795 2.3509886e-038
1.37972 261.76855 -24.944973 2.3509886e-038
6.3050818 261.73795 -24.942055 2.3509886e-038
11.174956 260.44058 -24.818424 2.3509886e-038
15.997972 259.17545 -24.697865 2.3509886e-038
20.882647 259.26697 -24.706587 2.3509886e-038
22.599567 260.35062 -24.809851 2.3509886e-038
-103.37534 254.62303 -29.055677 2.3418052e-038
-99.115799 254.19626 -29.006977 2.3418052e-038
-94.519646 254.70137 -29.064617 2.3418052e-038
-90.252083 256.19318 -29.234852 2.3418052e-038
-86.346733 258.93964 -29.548254 2.3418052e-038
-82.402573 261.8912 -29.885069 2.3418052e-038
-78.356186 264.87277 -30.2253 2.3509886e-038
-74.033264 267.26114 -30.497845 2.3509886e-038
-69.000153 267.24698 -30.496229 2.3509886e-038
-63.462109 265.12125 -30.253656 2.3509886e-038
-58.095318 263.40918 -30.058285 2.3509886e-038
-52.92263 262.33987 -29.936264 2.3509886e-038
-47.891495 261.8244 -29.877443 2.3509886e-038
-42.950874 261.74231 -29.868078 2.3509886e-038
-38.082939 262.13934 -29.913383 2.3509886e-038
-33.267269 263.06778 -30.019329 2.3509886e-038
-28.438835 264.20224 -30.148785 2.3509886e-038
-23.52206 264.82285 -30.219603 2.3509886e-038
-18.517395 264.52158 -30.185225 2.3509886e-038
-13.493472 263.62253 -30.082632 2.3509886e-038
-8.4945917 262.45178 -29.949034 2.3509886e-038
-3.5498838 262.02725 -29.900593 2.3509886e-038
1.384213 262.62097 -29.968344 2.3509886e-038
6.3232675 262.49286 -29.953724 2.3509886e-038
11.206638 261.17896 -29.803793 2.3509886e-038
16.049711 260.01364 -29.670815 2.3509886e-038
20.980389 260.4805 -29.724087 2.3509886e-038
22.451979 261.58789 -29.850454 2.3509886e-038
-97.994904 256.95596 -34.157425 2.3418052e-038
-95.198311 256.53015 -34.100826 2.3418052e-038
-90.439949 256.72647 -34.126923 2.3418052e-038
-86.162949 258.38849 -34.347855 2.3418052e-038
-81.932907 260.39853 -34.615051 2.3418052e-038
-77.534134 262.09393 -34.840424 2.3418052e-038
-72.95607 263.37244 -35.01038 2.3509886e-038
-68.161377 263.99829 -35.093571 2.3509886e-038
-63.132607 263.74472 -35.05986 2.3509886e-038
-58.087994 263.37598 -35.010845 2.3509886e-038
-53.047882 262.96072 -34.955647 2.3509886e-038
-48.057415 262.73151 -34.925175 2.3509886e-038
-43.058159 262.39612 -34.880592 2.3509886e-038
-38.107716 262.30991 -34.869133 2.3509886e-038
-33.290783 263.25369 -34.994591 2.3509886e-038
-28.498724 264.75861 -35.194641 2.3509886e-038
-23.592882 265.62018 -35.30917 2.3509886e-038
-18.582134 265.44635 -35.286064 2.3509886e-038
-13.546645 264.66138 -35.181717 2.3509886e-038
-8.5336237 263.65775 -35.048302 2.3509886e-038
-3.5690606 263.44275 -35.019722 2.3509886e-038
1.3890676 263.54205 -35.032925 2.3509886e-038
6.3267126 262.63589 -34.912464 2.3509886e-038
11.211747 261.29803 -34.734623 2.3509886e-038
16.083815 260.56613 -34.637333 2.3509886e-038
21.073839 261.64072 -34.780178 2.3509886e-038
22.182535 262.54443 -34.900307 2.3509886e-038
-94.146698 261.76566 -39.722832 2.3418052e-038
-91.971146 261.073 -39.617718 2.3418052e-038
-86.862892 260.48749 -39.52887 2.3418052e-038
-81.973671 260.52808 -39.535027 2.3418052e-038
-77.255211 261.15106 -39.629566 2.3418052e-038
-72.584755 262.03201 -39.763245 2.3509886e-038
-67.802444 262.60812 -39.85067 2.3509886e-038
-62.888504 262.72495 -39.868401 2.3509886e-038
-58.002678 262.98914 -39.908489 2.3509886e-038
-53.090584 263.17242 -39.936302 2.3509886e-038
-48.156685 263.27423 -39.951752 2.3509886e-038
-43.135433 262.86703 -39.889961 2.3509886e-038
-38.14674 262.57855 -39.846184 2.3509886e-038
-33.336021 263.61145 -40.002922 2.3509886e-038
-28.558523 265.31415 -40.261314 2.3509886e-038
-23.672173 266.51288 -40.443214 2.3509886e-038
-18.656633 266.51062 -40.442871 2.3509886e-038
-13.601001 265.72333 -40.323402 2.3509886e-038
-8.5783844 265.04068 -40.21981 2.3509886e-038
-3.5883472 264.86636 -40.193356 2.3509886e-038
1.393519 264.3866 -40.120552 2.3509886e-038
6.3328052 262.88882 -39.893269 2.3509886e-038
11.219761 261.4848 -39.68021 2.3509886e-038
16.115276 261.07584 -39.618145 2.3509886e-038
21.157436 262.67862 -39.86137 2.3509886e-038
21.592918 263.03232 -39.915043 2.3509886e-038
-90.901825 266.76086 -45.500893 2.3418052e-038
-88.421509 265.16153 -45.2281 2.3418052e-038
-82.419296 261.9444 -44.679359 2.3418052e-038
-77.106056 260.64688 -44.458046 2.3418052e-038
-72.250183 260.82419 -44.488285 2.3509886e-038
-67.418388 261.12061 -44.538849 2.3509886e-038
-62.579983 261.43604 -44.592651 2.3509886e-038
-57.795734 262.05084 -44.697517 2.3509886e-038
-52.966606 262.55786 -44.783997 2.3509886e-038
-48.081429 262.86276 -44.836006 2.3509886e-038
-43.117649 262.75864 -44.818245 2.3509886e-038
-38.186909 262.85501 -44.834686 2.3509886e-038
-33.379009 263.95139 -45.02169 2.3509886e-038
-28.617796 265.86481 -45.348061 2.3509886e-038
-23.776291 267.68509 -45.658539 2.3509886e-038
-18.766142 268.07492 -45.725033 2.3509886e-038
-13.677147 267.211 -45.577671 2.3509886e-038
-8.626152 266.51651 -45.459213 2.3509886e-038
-3.6041853 266.0354 -45.377159 2.3509886e-038
1.3972944 265.10291 -45.218098 2.3509886e-038
6.3483348 263.53348 -44.950405 2.3509886e-038
11.259054 262.40054 -44.757164 2.3509886e-038
16.202745 262.49289 -44.772915 2.3509886e-038
20.935034 264.40152 -45.098469 2.3509886e-038
-86.823967 268.37125 -50.825928 2.3418052e-038
-83.541878 265.51215 -50.284451 2.3418052e-038
-77.385422 261.59122 -49.541882 2.3418052e-038
-72.097038 260.27133 -49.291912 2.3509886e-038
-67.107765 259.91754 -49.224907 2.3509886e-038
-62.249489 260.05536 -49.251007 2.3509886e-038
-57.459698 260.52722 -49.340374 2.3509886e-038
-52.663242 261.05408 -49.440151 2.3509886e-038
-47.831715 261.49759 -49.524147 2.3509886e-038
-42.976818 261.90042 -49.600441 2.3509886e-038
-38.163792 262.69592 -49.751095 2.3509886e-038
-33.396793 264.09201 -50.015495 2.3509886e-038
-28.66954 266.34552 -50.442287 2.3509886e-038
-23.859905 268.62646 -50.87426 2.3509886e-038
-18.871929 269.58612 -51.056007 2.3509886e-038
-13.764915 268.92569 -50.930931 2.3509886e-038
-8.6706476 267.89127 -50.735023 2.3509886e-038
-3.6159534 266.90405 -50.548061 2.3509886e-038
1.400064 265.62833 -50.306458 2.3509886e-038
6.3669457 264.30606 -50.056038 2.3509886e-038
11.324201 263.91885 -49.982704 2.3509886e-038
16.364376 265.11139 -50.208553 2.3509886e-038
20.584934 268.09491 -50.77359 2.3509886e-038
-83.018181 270.92908 -56.408829 2.3418052e-038
-78.827797 266.46701 -55.479805 2.3418052e-038
-72.460243 261.58249 -54.46283 2.3509886e-038
-67.042793 259.66586 -54.063774 2.3509886e-038
-62.045464 259.203 -53.967403 2.3509886e-038
-57.153023 259.13675 -53.953606 2.3509886e-038
-52.328365 259.39407 -54.007187 2.3509886e-038
-47.534435 259.87234 -54.106766 2.3509886e-038
-42.787182 260.74478 -54.28841 2.3509886e-038
-38.097404 262.23892 -54.599499 2.3509886e-038
-33.402325 264.13574 -54.994427 2.3509886e-038
-28.696159 266.59283 -55.506001 2.3509886e-038
-23.894527 269.01627 -56.010574 2.3509886e-038
-18.939058 270.54504 -56.328873 2.3509886e-038
-13.832093 270.23819 -56.264984 2.3509886e-038
-8.7052088 268.95908 -55.998669 2.3509886e-038
-3.6273582 267.74588 -55.746075 2.3509886e-038
1.4035287 266.28568 -55.442055 2.3509886e-038
6.390234 265.2728 -55.231167 2.3509886e-038
11.409248 265.90094 -55.36195 2.3509886e-038
16.644388 269.64771 -56.142048 2.3509886e-038
20.750246 276.36853 -57.541355 2.3509886e-038
-78.049332 271.79453 -61.703796 2.3509886e-038
-73.968399 267.02695 -60.621449 2.3509886e-038
-67.611107 261.867 -59.450016 2.3509886e-038
-62.184441 259.78363 -58.977039 2.3509886e-038
-57.154228 259.14218 -58.831417 2.3509886e-038
-52.249828 259.00473 -58.800213 2.3509886e-038
-47.424347 259.27048 -58.860542 2.3509886e-038
-42.719616 260.33304 -59.101765 2.3509886e-038
-38.092964 262.20837 -59.527512 2.3509886e-038
-33.444309 264.46774 -60.040443 2.3509886e-038
-28.742748 267.02563 -60.621151 2.3509886e-038
-23.941322 269.54312 -61.192673 2.3509886e-038
-19.001177 271.4324 -61.621586 2.3509886e-038
-13.884742 271.26678 -61.583988 2.3509886e-038
-8.7343607 269.85977 -61.264561 2.3509886e-038
-3.6399918 268.67841 -60.996361 2.3509886e-038
1.4094529 267.40964 -60.708324 2.3509886e-038
6.4306884 266.95215 -60.604465 2.3509886e-038
11.543391 269.02722 -61.075558 2.3509886e-038
17.13574 277.60788 -63.023567 2.3509886e-038
20.942337 288.09622 -65.404671 2.3509886e-038
-72.980965 273.07825 -67.134155 2.3509886e-038
-69.364258 268.6572 -66.047279 2.3509886e-038
-62.87553 262.67075 -64.575562 2.3509886e-038
-57.476757 260.60455 -64.067604 2.3509886e-038
-52.441925 259.957 -63.908405 2.3509886e-038
-47.564438 260.03638 -63.927917 2.3509886e-038
-42.854908 261.1575 -64.203545 2.3509886e-038
-38.231037 263.15878 -64.695534 2.3509886e-038
-33.562794 265.40469 -65.247681 2.3509886e-038
-28.83168 267.85187 -65.849297 2.3509886e-038
-24.011024 270.32785 -66.457993 2.3509886e-038
-19.061684 272.29672 -66.942032 2.3509886e-038
-13.93084 272.16742 -66.910248 2.3509886e-038
-8.7662849 270.84613 -66.585411 2.3509886e-038
-3.6562247 269.87659 -66.347061 2.3509886e-038
1.4182762 269.08368 -66.152122 2.3509886e-038
6.4941192 269.5853 -66.275444 2.3509886e-038
11.762306 274.12921 -67.392532 2.3509886e-038
17.908308 290.1239 -71.324707 2.3509886e-038
20.786198 300.97913 -73.993378 2.3509886e-038
-66.726768 270.52625 -71.597694 2.3509886e-038
-64.030663 267.49643 -70.795837 2.3509886e-038
-58.237293 264.05289 -69.88446 2.3509886e-038
-52.936573 262.40897 -69.449379 2.3509886e-038
-47.925556 262.01062 -69.343956 2.3509886e-038
-43.132854 262.85129 -69.566444 2.3509886e-038
-38.427185 264.50894 -70.005157 2.3509886e-038
-33.691612 266.42334 -70.511826 2.3509886e-038
-28.938297 268.84235 -71.152039 2.3509886e-038
-24.102888 271.36209 -71.818916 2.3509886e-038
-19.137306 273.37704 -72.352196 2.3509886e-038
-14.009891 273.71179 -72.440796 2.3509886e-038
-8.8311882 272.85138 -72.213074 2.3509886e-038
-3.6876152 272.1936 -72.038986 2.3509886e-038
1.4339876 272.06454 -72.004822 2.3509886e-038
6.5975933 273.88074 -72.485504 2.3509886e-038
12.104886 282.11328 -74.664337 2.3509886e-038
18.81662 304.83902 -80.678947 2.3509886e-038
19.908327 309.34128 -81.870522 2.3509886e-038
-59.545429 271.54709 -76.977989 2.3509886e-038
-54.029526 267.82678 -75.92337 2.3509886e-038
-48.666039 266.05887 -75.422195 2.3509886e-038
-43.644722 265.97061 -75.397179 2.3509886e-038
-38.765053 266.83463 -75.642105 2.3509886e-038
-33.907921 268.13385 -76.010414 2.3509886e-038
-29.116829 270.50092 -76.681427 2.3509886e-038
-24.28961 273.46429 -77.521484 2.3509886e-038
-19.32025 275.99036 -78.237572 2.3509886e-038
-14.183667 277.1069 -78.554092 2.3509886e-038
-8.9605417 276.84793 -78.480675 2.3509886e-038
-3.7469473 276.57309 -78.402763 2.3509886e-038
1.4607807 277.14789 -78.565712 2.3509886e-038
6.764811 280.82233 -79.607338 2.3509886e-038
12.585488 293.31406 -83.148483 2.3509886e-038
18.036747 312.16843 -88.493301 2.3509886e-038
-50.008343 273.73688 -82.750076 2.3509886e-038
-44.691322 272.34857 -82.330399 2.3509886e-038
-39.567184 272.35599 -82.332634 2.3509886e-038
-34.473694 272.60782 -82.408768 2.3509886e-038
-29.535866 274.39386 -82.948685 2.3509886e-038
-24.686462 277.93225 -84.018333 2.3509886e-038
-19.734507 281.90805 -85.220207 2.3509886e-038
-14.574003 284.73291 -86.074158 2.3509886e-038
-9.2370911 285.39227 -86.273483 2.3509886e-038
-3.8716748 285.7796 -86.390572 2.3509886e-038
1.5180266 288.00891 -87.064484 2.3509886e-038
7.1045394 294.9252 -89.155273 2.3509886e-038
13.314421 310.30237 -93.803757 2.3509886e-038
14.48167 313.73126 -94.840294 2.3509886e-038
-36.13929 281.02737 -90.242508 2.3509886e-038
-35.51738 280.86099 -90.189079 2.3509886e-038
-30.230049 280.84296 -90.183289 2.3509886e-038
-25.242928 284.1972 -91.260391 2.3509886e-038
-20.360172 290.8457 -93.395332 2.3509886e-038
-15.239473 297.73422 -95.607346 2.3509886e-038
-9.7154284 300.17117 -96.389893 2.3509886e-038
-4.092947 302.11234 -97.013237 2.3509886e-038
1.623559 308.03113 -98.913857 2.3509886e-038
5.0288157 313.00342 -100.51054 2.3509886e-038
-112.70865 252.49825 -5.0468478 2.3418052e-038
-110.63832 247.86014 -17.967579 2.3418052e-038
-107.80087 252.13307 -4.9357429 2.3418052e-038
-107.31059 250.98637 -23.780954 2.3418052e-038
-103.69686 253.70073 -6.4358382 2.3418052e-038
-103.92422 254.25696 -28.451107 2.3418052e-038
-99.942909 256.3175 -9.0545797 2.3418052e-038
-99.861748 256.10934 -32.327572 2.3418052e-038
-97.761368 263.43683 -12.909615 2.3509886e-038
-96.072639 258.88623 -36.628914 2.3418052e-038
-94.325394 267.75586 -17.521103 2.3509886e-038
-92.971657 263.91309 -41.919788 2.3418052e-038
-88.640678 265.81879 -21.904112 2.3509886e-038
-89.254219 267.65872 -47.745598 2.3418052e-038
-83.215408 264.47458 -25.675831 2.3509886e-038
-84.844818 269.65314 -53.744217 2.3418052e-038
-75.151497 254.03973 73.153877 9.1476764e-041
-75.896614 256.5585 61.247345 9.1476764e-041
-78.971474 266.95267 -28.361813 2.3509886e-038
-80.4207 271.85159 -59.498329 2.3509886e-038
-69.68956 251.58029 74.750801 9.1476764e-041
-70.365433 254.02019 43.452938 9.1476764e-041
-74.823891 270.11533 -28.967993 2.3509886e-038
-75.376007 272.10843 -64.348549 2.3509886e-038
-64.672218 250.48431 69.744514 9.1476764e-041
-66.847084 258.9079 27.211533 9.1476764e-041
-70.546989 273.23813 -26.760641 2.3509886e-038
-70.52655 273.15894 -69.533646 2.3509886e-038
-60.72723 253.69594 60.435547 9.1476764e-041
-63.140339 263.77701 8.041419 2.3509886e-038
-64.737617 270.44986 -18.569822 2.3509886e-038
-64.484398 269.392 -72.828781 2.3509886e-038
-56.141258 254.5493 48.178436 9.1476764e-041
-59.867088 271.44254 -76.74678 2.3509886e-038
-51.604832 255.8075 34.651749 9.1476764e-041
-54.889496 272.08972 -79.799751 2.3509886e-038
-47.71291 260.84808 25.10664 9.1476764e-041
-50.06601 273.71255 -82.714851 2.3509886e-038
-43.41375 264.56308 20.155336 2.3509886e-038
-45.313473 276.13998 -85.524178 2.3509886e-038
-38.514404 265.10931 19.701191 2.3509886e-038
-40.61808 279.58972 -88.416039 2.3509886e-038
-32.167919 254.37445 86.208809 2.3418409e-038
-35.550991 281.1268 -90.421127 2.3509886e-038
-27.266771 253.31354 89.510857 2.3418409e-038
-30.413298 282.54538 -91.986717 2.3509886e-038
-22.574675 254.15671 83.721855 2.3418409e-038
-25.452585 286.55765 -93.89962 2.3509886e-038
-18.256718 260.79779 48.915886 2.3418409e-038
-18.23159 260.43887 37.199074 2.3418409e-038
-18.130724 258.99796 23.883617 2.3509886e-038
-20.632759 294.73959 -96.764809 2.3509886e-038
-13.244906 258.7663 22.38085 2.3509886e-038
-15.543754 303.67896 -99.735535 2.3509886e-038
-8.198925 253.31676 41.751877 2.3418409e-038
-9.9184475 306.44373 -100.5851 2.3509886e-038
-3.4001093 250.97197 61.254917 3.5733111e-043
-4.1708293 307.86105 -100.74963 2.3509886e-038
1.3033619 247.28145 75.542854 3.5733111e-043
1.6424097 311.6076 -101.04646 2.3509886e-038
5.9323468 246.26491 76.38327 3.5733111e-043
6.0612144 251.61449 29.868629 3.5733111e-043
6.1672301 256.01541 9.0719843 2.3509886e-038
7.5577431 313.73871 -99.756104 2.3509886e-038
10.89482 253.91182 6.1045494 2.3509528e-038
13.460257 313.70117 -95.820503 2.3509886e-038
15.58405 252.4697 7.0377674 2.3509528e-038
19.197554 311.01035 -84.924149 2.3509886e-038
20.155142 250.2347 10.165236 2.3509528e-038
21.231865 263.60269 -42.646347 2.3509886e-038
24.659349 248.17316 14.502522 2.3509528e-038
25.335197 254.97496 -11.061153 2.3509528e-038
29.174625 246.86183 19.450706 2.3509528e-038
29.820461 252.32658 -3.0434637 2.3509528e-038
33.676567 245.81342 24.840485 2.3509528e-038
34.155945 249.3125 3.2535179 2.3509528e-038
37.8661 243.01329 30.020346 2.3509528e-038
38.252419 245.49254 9.2480488 2.3509528e-038
42.078941 240.95009 34.472504 2.3509528e-038
42.953476 245.95779 15.800335 2.3509528e-038
46.530468 240.52206 36.928833 2.3509528e-038
47.247711 244.22961 23.101788 2.3509528e-038
