# .PCD v0.7 - Point Cloud Data file format
VERSION 0.7
FIELDS x y z rgb
SIZE 4 4 4 4
TYPE F F F F
COUNT 1 1 1 1
WIDTH 696
HEIGHT 1
VIEWPOINT 0 0 0 1 0 0 0
POINTS 696
DATA ascii
-19.891228 281.56302 78.238838 2.3418052e-038
5.4205298 244.5 -22.713024 9.1476764e-041
-66.970406 245.16595 -35.794525 3.5733111e-043
-70.578011 288.18497 61.077126 2.3509528e-038
-9.1607895 243.11932 -8.8651457 2.3418409e-038
-22.901043 280.22287 84.357742 2.3418052e-038
-19.264977 279.51242 84.143867 2.3418052e-038
-17.808107 279.53738 84.151382 2.3418052e-038
-27.08762 284.71652 81.061127 2.3418052e-038
-24.088661 282.5538 80.445381 2.3418052e-038
-19.352682 280.78491 79.941765 2.3418052e-038
-14.753566 280.5199 79.866318 2.3418052e-038
-14.597129 280.57104 79.880875 2.3418052e-038
-27.797125 286.40875 76.865906 2.3418052e-038
-24.179983 283.62497 76.118805 2.3418052e-038
-19.414341 281.6795 75.59668 2.3418052e-038
-14.796919 281.34421 75.506691 2.3418052e-038
-13.373283 282.31442 75.767075 2.3418052e-038
-27.927301 287.20392 72.389313 2.3418052e-038
-24.219765 284.09158 71.604858 2.3418052e-038
-19.445728 282.13492 71.111679 2.3418052e-038
-14.828995 281.95407 71.066101 2.3418052e-038
-12.77318 283.84021 71.541496 2.3418052e-038
-72.497551 288.88531 68.095665 2.3509528e-038
-71.785759 288.81607 68.07933 2.3509528e-038
-69.517029 288.80096 68.075768 2.3509528e-038
-27.958298 287.50208 67.7696 2.3418052e-038
-24.23798 284.30524 67.016052 2.3418052e-038
-19.469692 282.4826 66.586418 2.3418052e-038
-14.848886 282.33228 66.550987 2.3418052e-038
-12.517733 284.53983 67.071342 2.3418052e-038
-76.084114 289.39188 63.489334 2.3509528e-038
-71.666992 288.33826 63.258179 2.3509528e-038
-67.010033 288.56024 63.306885 2.3509528e-038
-65.394638 289.21231 63.44994 2.3509528e-038
-27.928999 287.20056 63.008591 2.3418052e-038
-24.238029 284.30585 62.373516 2.3418052e-038
-19.482718 282.67157 62.014977 2.3418052e-038
-14.860879 282.56033 61.99057 2.3418052e-038
-12.440663 284.68817 62.457397 2.3509886e-038
-76.383263 289.67343 58.820778 2.3509528e-038
-71.615616 288.13153 58.507683 2.3509528e-038
-66.865105 287.93616 58.46801 2.3509528e-038
-63.228481 289.45422 58.776268 2.3509528e-038
-27.89225 286.82288 58.241951 2.3418052e-038
-24.228838 284.19803 57.70895 2.3418052e-038
-19.477171 282.59109 57.382652 2.3418052e-038
-14.870523 282.74368 57.413635 2.3418052e-038
-12.433279 284.7421 57.819427 2.3509886e-038
-75.519958 289.82016 54.117855 2.3509528e-038
-71.639114 288.2261 53.820198 2.3509528e-038
-66.743347 287.41183 53.668148 2.3509528e-038
-62.287533 288.5123 53.873634 2.3509528e-038
-61.239983 289.30154 54.021011 2.3509528e-038
-27.885792 286.75626 53.545731 2.3418052e-038
-24.22788 284.18677 53.065937 2.3418052e-038
-19.473808 282.54233 52.758869 2.3418052e-038
-14.881413 282.95074 52.835136 2.3418052e-038
-12.428578 284.6452 53.151539 2.3418052e-038
-74.211929 290.22772 49.45459 2.3509528e-038
-71.793266 288.84628 49.219196 2.3509528e-038
-66.680176 287.13983 48.928417 2.3509528e-038
-62.04707 287.3985 48.972492 2.3509528e-038
-59.189793 289.121 49.266006 2.3509528e-038
-27.875681 286.6525 48.845375 2.3418052e-038
-24.240274 284.33215 48.449989 2.3418052e-038
-19.493362 282.82602 48.193344 2.3418052e-038
-14.889945 283.11298 48.242241 2.3418052e-038
-12.410144 284.22394 48.431549 2.3509886e-038
-72.776726 290.49707 44.75671 2.3509528e-038
-72.071404 289.96533 44.674789 2.3509528e-038
-66.728775 287.34909 44.271706 2.3509528e-038
-62.006733 287.21167 44.25053 2.3509528e-038
-57.939106 290.3309 44.731113 2.3509528e-038
-57.437698 291.24036 44.871231 2.3509528e-038
-27.939524 287.30902 44.26553 2.3418052e-038
-24.290205 284.91785 43.897125 2.3418052e-038
-19.52212 283.24323 43.639118 2.3418052e-038
-14.900638 283.31628 43.650375 2.3418052e-038
-12.406008 284.12875 43.775551 2.3509886e-038
-71.294167 289.87335 39.927029 2.3509528e-038
-66.754753 287.46097 39.594742 2.3509528e-038
-61.989536 287.13199 39.549431 2.3509528e-038
-57.932377 290.29721 39.985409 2.3509528e-038
-55.884056 294.71234 40.593544 2.3509528e-038
-28.051819 288.46356 39.732845 2.3418052e-038
-24.378222 285.95026 39.386662 2.3418052e-038
-19.578007 284.05411 39.125484 2.3418052e-038
-14.942067 284.104 39.132355 2.3418052e-038
-12.446343 285.05255 39.263008 2.3418052e-038
-69.801712 288.92352 35.078129 2.3509528e-038
-66.746338 287.42474 34.89616 2.3509528e-038
-61.921169 286.81531 34.82217 2.3509528e-038
-57.769825 289.48267 35.146008 2.3509528e-038
-54.271252 296.18799 35.960106 2.3509528e-038
-54.128029 296.58749 36.008606 2.3509528e-038
-28.203989 290.0097 35.209999 2.3418052e-038
-24.500338 287.38266 34.891048 2.3418052e-038
-19.66534 285.3212 34.64077 2.3418052e-038
-15.012625 285.44556 34.655869 2.3418052e-038
-12.522226 286.79089 34.819206 2.3509886e-038
-68.416451 289.04523 30.372831 2.3509528e-038
-66.944786 288.2793 30.292351 2.3509528e-038
-61.98827 287.12613 30.171175 2.3509528e-038
-57.611961 288.69162 30.335676 2.3509528e-038
-53.720123 293.18021 30.807337 2.3509528e-038
-52.076649 295.80194 31.082829 2.3509528e-038
-28.393085 291.7868 30.660917 2.3418052e-038
-24.626818 288.86621 30.354025 2.3418052e-038
-19.737514 286.36838 30.091551 2.3418052e-038
-15.04375 286.03735 30.056767 2.3509886e-038
-12.534964 287.09634 30.168047 2.3509886e-038
-67.079742 290.83963 25.812023 2.3509528e-038
-62.368107 288.8855 25.638592 2.3509528e-038
-57.640228 288.83325 25.633955 2.3509528e-038
-53.361691 291.22403 25.846136 2.3509528e-038
-49.875637 294.27576 26.116976 2.3509528e-038
-28.678057 293.34097 26.034016 2.3418052e-038
-24.720045 289.95975 25.733932 2.3418052e-038
-19.76565 286.77658 25.451424 2.3509886e-038
-15.002261 285.2485 25.315809 2.3509886e-038
-12.418381 284.84344 25.27986 2.3509886e-038
-65.765045 293.815 21.278128 2.3509528e-038
-63.00153 291.81949 21.133612 2.3509528e-038
-57.816868 289.71838 20.981449 2.3509528e-038
-53.227818 290.49341 21.037575 2.3509528e-038
-48.945934 293.2605 21.237968 2.3509528e-038
-47.615936 294.58932 21.334204 2.3509528e-038
-29.294937 294.45697 21.324617 2.3509886e-038
-24.765087 290.4881 21.037191 2.3509886e-038
-19.773834 286.89532 20.777004 2.3509886e-038
-14.939471 284.05463 20.57128 2.3509886e-038
-12.133979 281.64505 20.396778 2.3509886e-038
-64.056618 295.04773 16.549313 2.3509528e-038
-63.595631 294.57135 16.522594 2.3509528e-038
-58.030483 290.78879 16.310429 2.3509528e-038
-53.212589 290.41031 16.2892 2.3509528e-038
-48.745411 292.05905 16.38168 2.3509528e-038
-44.505199 294.81339 16.536171 2.3509528e-038
-30.786955 294.89471 16.540731 2.3509886e-038
-29.891508 294.25632 16.504925 2.3509886e-038
-24.763636 290.47107 16.29261 2.3509886e-038
-19.793949 287.18719 16.108414 2.3509886e-038
-14.906504 283.4278 15.89755 2.3509886e-038
-11.322794 278.19937 15.604285 2.3509886e-038
-4.7099156 260.10754 14.589509 2.3418409e-038
-0.91851616 254.85452 14.294866 2.3418409e-038
3.2268596 253.57018 14.222826 2.3418409e-038
7.3745093 253.80713 14.236116 2.3418409e-038
7.7922635 253.90074 14.241367 2.3418409e-038
-61.981453 293.81665 11.68229 2.3509528e-038
-58.175407 291.51501 11.590775 2.3509528e-038
-53.230118 290.50598 11.550655 2.3509528e-038
-48.543148 290.84717 11.564222 2.3509528e-038
-43.928452 291.7424 11.599816 2.3509528e-038
-39.234879 292.26785 11.620708 2.3509886e-038
-36.712696 292.51544 11.630552 2.3509886e-038
-36.460835 292.53751 11.63143 2.3509886e-038
-34.505917 292.63873 11.635454 2.3509886e-038
-29.656288 291.94077 11.607704 2.3509886e-038
-24.738319 290.1741 11.537459 2.3509886e-038
-19.84251 287.89178 11.446713 2.3509886e-038
-14.892472 283.16101 11.258616 2.3509886e-038
-9.8764458 272.35001 10.828766 2.3509886e-038
-5.1448236 258.09369 10.261928 2.3418409e-038
-0.9084937 252.07367 10.022569 2.3418409e-038
3.2030718 251.70091 10.007748 2.3418409e-038
7.3509974 252.99794 10.059318 2.3418409e-038
8.9019375 253.71764 10.087934 2.3418409e-038
-60.380642 293.78735 6.8836188 2.3509886e-038
-58.414284 292.71204 6.8584232 2.3509528e-038
-53.327408 291.03693 6.8191748 2.3509528e-038
-48.489803 290.52756 6.8072391 2.3509528e-038
-43.773895 290.71597 6.8116541 2.3509886e-038
-39.066578 291.01416 6.8186412 2.3509886e-038
-34.342003 291.24863 6.8241343 2.3509886e-038
-29.579437 291.18423 6.8226261 2.3509886e-038
-24.763098 290.46475 6.805768 2.3509886e-038
-19.885424 288.51437 6.7600698 2.3509886e-038
-14.814202 281.67282 6.5997682 2.3509886e-038
-9.6961451 267.37808 6.2648335 2.3509886e-038
-5.056354 253.65558 5.9433064 2.3418409e-038
-0.89843434 249.28256 5.8408442 2.3418409e-038
3.1921883 250.84567 5.8774681 2.3418409e-038
7.3843689 254.14645 5.9548082 2.3418409e-038
9.1158562 255.66817 5.9904623 2.3418409e-038
-59.274879 295.23807 2.0964248 2.3509886e-038
-58.849606 294.8934 2.0939775 2.3509886e-038
-53.485302 291.89865 2.0727122 2.3509886e-038
-48.534584 290.79587 2.0648816 2.3509886e-038
-43.792351 290.83853 2.0651848 2.3509886e-038
-39.125729 291.4548 2.0695605 2.3509886e-038
-34.419323 291.90436 2.072753 2.3509886e-038
-29.639788 291.77835 2.0718582 2.3509886e-038
-24.799253 290.88885 2.065542 2.3509886e-038
-19.836967 287.81134 2.0436893 2.3509886e-038
-14.595567 277.51575 1.9705821 2.3509886e-038
-9.4310169 260.06699 1.8466822 2.3418409e-038
-4.9613314 248.88869 1.7673074 2.3418409e-038
-0.89292175 247.75302 1.7592434 2.3418409e-038
3.2165074 252.75668 1.7947732 2.3418409e-038
7.5234485 258.93317 1.8386312 2.3418409e-038
9.2620392 261.03607 1.8535634 2.3418409e-038
-58.168171 295.64841 -2.7285576 2.3509886e-038
-53.598511 292.51651 -2.6996531 2.3509886e-038
-48.564728 290.9765 -2.6854405 2.3509886e-038
-43.82325 291.04373 -2.6860609 2.3509886e-038
-39.19471 291.96866 -2.694597 2.3509886e-038
-34.514763 292.71378 -2.7014737 2.3509886e-038
-29.716251 292.53107 -2.6997876 2.3509886e-038
-24.807281 290.98303 -2.6855006 2.3509886e-038
-19.639938 284.95267 -2.6298461 2.3509886e-038
-14.228992 270.54581 -2.4968843 2.3509886e-038
-9.1721163 252.92763 -2.334285 2.3418409e-038
-4.9020419 245.9144 -2.2695596 2.3418409e-038
-0.89746279 249.01299 -2.2981565 2.3418409e-038
3.2846503 258.11145 -2.3821268 2.3418409e-038
7.70048 265.026 -2.4459417 2.3509886e-038
10.343469 266.31512 -2.4578393 2.3509886e-038
-57.116558 295.31708 -7.5479856 2.3509886e-038
-53.669815 292.90564 -7.486352 2.3509886e-038
-48.575077 291.03848 -7.4386296 2.3509886e-038
-43.830402 291.09125 -7.4399776 2.3509886e-038
-39.207111 292.06104 -7.4647646 2.3509886e-038
-34.548012 292.99573 -7.4886546 2.3509886e-038
-29.765339 293.01431 -7.48913 2.3509886e-038
-24.77235 290.57327 -7.4267392 2.3509886e-038
-19.325043 280.38388 -7.1663094 2.3509886e-038
-13.806965 262.52151 -6.7097659 2.3509886e-038
-8.9987316 248.14641 -6.3423548 2.3418409e-038
-4.8960147 245.61203 -6.2775784 2.3418409e-038
-0.91168517 252.9592 -6.465364 2.3418409e-038
3.3644774 264.38434 -6.7573781 2.3509886e-038
7.7899427 268.10504 -6.8524752 2.3509886e-038
11.962358 263.57272 -6.7366343 2.3509886e-038
16.042963 259.95123 -6.644073 2.3509886e-038
16.188614 259.93103 -6.6435566 2.3509886e-038
-56.269871 295.5072 -12.378435 2.3509886e-038
-53.770004 293.45245 -12.292365 2.3509886e-038
-48.564468 290.97491 -12.188584 2.3509886e-038
-43.792465 290.83929 -12.182903 2.3509886e-038
-39.158642 291.69998 -12.218956 2.3509886e-038
-34.528881 292.8335 -12.266438 2.3509886e-038
-29.771725 293.07718 -12.276646 2.3509886e-038
-24.619678 288.78247 -12.096745 2.3509886e-038
-18.912689 274.40112 -11.494329 9.1476764e-041
-13.427202 255.30083 -10.694241 9.1476764e-041
-8.9102268 245.70584 -10.292318 2.3418409e-038
-4.931818 247.40814 -10.363626 2.3418409e-038
-0.93037957 258.14621 -10.813429 9.1476764e-041
3.4108999 268.03226 -11.227545 2.3509886e-038
7.7396197 266.37308 -11.158044 2.3509886e-038
11.751452 258.92572 -10.846082 2.3509886e-038
15.820807 256.35153 -10.738253 2.3509886e-038
19.844753 259.04434 -10.851051 2.3509886e-038
-55.653988 295.92844 -17.228552 2.3509886e-038
-53.870686 294.00189 -17.11639 2.3509886e-038
-48.461571 290.35843 -16.904272 2.3509886e-038
-43.659908 289.95892 -16.881014 2.3509886e-038
-39.065941 291.00943 -16.942171 2.3509886e-038
-34.49424 292.5397 -17.031263 2.3509886e-038
-29.745375 292.81778 -17.047451 2.3509886e-038
-24.338776 285.48755 -16.620695 9.1476764e-041
-18.444986 267.61533 -15.580198 9.1476764e-041
-13.135549 249.7554 -14.540418 9.1476764e-041
-8.8877316 245.08553 -14.268544 9.1476764e-041
-5.0075898 251.20926 -14.62506 9.1476764e-041
-0.94913542 263.35025 -15.331892 9.1476764e-041
3.404995 267.56827 -15.577458 2.3509886e-038
7.5827918 260.97552 -15.193641 2.3509886e-038
11.540174 254.27052 -14.803283 9.1476764e-041
15.751018 255.22072 -14.858602 2.3509886e-038
20.429554 261.76587 -15.239652 2.3509886e-038
21.703312 264.02991 -15.371462 2.3509886e-038
-55.488834 296.69366 -22.118065 2.3509886e-038
-53.98661 294.63455 -21.964563 2.3509886e-038
-48.308643 289.44214 -21.577477 2.3509886e-038
-43.478764 288.75589 -21.526318 2.3509886e-038
-38.970463 290.29819 -21.641294 2.3509886e-038
-34.477486 292.39764 -21.797806 2.3509886e-038
-29.766249 293.02325 -21.844442 2.3509886e-038
-24.233246 284.24973 -21.19039 9.1476764e-041
-18.275366 265.1543 -19.766853 9.1476764e-041
-13.113853 249.3429 -18.588137 9.1476764e-041
-9.0260601 248.90002 -18.555124 9.1476764e-041
-5.1511502 258.41107 -19.264158 9.1476764e-041
-0.96410722 267.50439 -19.942051 9.1476764e-041
3.3529258 263.47662 -19.641785 2.3509886e-038
7.3860111 254.20299 -18.950451 9.1476764e-041
11.411427 251.43376 -18.744009 9.1476764e-041
15.896684 257.58099 -19.202276 2.3509886e-038
20.968653 268.67343 -20.0292 2.3509886e-038
23.569546 274.38629 -20.455084 2.3509886e-038
-56.013626 299.21408 -27.192062 2.3509886e-038
-54.293079 296.30716 -26.927883 2.3509886e-038
-48.28688 289.31177 -26.292154 2.3509886e-038
-43.39053 288.16992 -26.188387 2.3509886e-038
-38.912701 289.86792 -26.342695 2.3509886e-038
-34.469322 292.3284 -26.566301 2.3509886e-038
-29.85755 293.92203 -26.711128 2.3509886e-038
-24.609726 288.66574 -26.233446 9.1476764e-041
-18.904833 274.28714 -24.926743 9.1476764e-041
-13.75629 261.55798 -23.769941 9.1476764e-041
-9.5140734 262.35736 -23.842585 9.1476764e-041
-5.3676457 269.27173 -24.470951 9.1476764e-041
-0.96739179 268.41571 -24.393158 9.1476764e-041
3.2781875 257.60358 -23.41057 9.1476764e-041
7.2539945 249.65939 -22.688616 9.1476764e-041
11.464101 252.59435 -22.955339 9.1476764e-041
16.273783 263.69135 -23.963814 2.3509886e-038
21.564779 276.31165 -25.110725 2.3509886e-038
25.005497 282.82315 -25.70248 2.3509886e-038
-71.877281 243.57248 -26.112951 3.5733111e-043
-68.971458 245.2654 -26.294447 3.5733111e-043
-67.68573 247.2476 -26.506956 3.5733111e-043
-56.796535 300.54773 -32.221161 2.3509886e-038
-54.270363 296.18317 -31.753246 2.3509886e-038
-48.248741 289.08325 -30.992077 2.3509886e-038
-43.365967 288.00677 -30.876673 2.3509886e-038
-38.870071 289.55032 -31.042152 2.3509886e-038
-34.416752 291.88254 -31.292185 2.3509886e-038
-29.876131 294.10495 -31.530447 2.3509886e-038
-25.02878 293.58112 -31.474289 2.3509886e-038
-19.868786 288.27298 -30.905209 9.1476764e-041
-14.846984 282.29611 -30.264442 9.1476764e-041
-10.200909 281.2973 -30.15736 9.1476764e-041
-5.5681262 279.32898 -29.946341 9.1476764e-041
-0.95887941 266.05386 -28.52314 9.1476764e-041
3.2131732 252.49469 -27.069487 9.1476764e-041
7.2561851 249.73479 -26.773602 9.1476764e-041
11.745607 258.79694 -27.745136 2.3509886e-038
16.802103 272.25189 -29.18762 2.3509886e-038
22.042564 282.43353 -30.279175 2.3509886e-038
25.799232 287.54825 -30.827513 2.3509886e-038
-72.489647 242.12024 -29.911049 3.5733111e-043
-71.984756 241.9319 -29.887783 3.5733111e-043
-68.039619 241.95175 -29.890234 3.5733111e-043
-64.973862 245.2939 -30.303118 3.5733111e-043
-63.111877 251.44305 -31.062771 3.5733111e-043
-58.203995 299.69696 -37.02396 2.3509886e-038
-53.749363 293.33978 -36.238609 2.3509886e-038
-48.100796 288.19684 -35.60326 2.3509886e-038
-43.340706 287.83899 -35.559052 2.3509886e-038
-38.832832 289.27295 -35.736198 2.3509886e-038
-34.342358 291.25162 -35.98064 2.3509886e-038
-29.814667 293.49988 -36.258389 2.3509886e-038
-25.173479 295.27844 -36.478107 2.3509886e-038
-20.378801 295.67273 -36.526814 2.3509886e-038
-15.510298 294.90817 -36.432362 2.3509886e-038
-10.638895 293.37509 -36.242973 2.3509886e-038
-5.7162929 286.76184 -35.425983 2.3509886e-038
-0.96709025 268.33206 -33.149204 2.3509886e-038
3.252681 255.59926 -31.57622 9.1476764e-041
7.4920526 257.85257 -31.854591 2.3509886e-038
12.230561 269.48218 -33.291286 2.3509886e-038
17.309891 280.47983 -34.649918 2.3509886e-038
22.363707 286.54837 -35.399612 2.3509886e-038
26.165625 290.05765 -35.833141 2.3509886e-038
-72.078529 243.27875 -34.026875 3.5733111e-043
-68.315262 242.93195 -33.978371 3.5733111e-043
-64.864876 244.88245 -34.251183 3.5733111e-043
-62.332016 250.78079 -35.076172 3.5733111e-043
-61.45573 264.64218 -37.014935 3.5733111e-043
-61.419411 275.11069 -38.479141 2.3509886e-038
-61.076344 286.25861 -40.038376 2.3509886e-038
-58.36142 292.44711 -40.903954 2.3509886e-038
-52.950146 288.978 -40.418736 2.3509886e-038
-47.867664 286.79999 -40.114101 2.3509886e-038
-43.278534 287.42612 -40.201675 2.3509886e-038
-38.780685 288.88449 -40.405655 2.3509886e-038
-34.259403 290.54813 -40.638344 2.3509886e-038
-29.740963 292.77435 -40.949722 2.3509886e-038
-25.159809 295.1181 -41.277534 2.3509886e-038
-20.456953 296.80661 -41.513702 2.3509886e-038
-15.658712 297.73007 -41.642868 2.3509886e-038
-10.797127 297.73846 -41.644039 2.3509886e-038
-5.855166 293.72852 -41.083179 2.3509886e-038
-1.0124466 280.91678 -39.291229 2.3509886e-038
3.4596274 271.86133 -38.024662 2.3509886e-038
7.954783 273.77829 -38.292786 2.3509886e-038
12.753266 280.99918 -39.302753 2.3509886e-038
17.661898 286.18353 -40.027878 2.3509886e-038
22.541315 288.8241 -40.397205 2.3509886e-038
26.294645 291.23618 -40.734577 2.3509886e-038
-72.358849 249.21054 -38.926117 3.5733111e-043
-69.869263 248.45804 -38.808578 3.5733111e-043
-65.694832 248.01576 -38.739494 3.5733111e-043
-62.360359 250.89482 -39.189198 3.5733111e-043
-60.743595 261.57559 -40.85751 3.5733111e-043
-59.511074 275.65192 -43.056198 2.3509886e-038
-56.652824 283.88541 -44.342255 2.3509886e-038
-52.256538 285.1926 -44.546432 2.3509886e-038
-47.663521 285.57687 -44.606453 2.3509886e-038
-43.191402 286.84744 -44.804916 2.3509886e-038
-38.681911 288.14874 -45.008171 2.3509886e-038
-34.139603 289.5321 -45.224251 2.3509886e-038
-29.655178 291.92987 -45.598778 2.3509886e-038
-25.128143 294.74664 -46.03875 2.3509886e-038
-20.456116 296.79443 -46.358612 2.3509886e-038
-15.686215 298.25302 -46.586437 2.3509886e-038
-10.866436 299.64972 -46.8046 2.3509886e-038
-5.9637876 299.17758 -46.730854 2.3509886e-038
-1.0616416 294.56659 -46.010628 2.3509886e-038
3.6871798 289.74265 -45.257141 2.3509886e-038
8.3749695 288.23978 -45.022396 2.3509886e-038
13.108971 288.83661 -45.115616 2.3509886e-038
17.855843 289.32611 -45.192074 2.3509886e-038
22.64485 290.15067 -45.320873 2.3509886e-038
26.345455 292.05161 -45.617794 2.3509886e-038
-72.535812 256.46259 -44.246864 3.5733111e-043
-71.998672 256.0303 -44.172283 3.5733111e-043
-66.787628 252.14139 -43.501339 3.5733111e-043
-62.636452 252.0056 -43.477917 3.5733111e-043
-60.243385 259.42157 -44.75737 3.5733111e-043
-58.387768 270.44879 -46.659874 3.5733111e-043
-55.64542 278.83734 -48.107128 3.5733111e-043
-51.823322 282.82831 -48.795677 2.3509886e-038
-47.50156 284.60648 -49.102463 2.3509886e-038
-43.061954 285.98773 -49.340771 2.3509886e-038
-38.531441 287.02783 -49.520214 2.3509886e-038
-33.995579 288.31067 -49.741539 2.3509886e-038
-29.544075 290.83615 -50.177254 2.3509886e-038
-25.063227 293.9852 -50.720551 2.3509886e-038
-20.434942 296.48724 -51.152222 2.3509886e-038
-15.697334 298.46442 -51.49334 2.3509886e-038
-10.892215 300.3606 -51.820484 2.3509886e-038
-5.9957604 300.78156 -51.893108 2.3509886e-038
-1.0784492 299.2301 -51.625443 2.3509886e-038
3.7744708 296.60208 -51.172031 2.3509886e-038
8.5429974 294.0228 -50.727039 2.3509886e-038
13.262573 292.22101 -50.41618 2.3509886e-038
17.985022 291.41928 -50.277855 2.3509886e-038
22.787289 291.97577 -50.373867 2.3509886e-038
26.374126 293.94424 -50.713482 2.3509886e-038
-71.584862 261.78619 -49.440266 3.5733111e-043
-68.646271 259.15826 -48.943958 3.5733111e-043
-63.977695 257.40186 -48.612251 3.5733111e-043
-60.695313 261.36765 -49.361221 3.5733111e-043
-57.988846 268.60104 -50.727295 3.5733111e-043
-55.010647 275.65652 -52.05978 3.5733111e-043
-51.379875 280.40817 -52.957165 3.5733111e-043
-47.17905 282.67416 -53.385113 2.3509886e-038
-42.776936 284.09485 -53.653419 2.3509886e-038
-38.305107 285.34183 -53.88892 2.3509886e-038
-33.834923 286.94818 -54.192295 2.3509886e-038
-29.408651 289.50302 -54.674793 2.3509886e-038
-24.951931 292.67972 -55.274738 2.3509886e-038
-20.383343 295.73862 -55.852432 2.3509886e-038
-15.696507 298.44867 -56.36425 2.3509886e-038
-10.899169 300.55234 -56.761539 2.3509886e-038
-6.0020218 301.09567 -56.864151 2.3509886e-038
-1.0817326 300.14111 -56.68388 2.3509886e-038
3.7960913 298.30106 -56.336365 2.3509886e-038
8.6001463 295.98965 -55.899845 2.3509886e-038
13.353285 294.2197 -55.565575 2.3509886e-038
18.131174 293.78745 -55.48394 2.3509886e-038
23.014774 294.89056 -55.692272 2.3509886e-038
26.30291 297.18896 -56.126343 2.3509886e-038
-71.322433 272.78928 -55.97287 3.5733111e-043
-67.305283 270.78973 -55.562592 3.5733111e-043
-62.604507 269.58911 -55.316235 3.5733111e-043
-58.367088 270.35303 -55.472984 3.5733111e-043
-54.61578 273.67786 -56.155197 3.5733111e-043
-50.834736 277.43304 -56.925713 3.5733111e-043
-46.650745 279.50882 -57.351639 3.5733111e-043
-42.309917 280.99323 -57.656216 2.3509886e-038
-37.932346 282.56506 -57.978737 2.3509886e-038
-33.552288 284.55121 -58.386269 2.3509886e-038
-29.171177 287.16528 -58.922646 2.3509886e-038
-24.772793 290.57849 -59.622993 2.3509886e-038
-20.298601 294.50912 -60.429504 2.3509886e-038
-15.680162 298.13794 -61.174091 2.3509886e-038
-10.900456 300.58783 -61.676781 2.3509886e-038
-6.0079322 301.39215 -61.841812 2.3509886e-038
-1.0836855 300.68298 -61.696304 2.3509886e-038
3.8080933 299.24417 -61.401077 2.3509886e-038
8.644846 297.52808 -61.048958 2.3509886e-038
13.454145 296.44202 -60.826115 2.3509886e-038
18.310732 296.6969 -60.87841 2.3509886e-038
23.267895 298.13382 -61.173248 2.3509886e-038
25.978403 300.12912 -61.582657 2.3509886e-038
-71.720345 289.422 -64.111916 2.3509886e-038
-65.448517 281.836 -62.431484 3.5733111e-043
-59.375244 275.02274 -60.92223 3.5733111e-043
-54.581364 273.5054 -60.586113 3.5733111e-043
-50.414593 275.14011 -60.948231 3.5733111e-043
-46.195225 276.77957 -61.311398 3.5733111e-043
-41.909046 278.33093 -61.655052 2.3509886e-038
-37.579144 279.93399 -62.010159 2.3509886e-038
-33.267902 282.13937 -62.498684 2.3509886e-038
-28.94743 284.96268 -63.1241 2.3509886e-038
-24.618597 288.76981 -63.967445 2.3509886e-038
-20.225061 293.44214 -65.002441 2.3509886e-038
-15.663438 297.81995 -65.972198 2.3509886e-038
-10.905932 300.73883 -66.618782 2.3509886e-038
-6.0169363 301.84384 -66.863564 2.3509886e-038
-1.0858967 301.29651 -66.742317 2.3509886e-038
3.820616 300.22821 -66.505669 2.3509886e-038
8.6924639 299.16693 -66.270584 2.3509886e-038
13.557499 298.71927 -66.171417 2.3509886e-038
18.505287 299.84937 -66.421753 2.3509886e-038
23.621006 302.65826 -67.043976 2.3509886e-038
26.131189 305.14548 -67.594933 2.3509886e-038
-68.063263 293.42996 -69.791412 2.3509886e-038
-60.640411 280.88293 -66.807144 3.5733111e-043
-55.032898 275.76801 -65.590576 3.5733111e-043
-50.414425 275.13919 -65.44101 3.5733111e-043
-46.06414 275.99417 -65.644371 3.5733111e-043
-41.762608 277.35837 -65.968842 2.3509886e-038
-37.433186 278.84671 -66.32283 2.3509886e-038
-33.142372 281.07477 -66.852768 2.3509886e-038
-28.850073 284.0043 -67.549545 2.3509886e-038
-24.550406 287.96994 -68.492767 2.3509886e-038
-20.185534 292.86862 -69.657898 2.3509886e-038
-15.64976 297.55984 -70.773697 2.3509886e-038
-10.909622 300.84058 -71.554008 2.3509886e-038
-6.0242019 302.20834 -71.879318 2.3509886e-038
-1.0881724 301.92792 -71.81263 2.3509886e-038
3.8352184 301.3757 -71.681282 2.3509886e-038
8.7472639 301.05298 -71.60453 2.3509886e-038
13.680767 301.4353 -71.695457 2.3509886e-038
18.776018 304.23615 -72.361633 2.3509886e-038
24.266581 310.93008 -73.953766 2.3509886e-038
27.998089 317.62799 -75.546844 2.3509886e-038
-60.399887 285.27243 -72.509628 3.5733111e-043
-56.134724 281.28922 -71.497192 3.5733111e-043
-51.080635 278.77505 -70.858154 3.5733111e-043
-46.409069 278.06082 -70.676613 2.3509886e-038
-41.920059 278.40405 -70.763847 2.3509886e-038
-37.517704 279.47632 -71.036392 2.3509886e-038
-33.193661 281.50974 -71.553238 2.3509886e-038
-28.887926 284.37692 -72.282013 2.3509886e-038
-24.571981 288.22299 -73.259598 2.3509886e-038
-20.19323 292.98029 -74.468788 2.3509886e-038
-15.660601 297.76599 -75.685211 2.3509886e-038
-10.927591 301.33612 -76.592644 2.3509886e-038
-6.0398922 302.99545 -77.014412 2.3509886e-038
-1.0925888 303.15332 -77.054535 2.3509886e-038
3.8571944 303.10257 -77.041641 2.3509886e-038
8.8156347 303.4061 -77.118782 2.3509886e-038
13.834014 304.81183 -77.476097 2.3509886e-038
19.117056 309.76212 -78.734344 2.3509886e-038
25.002665 320.36157 -81.428482 2.3509886e-038
31.591537 334.74481 -85.084366 2.3509886e-038
31.824186 335.23996 -85.21022 2.3509886e-038
-53.414047 287.47949 -77.765114 2.3509886e-038
-52.586792 286.995 -77.634048 2.3509886e-038
-47.494129 284.56195 -76.975906 2.3509886e-038
-42.543034 282.54141 -76.429337 2.3509886e-038
-37.866547 282.07489 -76.303139 2.3509886e-038
-33.425896 283.47928 -76.683029 2.3509886e-038
-29.084208 286.30914 -77.448532 2.3509886e-038
-24.72134 289.97491 -78.440147 2.3509886e-038
-20.293604 294.43661 -79.647057 2.3509886e-038
-15.742423 299.32175 -80.968521 2.3509886e-038
-10.996631 303.2399 -82.028412 2.3509886e-038
-6.0850501 305.26083 -82.575081 2.3509886e-038
-1.1021892 305.81708 -82.725548 2.3509886e-038
3.8936713 305.96896 -82.766647 2.3509886e-038
8.9082603 306.59399 -82.935715 2.3509886e-038
14.022838 308.97229 -83.579063 2.3509886e-038
19.479397 315.6333 -85.380905 2.3509886e-038
25.571272 327.64722 -88.630753 2.3509886e-038
32.191978 341.10706 -92.271729 2.3509886e-038
36.276409 347.66125 -94.044685 2.3509886e-038
-45.928028 292.75537 -83.972923 2.3509886e-038
-43.74931 290.55267 -83.341118 2.3509886e-038
-38.591892 287.47812 -82.459221 2.3509886e-038
-33.97472 288.13373 -82.64727 2.3509886e-038
-29.628677 291.66898 -83.661308 2.3509886e-038
-25.188564 295.45535 -84.747383 2.3509886e-038
-20.607853 298.996 -85.76297 2.3509886e-038
-15.949644 303.26175 -86.986542 2.3509886e-038
-11.142929 307.2742 -88.137459 2.3509886e-038
-6.1754088 309.79373 -88.860153 2.3509886e-038
-1.1196909 310.67316 -89.112404 2.3509886e-038
3.9548132 310.77359 -89.141205 2.3509886e-038
9.0549726 311.64334 -89.390686 2.3509886e-038
14.287609 314.80612 -90.29789 2.3509886e-038
19.853268 321.69131 -92.272812 2.3509886e-038
25.928352 332.22253 -95.293541 2.3509886e-038
32.416393 343.48495 -98.524025 2.3509886e-038
39.035645 352.61029 -101.1415 2.3509886e-038
40.075237 353.84525 -101.49573 2.3509886e-038
-33.515839 299.20691 -90.709457 2.3509886e-038
-30.795696 303.15729 -91.907074 2.3509886e-038
-26.170399 306.97202 -93.063568 2.3509886e-038
-21.217384 307.83957 -93.326584 2.3509886e-038
-16.302084 309.96295 -93.970322 2.3509886e-038
-11.3793 313.7923 -95.131248 2.3509886e-038
-6.3129897 316.69556 -96.011421 2.3509886e-038
-1.145102 317.72379 -96.323143 2.3509886e-038
4.0445719 317.8269 -96.354401 2.3509886e-038
9.2708359 319.07266 -96.732079 2.3509886e-038
14.631233 322.37738 -97.733963 2.3509886e-038
20.214434 327.5434 -99.300125 2.3509886e-038
26.119984 334.67792 -101.46307 2.3509886e-038
32.429634 343.62531 -104.17561 2.3509886e-038
38.995525 352.24789 -106.7897 2.3509886e-038
42.271263 355.83368 -107.87678 2.3509886e-038
-20.25507 318.71796 -101.82918 2.3509886e-038
-16.800781 319.44504 -102.06148 2.3509886e-038
-11.737565 323.67169 -103.41188 2.3509886e-038
-6.4896932 325.56003 -104.0152 2.3509886e-038
-1.1739794 325.73621 -104.07148 2.3509886e-038
4.1467199 325.85382 -104.10906 2.3509886e-038
9.5042276 327.10526 -104.50889 2.3509886e-038
14.945228 329.29578 -105.20876 2.3509886e-038
20.493252 332.06122 -106.0923 2.3509886e-038
26.248472 336.32425 -107.45432 2.3509886e-038
32.356842 342.854 -109.54055 2.3509886e-038
38.758308 350.1051 -111.85725 2.3509886e-038
42.100136 353.64542 -112.98837 2.3509886e-038
-9.5628262 337.14221 -113.22112 2.3509886e-038
-6.6918588 335.70178 -112.7374 2.3509886e-038
-1.2031626 333.8335 -112.10997 2.3509886e-038
4.2435122 333.45984 -111.98449 2.3509886e-038
9.7029619 333.94507 -112.14744 2.3509886e-038
15.192817 334.75104 -112.41811 2.3509886e-038
20.740667 336.07022 -112.86112 2.3509886e-038
26.436056 338.72781 -113.75361 2.3509886e-038
32.363956 342.92932 -115.1646 2.3509886e-038
38.501087 347.78162 -116.79411 2.3509886e-038
39.577335 348.6658 -117.09104 2.3509886e-038
-0.88026398 341.67163 -120.32168 2.3509886e-038
4.3304815 340.29401 -119.83653 2.3509886e-038
9.8686438 339.64731 -119.6088 2.3509886e-038
15.407781 339.48746 -119.5525 2.3509886e-038
20.987436 340.06873 -119.75719 2.3509886e-038
26.670317 341.72937 -120.342 2.3509886e-038
32.48558 344.21811 -121.21842 2.3509886e-038
34.449699 345.17526 -121.55549 2.3509886e-038
11.204226 344.02997 -126.77013 2.3509886e-038
15.593062 343.56985 -126.60058 2.3509886e-038
21.202 343.54541 -126.59158 2.3509886e-038
22.039013 343.61722 -126.61804 2.3509886e-038
-72.292244 242.96536 -26.896133 3.5733111e-043
-72.159836 242.52032 -32.675312 3.5733111e-043
-69.225075 246.16725 -25.687202 3.5733111e-043
-72.396065 257.44342 -45.208118 3.5733111e-043
-65.803429 248.42577 -27.972704 3.5733111e-043
-71.244087 268.96573 -54.000515 3.5733111e-043
-71.804031 288.88962 68.38932 2.3509528e-038
-72.163841 290.33725 42.754345 2.3509528e-038
-62.748112 252.45488 -31.690229 3.5733111e-043
-71.74157 288.63831 -63.697071 2.3509886e-038
-67.103546 288.96292 66.132347 2.3509528e-038
-67.406021 290.26547 26.893667 2.3509528e-038
-61.593998 265.23761 -36.221455 2.3509886e-038
-68.167282 293.54364 -69.746193 2.3509886e-038
-62.497395 289.48438 57.018597 2.3509528e-038
-63.667557 294.90451 15.620182 2.3509528e-038
-61.20158 283.48224 -39.768211 2.3509886e-038
-61.748066 286.01352 -71.828575 3.5733111e-043
-57.938198 290.32639 46.190815 2.3509528e-038
-58.975098 295.52225 0.77049935 2.3509886e-038
-59.36174 297.45969 -39.169506 2.3509886e-038
-56.953079 285.38998 -74.805313 2.3509886e-038
-54.333012 296.52505 36.515015 2.3509528e-038
-52.785435 288.07907 -78.373756 2.3509886e-038
-49.09166 294.13361 24.368103 2.3509528e-038
-48.76326 292.16599 -82.281586 2.3509886e-038
-44.38583 294.78 16.400053 2.3509528e-038
-44.036938 292.46289 -84.756767 2.3509886e-038
-39.297176 292.7319 12.310031 2.3509886e-038
-39.225006 292.19431 -86.526886 2.3509886e-038
-34.539921 292.92712 12.047576 2.3509886e-038
-34.916286 296.11902 -89.232544 2.3509886e-038
-29.955732 294.88855 18.727234 2.3509886e-038
-31.135916 306.50647 -93.956749 2.3509886e-038
-23.965889 281.11371 83.634094 2.3418052e-038
-26.910238 315.65018 -98.539612 2.3509886e-038
-19.255014 279.36786 84.773094 2.3418052e-038
-21.918949 318.01846 -101.02592 2.3509886e-038
-14.749385 280.4404 80.284187 2.3418052e-038
-16.962465 322.51926 -104.36008 2.3509886e-038
-9.9348593 273.96078 13.288457 2.3509886e-038
-12.098873 333.63504 -110.55492 2.3509886e-038
-5.2031021 261.0173 14.220173 2.3418409e-038
-6.7547507 338.85684 -115.5507 2.3509886e-038
-0.92548853 256.78912 16.988789 2.3418409e-038
-1.2307774 341.49557 -120.03668 2.3509886e-038
3.2500012 255.38867 17.626474 2.3418409e-038
4.3694973 343.35992 -123.95787 2.3509886e-038
7.3823924 254.07845 14.978235 2.3418409e-038
9.9952955 344.00626 -126.48579 2.3509886e-038
12.055873 265.63318 -4.0831537 2.3509886e-038
15.611421 343.97437 -127.34088 2.3509886e-038
16.050896 260.07977 -6.5335894 2.3509886e-038
21.207203 343.6297 -126.76604 2.3509886e-038
20.254971 259.52893 -11.733826 2.3509886e-038
26.827631 343.74509 -125.2532 2.3509886e-038
31.533342 334.12817 -84.552414 2.3509886e-038
32.5252 344.63794 -122.74023 2.3509886e-038
39.008244 352.36279 -99.231293 2.3509886e-038
38.464302 347.44931 -118.27641 2.3509886e-038
