# .PCD v0.7 - Point Cloud Data file format
VERSION 0.7
FIELDS x y z rgb
SIZE 4 4 4 4
TYPE F F F F
COUNT 1 1 1 1
WIDTH 642
HEIGHT 1
VIEWPOINT 0 0 0 1 0 0 0
POINTS 642
DATA ascii
-21.249201 281.98621 79.684494 2.3418052e-038
0.44661096 248.06314 -30.844013 9.1476764e-041
0 0 0 2.3418409e-038
-73.714104 289.84253 60.063343 2.3509528e-038
0 0 0 2.3418409e-038
-26.883762 283.32669 81.677864 2.3418052e-038
-26.573545 283.15707 81.62896 2.3418052e-038
-21.792927 281.16864 81.055733 2.3418052e-038
-17.168062 280.66391 80.910225 2.3418052e-038
-16.217604 280.85645 80.965729 2.3418052e-038
-28.082045 287.11832 78.079704 2.3418052e-038
-26.8407 286.00375 77.776611 2.3418052e-038
-21.922819 282.84448 76.917473 2.3418052e-038
-17.246082 281.93939 76.671333 2.3418052e-038
-15.383419 282.24033 76.753174 2.3418052e-038
-28.524214 289.96646 74.116493 2.3418052e-038
-27.046679 288.19858 73.664619 2.3418052e-038
-22.002314 283.87009 72.558243 2.3418052e-038
-17.284964 282.57501 72.227211 2.3418052e-038
-15.028311 282.8475 72.29686 2.3418052e-038
-28.65106 291.06476 69.641518 2.3418052e-038
-27.127531 289.06012 69.161873 2.3418052e-038
-22.039186 284.34583 68.033913 2.3418052e-038
-17.311617 283.01074 67.714478 2.3418052e-038
-14.564647 283.45328 67.820358 2.3418052e-038
-78.038788 292.01215 65.097015 2.3509528e-038
-74.755188 290.60825 64.784058 2.3509528e-038
-69.834373 289.89188 64.624352 2.3509528e-038
-69.022896 290.04407 64.658287 2.3509528e-038
-28.594322 290.3989 64.737389 2.3418052e-038
-27.078327 288.53583 64.32206 2.3418052e-038
-22.036434 284.3103 63.380085 2.3418052e-038
-17.319641 283.14194 63.119621 2.3418052e-038
-13.878265 283.96167 63.302361 2.3509886e-038
-79.171753 292.32474 60.390427 2.3509528e-038
-74.637703 290.15158 59.941479 2.3509528e-038
-69.664322 289.18594 59.741993 2.3509528e-038
-65.978394 289.97406 59.904808 2.3509528e-038
-28.461336 288.55173 59.61097 2.3418052e-038
-26.943926 287.1037 59.311829 2.3418052e-038
-22.003788 283.88913 58.647743 2.3418052e-038
-17.301605 282.84708 58.432468 2.3418052e-038
-13.260547 284.09665 58.690617 2.3509886e-038
-78.43428 292.0415 55.560249 2.3509528e-038
-74.685493 290.33731 55.236034 2.3509528e-038
-69.646339 289.1113 55.002781 2.3509528e-038
-64.992592 289.42319 55.062122 2.3509528e-038
-63.878296 289.9389 55.160236 2.3509528e-038
-28.574594 287.35074 54.667847 2.3418052e-038
-26.844681 286.04617 54.419651 2.3418052e-038
-21.983856 283.63199 53.960358 2.3418052e-038
-17.30489 282.90079 53.821247 2.3418052e-038
-12.913278 284.81839 54.186069 2.3418052e-038
-77.04673 292.36053 50.844086 2.3509528e-038
-74.92823 291.28098 50.656342 2.3509528e-038
-69.702126 289.3429 50.319283 2.3509528e-038
-64.853363 288.80319 50.22543 2.3509528e-038
-61.947109 289.99411 50.432545 2.3509528e-038
-29.150879 288.39548 50.154522 2.3418052e-038
-26.888489 286.513 49.827145 2.3418052e-038
-22.016306 284.05063 49.398918 2.3418052e-038
-17.346087 283.57425 49.316071 2.3418052e-038
-12.846624 286.12292 49.759308 2.3509886e-038
-75.393219 292.61172 46.1068 2.3509528e-038
-75.244461 292.51035 46.090824 2.3509528e-038
-69.785225 289.68784 45.646084 2.3509528e-038
-64.841736 288.7514 45.498528 2.3509528e-038
-60.560417 290.84811 45.828907 2.3509528e-038
-60.176228 291.25266 45.892647 2.3509528e-038
-29.964502 291.15506 45.877274 2.3418052e-038
-27.026615 287.98483 45.377739 2.3418052e-038
-22.07897 284.85913 44.885223 2.3418052e-038
-17.383615 284.18781 44.779442 2.3418052e-038
-12.85518 286.70261 45.175701 2.3509886e-038
-73.927704 293.11108 41.396347 2.3509528e-038
-69.975876 290.47925 41.024647 2.3509528e-038
-64.877159 288.90918 40.802902 2.3509528e-038
-60.514473 290.62744 41.045582 2.3509528e-038
-58.313858 293.15784 41.40295 2.3509528e-038
-30.369368 293.01126 41.382244 2.3418052e-038
-27.149561 289.29486 40.85738 2.3418052e-038
-22.157085 285.86697 40.373253 2.3418052e-038
-17.428806 284.92657 40.240437 2.3418052e-038
-12.877365 287.24527 40.567913 2.3509886e-038
-72.577385 293.38834 36.641842 2.3509886e-038
-70.240974 291.57971 36.415966 2.3509528e-038
-64.912773 289.06775 36.102234 2.3509528e-038
-60.380108 289.98218 36.216442 2.3509528e-038
-56.526894 294.59326 36.792332 2.3509528e-038
-56.229996 295.16788 36.864094 2.3509528e-038
-29.939554 292.80023 36.568394 2.3418052e-038
-27.23564 290.2121 36.245155 2.3418052e-038
-22.252296 287.09537 35.855904 2.3418052e-038
-17.490763 285.93942 35.711533 2.3418052e-038
-12.914996 288.08517 35.979519 2.3509886e-038
-12.913066 288.08734 35.979794 2.3509886e-038
-71.146873 293.51801 31.862267 2.3509528e-038
-70.59861 293.0643 31.813015 2.3509528e-038
-65.071136 289.77298 31.455732 2.3509528e-038
-60.325951 289.72205 31.450201 2.3509528e-038
-56.278282 293.29761 31.838343 2.3509528e-038
-54.064491 297.30939 32.273834 2.3509528e-038
-29.475201 292.64792 31.767815 2.3418052e-038
-27.316629 291.07507 31.597078 2.3418052e-038
-22.349957 288.35535 31.301842 2.3418052e-038
-17.539198 286.73123 31.125542 2.3509886e-038
-12.885172 287.41989 31.200294 2.3509886e-038
-12.864531 287.43268 31.201683 2.3509886e-038
-69.820221 294.5379 27.160526 2.3509886e-038
-65.460716 291.50787 26.881113 2.3509528e-038
-60.425491 290.2001 26.760521 2.3509528e-038
-56.046543 292.0899 26.934786 2.3509528e-038
-52.080154 296.68176 27.358219 2.3509528e-038
-51.591331 297.45364 27.429398 2.3509528e-038
-29.630213 293.82239 27.094545 2.3418052e-038
-27.424082 292.22006 26.946787 2.3418052e-038
-22.429422 289.38058 26.684948 2.3509886e-038
-17.554813 286.98654 26.464184 2.3509886e-038
-12.756207 284.54315 26.238871 2.3509886e-038
-12.53711 284.36853 26.222765 2.3509886e-038
-68.602982 296.59042 22.50382 2.3509886e-038
-66.118614 294.43756 22.340473 2.3509528e-038
-60.673355 291.3905 22.109278 2.3509528e-038
-55.93811 291.52481 22.119469 2.3509528e-038
-51.570747 293.77985 22.290571 2.3509528e-038
-48.949146 295.77133 22.441673 2.3509528e-038
-30.588272 296.57281 22.502485 2.3509886e-038
-27.558853 293.65613 22.281183 2.3509886e-038
-22.484016 290.08496 22.01022 2.3509886e-038
-17.549623 286.90167 21.768688 2.3509886e-038
-12.618612 281.47394 21.356859 2.3509886e-038
-11.400368 279.3089 21.192585 2.3509886e-038
-67.335152 299.14374 17.80986 2.3509886e-038
-67.118568 298.89056 17.794788 2.3509886e-038
-61.081127 293.34888 17.464857 2.3509528e-038
-56.002956 291.86276 17.376379 2.3509528e-038
-51.384964 292.7215 17.427505 2.3509528e-038
-46.884483 294.4946 17.533068 2.3509528e-038
-46.265564 294.92639 17.558775 2.3509528e-038
-32.146156 297.74246 17.726433 2.3509886e-038
-27.559448 293.66245 17.483526 2.3509886e-038
-22.49165 290.18341 17.276398 2.3509886e-038
-17.535995 286.67892 17.067753 2.3509886e-038
-12.471727 278.19748 16.562801 2.3509886e-038
-7.5757675 265.89572 15.830401 2.3509886e-038
-3.1313231 257.66721 15.340508 2.3509886e-038
1.0737957 256.49631 15.270798 9.1476764e-041
5.2983809 258.13797 15.368535 9.1476764e-041
5.4066734 258.20758 15.372681 9.1476764e-041
-65.507599 299.50366 12.937702 2.3509886e-038
-61.508755 295.40262 12.760549 2.3509528e-038
-56.168701 292.72653 12.64495 2.3509528e-038
-51.334179 292.43222 12.632236 2.3509528e-038
-46.606335 292.74747 12.645855 2.3509528e-038
-42.161968 293.59659 12.682535 2.3509528e-038
-34.783722 295.20184 12.751877 2.3509886e-038
-32.485077 294.81943 12.735356 2.3509886e-038
-27.451015 292.50705 12.635469 2.3509886e-038
-22.482479 290.06512 12.529986 2.3509886e-038
-17.519806 286.41425 12.372276 2.3509886e-038
-12.359914 275.70334 11.909596 2.3509886e-038
-7.4932623 262.99991 11.360846 2.3509886e-038
-3.1143863 256.27353 11.070285 9.1476764e-041
1.0700595 255.60385 11.041356 9.1476764e-041
5.2792339 257.20517 11.110528 9.1476764e-041
7.8080239 259.34979 11.203171 9.1476764e-041
-63.613804 299.00433 8.0307178 2.3509886e-038
-61.937328 297.46088 7.9892631 2.3509886e-038
-56.422314 294.04825 7.8976059 2.3509528e-038
-51.374138 292.65985 7.8603158 2.3509528e-038
-46.512348 292.1571 7.8468137 2.3509528e-038
-41.75322 292.25803 7.849524 2.3509886e-038
-37.04694 292.8027 7.864152 2.3509886e-038
-32.271763 292.88345 7.866322 2.3509886e-038
-27.398491 291.94736 7.8411798 2.3509886e-038
-22.498394 290.27045 7.7961407 2.3509886e-038
-17.491619 285.95343 7.6801939 2.3509886e-038
-12.249732 273.24561 7.3388844 2.3509886e-038
-7.4065685 259.95712 6.9819798 2.3509886e-038
-3.0906372 254.31931 6.8305583 9.1476764e-041
1.0666872 254.79829 6.8434229 9.1476764e-041
5.2851048 257.49118 6.9157486 9.1476764e-041
8.1411915 260.41916 6.9943895 9.1476764e-041
-62.301785 300.64603 3.1625702 2.3509886e-038
-56.794098 295.98584 3.1135488 2.3509886e-038
-51.468365 293.19662 3.084208 2.3509886e-038
-46.508175 292.13089 3.0729973 2.3509886e-038
-41.755611 292.27478 3.0745111 2.3509886e-038
-37.053322 292.85312 3.0805945 2.3509886e-038
-32.275204 292.9147 3.0812428 2.3509886e-038
-27.430672 292.29028 3.0746739 2.3509886e-038
-22.51273 290.45544 3.0553727 2.3509886e-038
-17.392265 284.32916 2.9909291 2.3509886e-038
-12.084425 269.55823 2.8355498 2.3509886e-038
-7.307919 256.49472 2.6981318 2.3509886e-038
-3.0720446 252.78938 2.6591544 9.1476764e-041
1.0689688 255.34332 2.6860197 9.1476764e-041
5.3395844 260.14542 2.7365344 9.1476764e-041
7.9690509 263.57849 2.7726476 9.1476764e-041
-61.089092 302.22305 -1.7588586 2.3509886e-038
-57.125999 297.71558 -1.7326262 2.3509886e-038
-51.525047 293.51953 -1.7082063 2.3509886e-038
-46.4897 292.01486 -1.6994497 2.3509886e-038
-41.763985 292.33337 -1.7013031 2.3509886e-038
-37.10133 293.23257 -1.7065363 2.3509886e-038
-32.339546 293.49866 -1.7080849 2.3509886e-038
-27.479862 292.81442 -1.7041029 2.3509886e-038
-22.480772 290.04312 -1.6879746 2.3509886e-038
-17.176258 280.79791 -1.6341698 2.3509886e-038
-11.866618 264.69977 -1.5404829 2.3509886e-038
-7.2234097 253.52859 -1.4754697 2.3509886e-038
-3.0731571 252.88091 -1.4717003 9.1476764e-041
1.0814463 258.32379 -1.5033764 9.1476764e-041
5.433661 264.72885 -1.5406522 9.1476764e-041
8.4070349 267.41006 -1.5562562 9.1476764e-041
-59.492462 301.10953 -6.6721916 2.3509886e-038
-57.237617 298.29724 -6.6098752 2.3509886e-038
-51.511295 293.44116 -6.5022707 2.3509886e-038
-46.44421 291.72913 -6.464334 2.3509886e-038
-41.737698 292.14935 -6.4736462 2.3509886e-038
-37.108452 293.28885 -6.4988956 2.3509886e-038
-32.382034 293.88425 -6.5120888 2.3509886e-038
-27.517315 293.21353 -6.4972262 2.3509886e-038
-22.404673 289.06128 -6.4052181 2.3509886e-038
-16.88245 275.99472 -6.1156802 2.3509886e-038
-11.653165 259.93842 -5.7598939 2.3509886e-038
-7.1778674 251.93015 -5.5824413 2.3509886e-038
-3.0937908 254.5788 -5.6411319 9.1476764e-041
1.0983433 262.35995 -5.8135514 9.1476764e-041
5.491807 267.56174 -5.9288163 9.1476764e-041
9.7556162 264.63589 -5.8639836 9.1476764e-041
10.423472 263.88776 -5.8474059 9.1476764e-041
-58.00835 299.69495 -11.537547 2.3509886e-038
-57.345001 298.8569 -11.505284 2.3509886e-038
-51.495537 293.35141 -11.293336 2.3509886e-038
-46.378017 291.31335 -11.214874 2.3509886e-038
-41.664948 291.64014 -11.227455 2.3509886e-038
-37.052265 292.84479 -11.273832 2.3509886e-038
-32.368256 293.75919 -11.309034 2.3509886e-038
-27.50205 293.05084 -11.281765 2.3509886e-038
-22.268572 287.30533 -11.060575 2.3509886e-038
-16.58674 271.16046 -10.439036 2.3509886e-038
-11.496582 256.44565 -9.872551 2.3509886e-038
-7.1794109 251.98433 -9.7007999 2.3509886e-038
-3.1271858 257.32678 -9.9064722 9.1476764e-041
1.109755 265.08588 -10.205179 9.1476764e-041
5.4604149 266.03232 -10.241614 9.1476764e-041
9.5860062 260.03497 -10.010732 9.1476764e-041
13.611601 255.84137 -9.849288 9.1476764e-041
14.170898 255.62808 -9.8410759 9.1476764e-041
-56.986103 299.98831 -16.450344 2.3509886e-038
-51.537483 293.59036 -16.099503 2.3509886e-038
-46.272831 290.65262 -15.938409 2.3509886e-038
-41.522137 290.64053 -15.937744 2.3509886e-038
-36.888069 291.54706 -15.987455 2.3509886e-038
-32.15535 291.82697 -16.002804 2.3509886e-038
-27.207941 289.91693 -15.898064 2.3509886e-038
-21.900961 282.5625 -15.494772 2.3509886e-038
-16.289671 266.30396 -14.603209 2.3509886e-038
-11.410781 254.53174 -13.957661 2.3509886e-038
-7.2248182 253.57803 -13.905362 9.1476764e-041
-3.1665494 260.56589 -14.288552 9.1476764e-041
1.1143126 266.17456 -14.596113 9.1476764e-041
5.3875532 262.48245 -14.393651 9.1476764e-041
9.4612274 256.65018 -14.073829 9.1476764e-041
13.576163 255.17529 -13.99295 9.1476764e-041
17.757399 258.75238 -14.189105 9.1476764e-041
-55.986282 300.08264 -21.358541 2.3509886e-038
-51.581207 293.83945 -20.914179 2.3509886e-038
-46.031979 289.13977 -20.579678 2.3509886e-038
-41.164658 288.13831 -20.508396 2.3509886e-038
-36.371857 287.46716 -20.460629 2.3509886e-038
-31.351688 284.53333 -20.25181 2.3509886e-038
-26.2094 279.27692 -19.877682 2.3509886e-038
-21.061287 271.72916 -19.340467 2.3509886e-038
-15.939783 260.58395 -18.547201 2.3509886e-038
-11.398878 254.26624 -18.097534 9.1476764e-041
-7.3181348 256.85327 -18.281668 9.1476764e-041
-3.2052732 263.75235 -18.772713 9.1476764e-041
1.1103626 265.23102 -18.877958 9.1476764e-041
5.3018579 258.30737 -18.385164 9.1476764e-041
9.3741455 254.28793 -18.099079 9.1476764e-041
13.659304 256.73801 -18.273464 9.1476764e-041
18.396912 264.54288 -18.828979 9.1476764e-041
20.96254 269.22775 -19.162428 2.3509886e-038
-55.317772 301.62036 -26.396158 2.3509886e-038
-51.82906 295.25137 -25.838779 2.3509886e-038
-45.60836 286.47891 -25.071062 2.3509886e-038
-40.276997 281.92496 -24.672525 2.3509886e-038
-35.045677 276.9856 -24.240259 2.3509886e-038
-29.731283 269.82727 -23.613804 2.3509886e-038
-24.722563 263.43375 -23.054276 2.3509886e-038
-20.099815 259.3244 -22.694649 2.3509886e-038
-15.65542 255.93523 -22.398045 2.3509886e-038
-11.462008 255.67442 -22.375223 9.1476764e-041
-7.4292998 260.75497 -22.819845 9.1476764e-041
-3.2189944 264.88144 -23.180969 9.1476764e-041
1.0935444 261.21365 -22.859987 9.1476764e-041
5.2209034 254.36327 -22.260477 9.1476764e-041
9.3703852 254.18591 -22.244957 9.1476764e-041
13.927307 261.77533 -22.909142 9.1476764e-041
18.908621 271.90112 -23.795296 2.3509886e-038
23.41169 278.8125 -24.400139 2.3509886e-038
-54.27396 300.28992 -31.186159 2.3509886e-038
-51.685814 294.43536 -30.578142 2.3509886e-038
-44.545071 279.80008 -29.058218 2.3509886e-038
-38.569008 269.96964 -28.037292 2.3509886e-038
-33.216125 262.52563 -27.264208 2.3509886e-038
-28.246828 256.35504 -26.623369 2.3509886e-038
-23.754396 253.11736 -26.287123 2.3509886e-038
-19.663109 253.69009 -26.346605 2.3509886e-038
-15.710497 256.8356 -26.673277 2.3509886e-038
-11.709765 261.20096 -27.126635 9.1476764e-041
-7.5606823 265.36624 -27.559216 9.1476764e-041
-3.2034976 263.60626 -27.376432 9.1476764e-041
1.0710279 255.83514 -26.569376 9.1476764e-041
5.1732059 252.03943 -26.175177 9.1476764e-041
9.4853392 257.30423 -26.721945 9.1476764e-041
14.316585 269.09213 -27.946161 2.3509886e-038
19.377047 278.63699 -28.937428 2.3509886e-038
24.36492 283.70499 -29.463757 2.3509886e-038
24.851271 284.22531 -29.517794 2.3509886e-038
-51.680378 289.04407 -34.740906 2.3509886e-038
-49.999191 284.8273 -34.234081 2.3509886e-038
-42.584732 267.48666 -32.149872 2.3509886e-038
-36.646961 256.51599 -30.831276 2.3509886e-038
-31.815514 251.45581 -30.223082 2.3509886e-038
-27.550556 250.036 -30.052431 2.3509886e-038
-23.607256 251.54948 -30.234341 2.3509886e-038
-19.933764 257.18204 -30.911329 2.3509886e-038
-16.283121 266.19687 -31.994846 2.3509886e-038
-12.227183 272.74261 -32.781597 2.3509886e-038
-7.7124205 270.69199 -32.535126 2.3509886e-038
-3.1709151 260.92514 -31.361221 9.1476764e-041
1.0548068 251.96045 -30.283735 9.1476764e-041
5.1826053 252.49738 -30.348269 9.1476764e-041
9.7015457 263.16913 -31.630934 9.1476764e-041
14.690422 276.11871 -33.187378 2.3509886e-038
19.705465 283.35956 -34.057671 2.3509886e-038
24.598627 286.42627 -34.426266 2.3509886e-038
25.513588 287.05582 -34.501934 2.3509886e-038
-48.421364 272.02924 -37.14053 2.3509886e-038
-47.269062 269.27472 -36.764454 2.3509886e-038
-40.628551 255.19934 -34.842724 2.3509886e-038
-35.453381 248.16133 -33.881813 2.3509886e-038
-31.246397 246.95776 -33.717487 2.3509886e-038
-27.414902 248.80487 -33.969677 2.3509886e-038
-23.889874 254.56094 -34.755562 2.3509886e-038
-20.634523 266.22311 -36.347813 2.3509886e-038
-17.092392 279.42685 -38.150539 2.3509886e-038
-12.737706 284.13049 -38.792732 2.3509886e-038
-7.7897511 273.40616 -37.328522 2.3509886e-038
-3.1317267 257.70044 -35.1842 9.1476764e-041
1.0528896 251.50249 -34.337986 9.1476764e-041
5.2789268 257.19016 -35.114532 9.1476764e-041
9.9941797 271.10733 -37.01466 2.3509886e-038
14.992959 281.80515 -38.475254 2.3509886e-038
19.908354 286.27704 -39.0858 2.3509886e-038
24.744045 288.11954 -39.337364 2.3509886e-038
25.733353 288.58969 -39.401554 2.3509886e-038
-47.125122 262.14337 -40.073956 2.3509886e-038
-45.442841 258.8714 -39.573772 2.3509886e-038
-39.782578 249.88553 -38.2001 2.3509886e-038
-35.167629 246.16118 -37.630756 2.3509886e-038
-31.212179 246.68732 -37.711189 2.3509886e-038
-27.628601 250.74431 -38.331383 2.3509886e-038
-24.475857 260.80496 -39.869354 2.3509886e-038
-21.452835 276.78085 -42.311592 2.3509886e-038
-17.668137 288.83917 -44.154953 2.3509886e-038
-12.934831 288.52759 -44.107323 2.3509886e-038
-7.7721252 272.78751 -41.70113 2.3509886e-038
-3.1233623 257.01215 -39.289551 9.1476764e-041
1.0742706 256.60974 -39.228031 9.1476764e-041
5.4883652 267.39404 -40.876629 2.3509886e-038
10.330515 280.2309 -42.839008 2.3509886e-038
15.238881 286.42746 -43.786278 2.3509886e-038
20.045359 288.24713 -44.064449 2.3509886e-038
24.844749 289.29211 -44.224197 2.3509886e-038
25.836508 289.65759 -44.280067 2.3509886e-038
-48.482826 261.99268 -44.331596 2.3509886e-038
-44.980339 256.23669 -43.357632 2.3509886e-038
-39.804115 250.02083 -42.305851 2.3509886e-038
-35.458874 248.19978 -41.997711 2.3509886e-038
-31.67662 250.35805 -42.362911 2.3509886e-038
-28.351204 257.30231 -43.537945 2.3509886e-038
-25.378878 270.42715 -45.758793 2.3509886e-038
-22.132092 285.54449 -48.316784 2.3509886e-038
-17.96265 293.65384 -49.688961 2.3509886e-038
-13.052768 291.15833 -49.266697 2.3509886e-038
-7.8955674 277.12012 -46.8913 2.3509886e-038
-3.2281427 265.63425 -44.947784 2.3509886e-038
1.1286423 269.59747 -45.618401 2.3509886e-038
5.7656288 280.90237 -47.531296 2.3509886e-038
10.620931 288.10886 -48.750698 2.3509886e-038
15.42314 289.89078 -49.052212 2.3509886e-038
20.176098 290.12714 -49.092209 2.3509886e-038
24.980528 290.87314 -49.218441 2.3509886e-038
25.97681 291.25189 -49.282528 2.3509886e-038
-51.524723 265.83344 -49.324936 2.3509886e-038
-50.750687 264.49023 -49.075706 2.3509886e-038
-45.050144 256.63437 -47.618061 2.3509886e-038
-40.309307 253.19406 -46.979721 2.3509886e-038
-36.267075 253.85693 -47.102715 2.3509886e-038
-32.763432 258.94772 -48.047302 2.3509886e-038
-29.563335 268.30307 -49.783169 2.3509886e-038
-26.2659 279.87894 -51.931057 2.3509886e-038
-22.472094 289.93112 -53.796219 2.3509886e-038
-18.071554 295.43423 -54.81731 2.3509886e-038
-13.245766 295.46338 -54.82272 2.3509886e-038
-8.2406893 289.23328 -53.666733 2.3509886e-038
-3.4532824 284.16028 -52.725452 2.3509886e-038
1.2005522 286.77448 -53.21051 2.3509886e-038
5.9860516 291.64142 -54.113564 2.3509886e-038
10.798684 292.93073 -54.352791 2.3509886e-038
15.567393 292.60211 -54.291817 2.3509886e-038
20.352907 292.66959 -54.30434 2.3509886e-038
25.21723 293.6293 -54.482407 2.3509886e-038
26.200182 294.14197 -54.577538 2.3509886e-038
-55.649094 274.08878 -55.335033 2.3509886e-038
-50.811031 264.80472 -53.460701 2.3509886e-038
-45.420406 258.74359 -52.237034 2.3509886e-038
-41.104599 258.18951 -52.125179 2.3509886e-038
-37.425938 261.96857 -52.888115 2.3509886e-038
-34.020405 268.88229 -54.283913 2.3509886e-038
-30.482277 276.64294 -55.850689 2.3509886e-038
-26.609972 283.54523 -57.244171 2.3509886e-038
-22.453938 289.6969 -58.486115 2.3509886e-038
-18.039112 294.90387 -59.537334 2.3509886e-038
-13.355518 297.91156 -60.144547 2.3509886e-038
-8.4869013 297.87488 -60.137142 2.3509886e-038
-3.6076818 296.86536 -59.933331 2.3509886e-038
1.2429593 296.90421 -59.941177 2.3509886e-038
6.0921612 296.81107 -59.922375 2.3509886e-038
10.896583 295.58633 -59.675121 2.3509886e-038
15.695613 295.01212 -59.559189 2.3509886e-038
20.55047 295.5105 -59.659805 2.3509886e-038
25.504955 296.97958 -59.956394 2.3509886e-038
26.423265 297.78094 -60.118176 2.3509886e-038
-59.403236 284.46564 -62.07785 2.3509886e-038
-59.055866 283.62231 -61.893818 2.3509886e-038
-51.396637 267.85666 -58.453335 2.3509886e-038
-46.112972 262.6889 -57.3256 2.3509886e-038
-42.045528 264.09976 -57.633484 2.3509886e-038
-38.431656 269.00821 -58.704636 2.3509886e-038
-34.755009 274.68829 -59.94418 2.3509886e-038
-30.768095 279.23688 -60.936798 2.3509886e-038
-26.564541 283.06113 -61.771343 2.3509886e-038
-22.320513 287.97546 -62.843784 2.3509886e-038
-17.96047 293.61823 -64.075188 2.3509886e-038
-13.367267 298.17361 -65.06929 2.3509886e-038
-8.5640297 300.58194 -65.594841 2.3509886e-038
-3.6571629 300.93701 -65.672333 2.3509886e-038
1.2563787 300.10965 -65.491783 2.3509886e-038
6.1358294 298.9386 -65.236229 2.3509886e-038
10.974353 297.69598 -64.965065 2.3509886e-038
15.820417 297.35791 -64.891281 2.3509886e-038
20.757095 298.48172 -65.136528 2.3509886e-038
25.871614 301.24893 -65.74041 2.3509886e-038
26.822191 302.57782 -66.030403 2.3509886e-038
-60.006599 287.98367 -67.550941 2.3509886e-038
-59.928738 287.81442 -67.511238 2.3509886e-038
-52.518398 273.70276 -64.201141 2.3509886e-038
-47.122921 268.4422 -62.967197 2.3509886e-038
-42.918388 269.58246 -63.23465 2.3509886e-038
-39.024933 273.16095 -64.074043 2.3509886e-038
-34.977749 276.44873 -64.845245 2.3509886e-038
-30.751219 279.08374 -65.463318 2.3509886e-038
-26.476475 282.12274 -66.17617 2.3509886e-038
-22.230995 286.82053 -67.278107 2.3509886e-038
-17.89027 292.47061 -68.603416 2.3509886e-038
-13.342195 297.61435 -69.809959 2.3509886e-038
-8.5721807 300.86801 -70.573151 2.3509886e-038
-3.6667109 301.72269 -70.773628 2.3509886e-038
1.2606128 301.12109 -70.632515 2.3509886e-038
6.1663656 300.42633 -70.469551 2.3509886e-038
11.057516 299.95193 -70.358276 2.3509886e-038
15.977441 300.3093 -70.442101 2.3509886e-038
21.083731 303.17868 -71.115158 2.3509886e-038
26.602491 309.75925 -72.65873 2.3509886e-038
28.125126 312.75305 -73.36097 2.3509886e-038
-57.637501 289.15503 -72.550201 2.3509886e-038
-54.439781 283.71619 -71.18557 2.3509886e-038
-48.544586 276.54089 -69.385262 2.3509886e-038
-43.76656 274.91003 -68.976067 2.3509886e-038
-39.39859 275.77646 -69.193451 2.3509886e-038
-35.077976 277.24091 -69.56089 2.3509886e-038
-30.773935 279.28989 -70.074989 2.3509886e-038
-26.490538 282.27258 -70.823357 2.3509886e-038
-22.212049 286.57608 -71.90313 2.3509886e-038
-17.851515 291.83701 -73.223114 2.3509886e-038
-13.326133 297.25604 -74.582779 2.3509886e-038
-8.5803003 301.15298 -75.560532 2.3509886e-038
-3.6765485 302.5322 -75.906586 2.3509886e-038
1.2657273 302.34277 -75.859055 2.3509886e-038
6.2019081 302.15796 -75.812683 2.3509886e-038
11.149182 302.43851 -75.883072 2.3509886e-038
16.176924 304.05875 -76.289604 2.3509886e-038
21.547686 309.85022 -77.742706 2.3509886e-038
27.587845 321.2327 -80.598618 2.3509886e-038
31.135105 329.06024 -82.562576 2.3509886e-038
-51.822784 289.29456 -77.311966 2.3509886e-038
-50.466393 287.48877 -76.829376 2.3509886e-038
-44.880398 281.90637 -75.337524 2.3509886e-038
-39.920101 279.42685 -74.674881 2.3509886e-038
-35.329227 279.22665 -74.621384 2.3509886e-038
-30.949308 280.8815 -75.063629 2.3509886e-038
-26.641781 283.88416 -75.866074 2.3509886e-038
-22.299541 287.7049 -76.887131 2.3509886e-038
-17.901337 292.65149 -78.209084 2.3509886e-038
-13.372132 298.28214 -79.713837 2.3509886e-038
-8.6212873 302.59155 -80.865494 2.3509886e-038
-3.6988215 304.36499 -81.339424 2.3509886e-038
1.2748839 304.53 -81.38353 2.3509886e-038
6.2526364 304.62949 -81.41011 2.3509886e-038
11.259169 305.42203 -81.621925 2.3509886e-038
16.408079 308.4035 -82.418694 2.3509886e-038
22.028795 316.76843 -84.654167 2.3509886e-038
28.366322 330.2973 -88.269661 2.3509886e-038
35.082951 343.20969 -91.720406 2.3509886e-038
35.179718 343.37061 -91.763412 2.3509886e-038
-43.357182 288.21887 -81.733696 2.3509886e-038
-40.896046 286.25809 -81.17765 2.3509886e-038
-36.002846 284.55063 -80.693443 2.3509886e-038
-31.474731 285.65002 -81.005211 2.3509886e-038
-27.079771 288.55121 -81.827942 2.3509886e-038
-22.62711 291.93112 -82.786415 2.3509886e-038
-18.138363 296.5264 -84.089561 2.3509886e-038
-13.537363 301.96783 -85.632652 2.3509886e-038
-8.726078 306.26953 -86.852539 2.3509886e-038
-3.7452619 308.1864 -87.396133 2.3509886e-038
1.2911063 308.40503 -87.45813 2.3509886e-038
6.3321381 308.50281 -87.485847 2.3509886e-038
11.421651 309.82962 -87.862114 2.3509886e-038
16.701666 313.92175 -89.022568 2.3509886e-038
22.45513 322.89902 -91.568359 2.3509886e-038
28.796793 335.30972 -95.087814 2.3509886e-038
35.43581 346.66165 -98.307014 2.3509886e-038
38.981342 351.49591 -99.677925 2.3509886e-038
-34.714485 295.34778 -88.581009 2.3509886e-038
-32.639229 296.21841 -88.84214 2.3509886e-038
-28.069647 299.09894 -89.706062 2.3509886e-038
-23.371311 301.53268 -90.435997 2.3509886e-038
-18.643745 304.78845 -91.41246 2.3509886e-038
-13.850999 308.96387 -92.664764 2.3509886e-038
-8.9046736 312.5379 -93.736694 2.3509886e-038
-3.819685 314.31046 -94.268326 2.3509886e-038
1.3168041 314.54343 -94.338196 2.3509886e-038
6.4609923 314.78058 -94.409325 2.3509886e-038
11.676507 316.74298 -94.997879 2.3509886e-038
17.07671 320.97098 -96.265953 2.3509886e-038
22.802261 327.89069 -98.341316 2.3509886e-038
28.969252 337.31781 -101.16872 2.3509886e-038
35.501728 347.30652 -104.16454 2.3509886e-038
41.448788 354.80542 -106.4136 2.3509886e-038
-24.173038 315.20935 -99.688095 2.3509886e-038
-19.367926 316.62732 -100.13654 2.3509886e-038
-14.316193 319.34058 -100.99464 2.3509886e-038
-9.1561747 321.36514 -101.63493 2.3509886e-038
-3.91503 322.15613 -101.88508 2.3509886e-038
1.3493778 322.32428 -101.93826 2.3509886e-038
6.627171 322.87683 -102.11301 2.3509886e-038
11.977199 324.89969 -102.75277 2.3509886e-038
17.436813 327.73944 -103.65086 2.3509886e-038
23.06345 331.64651 -104.88651 2.3509886e-038
29.021215 337.92288 -106.87147 2.3509886e-038
35.367104 345.98953 -109.42263 2.3509886e-038
41.681339 353.40936 -111.76922 2.3509886e-038
-12.103713 333.24811 -110.83797 2.3509886e-038
-9.473546 332.50433 -110.59058 2.3509886e-038
-4.0257139 331.26398 -110.17805 2.3509886e-038
1.385399 330.92862 -110.06651 2.3509886e-038
6.7987442 331.2359 -110.16871 2.3509886e-038
12.252422 332.36554 -110.54442 2.3509886e-038
17.747993 333.58829 -110.95111 2.3509886e-038
23.325014 335.40775 -111.55625 2.3509886e-038
29.130413 339.19437 -112.81568 2.3509886e-038
35.2253 344.60226 -114.61433 2.3509886e-038
39.912842 348.93082 -116.05402 2.3509886e-038
-1.9818442 339.79996 -118.56907 2.3509886e-038
1.419575 339.09219 -118.3221 2.3509886e-038
6.9461746 338.41876 -118.0871 2.3509886e-038
12.475495 338.41675 -118.08641 2.3509886e-038
18.016291 338.6312 -118.16123 2.3509886e-038
23.603827 339.41699 -118.43542 2.3509886e-038
29.328896 341.50549 -119.16419 2.3509886e-038
35.2262 344.61108 -120.24785 2.3509886e-038
36.190994 345.17545 -120.44478 2.3509886e-038
12.003458 343.18088 -125.35602 2.3509886e-038
12.649425 343.13486 -125.33921 2.3509886e-038
18.23843 342.80652 -125.21927 2.3509886e-038
23.846216 342.9025 -125.25433 2.3509886e-038
25.000484 343.03012 -125.30094 2.3509886e-038
-74.845985 290.96124 67.22998 2.3509528e-038
-75.276039 292.63306 45.757801 2.3509528e-038
-69.875031 290.06064 65.498924 2.3509528e-038
-70.753296 293.70645 30.497671 2.3509528e-038
-65.111122 289.95105 58.060917 2.3509528e-038
-67.203857 299.27032 17.410767 2.3509886e-038
-60.561619 290.85388 46.892796 2.3509528e-038
-62.503414 300.17957 4.0706882 2.3509886e-038
-58.930309 283.01935 -60.967804 2.3509886e-038
-59.955925 287.94498 -67.653976 2.3509886e-038
-56.568573 294.81052 37.592289 2.3509528e-038
-57.520443 299.77121 -13.774894 2.3509886e-038
-50.807606 264.78687 -48.276794 2.3509886e-038
-55.578518 289.65076 -74.751869 2.3509886e-038
-52.257465 297.69186 28.701729 2.3509528e-038
-50.766205 289.19666 -77.925751 2.3509886e-038
-46.982014 295.10721 18.778893 2.3509528e-038
-45.934296 288.52621 -80.456749 2.3509886e-038
-41.938023 293.55157 12.505895 2.3509528e-038
-41.236031 288.63788 -83.007896 2.3509886e-038
-37.182392 293.87326 11.19746 2.3509886e-038
-36.942997 291.98117 -86.361259 2.3509886e-038
-32.760448 297.31857 16.173885 2.3509886e-038
-32.945072 298.99408 -90.62735 2.3509886e-038
-26.54134 282.8139 82.126717 2.3418052e-038
-28.928442 308.24991 -95.478851 2.3509886e-038
-21.675705 279.65628 84.741821 2.3418052e-038
-24.409075 314.92172 -99.501694 2.3509886e-038
-17.125298 279.96481 82.779961 2.3418052e-038
-19.673332 321.62015 -103.56126 2.3509886e-038
-12.878596 287.27319 40.420135 2.3509886e-038
-14.787485 329.85336 -108.38541 2.3509886e-038
-7.6145349 267.25638 17.543135 2.3509886e-038
-9.5544243 335.34299 -112.87882 2.3509886e-038
-3.1381729 258.23087 16.935831 2.3509886e-038
-4.1139646 338.52585 -116.95732 2.3509886e-038
1.0756652 256.94287 16.91449 2.3509886e-038
1.4292244 341.39713 -120.90252 2.3509886e-038
5.2992506 258.18036 15.480824 9.1476764e-041
7.0314531 342.57355 -123.72674 2.3509886e-038
9.7969799 265.75793 -4.9453769 9.1476764e-041
12.652512 343.2186 -125.48089 2.3509886e-038
13.62585 256.10922 -9.2516661 9.1476764e-041
18.259596 343.20432 -125.96032 2.3509886e-038
18.042307 259.44376 -14.565086 9.1476764e-041
23.854012 343.01459 -125.48494 2.3509886e-038
24.199913 281.78363 -26.800167 2.3509886e-038
29.492105 343.40594 -124.24422 2.3509886e-038
35.068832 343.07159 -91.531456 2.3509886e-038
35.242661 344.77213 -121.26777 2.3509886e-038
