# .PCD v0.7 - Point Cloud Data file format
VERSION 0.7
FIELDS x y z rgb
SIZE 4 4 4 4
TYPE F F F F
COUNT 1 1 1 1
WIDTH 883
HEIGHT 1
VIEWPOINT 0 0 0 1 0 0 0
POINTS 883
DATA ascii
-20.511189 290.33862 80.677345 2.3418052e-038
-103.63469 265.1138 -33.71249 9.1476764e-041
19.362425 274.07773 67.123077 3.5733111e-043
-67.301674 291.6319 61.807659 2.3509528e-038
56.311649 265.69965 27.53014 2.3418409e-038
-23.214062 290.24905 85.016769 2.3418052e-038
-22.87953 290.13821 84.984306 2.3418052e-038
-18.243629 289.58273 84.821602 2.3418052e-038
-25.898815 293.17621 81.078773 2.3418052e-038
-22.968832 291.27066 80.551796 2.3418052e-038
-18.137884 290.20294 80.256516 2.3418052e-038
-15.816875 290.23395 80.265083 2.3418052e-038
-26.597118 294.54062 76.638412 2.3418052e-038
-22.991028 291.55212 75.860817 2.3418052e-038
-18.139744 290.23273 75.517509 2.3418052e-038
-14.583589 290.62964 75.620789 2.3418052e-038
14.885166 274.55084 71.437149 3.5733111e-043
18.674623 273.21008 71.088287 3.5733111e-043
22.358181 274.16492 71.336731 3.5733111e-043
-26.721172 294.32999 71.769356 2.3418052e-038
-22.96489 291.22067 71.011177 2.3418052e-038
-18.120516 289.92508 70.695259 2.3418052e-038
-13.840571 290.79639 70.907722 2.3418052e-038
12.449804 276.70642 67.472023 3.5733111e-043
14.317542 275.35876 67.143417 3.5733111e-043
18.720016 273.87418 66.78141 3.5733111e-043
23.324711 275.35013 67.141312 3.5733111e-043
23.869314 275.83881 67.260468 3.5733111e-043
-71.86158 294.69635 67.038437 2.3509528e-038
-71.337616 294.26797 66.940994 2.3509528e-038
-65.728981 290.74957 66.140617 2.3509528e-038
-63.983673 290.1962 66.014732 2.3509528e-038
-26.682684 293.66455 66.803719 2.3418052e-038
-22.921238 290.66711 66.121857 2.3418052e-038
-18.094315 289.50583 65.857689 2.3418052e-038
-13.505234 290.53006 66.090675 2.3418052e-038
11.181821 277.5195 63.130989 3.5733111e-043
14.339054 275.77249 62.733574 3.5733111e-043
18.798103 275.01657 62.561623 3.5733111e-043
23.432837 276.62656 62.927864 3.5733111e-043
24.01663 277.25638 63.07114 3.5733111e-043
-73.597748 295.52365 62.392853 2.3509528e-038
-71.166901 293.56378 61.979073 2.3509528e-038
-65.703163 290.63538 61.360809 2.3509528e-038
-60.925232 290.52042 61.336544 2.3509528e-038
-60.552502 290.67487 61.369148 2.3509528e-038
-26.587685 292.3457 61.721905 2.3418052e-038
-22.845642 289.7085 61.165119 2.3418052e-038
-18.052696 288.83997 60.98175 2.3418052e-038
-13.396101 290.31064 61.292252 2.3418052e-038
-13.354992 290.35034 61.300632 2.3418052e-038
10.223061 277.3739 58.560963 3.5733111e-043
14.338799 275.76761 58.221828 3.5733111e-043
18.877134 276.17279 58.307377 3.5733111e-043
23.622732 279.40851 58.990524 3.5733111e-043
-72.963783 294.03741 57.269592 2.3509528e-038
-70.974609 292.7706 57.022858 2.3509528e-038
-65.717484 290.69873 56.61932 2.3509528e-038
-60.98476 290.80429 56.639881 2.3509528e-038
-58.549568 292.09015 56.890327 2.3509528e-038
-26.591181 291.39264 56.754471 2.3418052e-038
-22.792067 289.02908 56.294125 2.3418052e-038
-18.019875 288.31485 56.15501 2.3418052e-038
-13.375331 289.8605 56.456062 2.3418052e-038
-13.1093 290.06097 56.495106 2.3418052e-038
9.2677765 276.88681 53.92918 3.5733111e-043
9.8564014 276.55994 53.865513 3.5733111e-043
14.319928 275.40466 53.640499 3.5733111e-043
18.91334 276.70248 53.893276 3.5733111e-043
22.794781 280.50073 54.63306 3.5733111e-043
-71.761406 293.31879 52.331909 2.3509528e-038
-70.990044 292.83423 52.245461 2.3509528e-038
-65.718666 290.70395 51.865391 2.3509528e-038
-60.937248 290.57773 51.842873 2.3509528e-038
-56.592648 292.45502 52.177807 2.3509528e-038
-26.838259 291.41513 51.992275 2.3418052e-038
-22.778339 288.85501 51.535519 2.3418052e-038
-17.99592 287.93155 51.370762 2.3418052e-038
-13.322808 288.72229 51.511837 2.3418052e-038
-12.525943 289.04492 51.569397 2.3418052e-038
8.1605654 277.01895 49.423809 3.5733111e-043
9.8434315 276.19604 49.276989 3.5733111e-043
14.319307 275.3927 49.133667 3.5733111e-043
18.926428 276.89398 49.401512 3.5733111e-043
21.663033 279.38449 49.845852 3.5733111e-043
-70.456123 293.20538 47.515831 2.3509528e-038
-65.734146 290.77243 47.121559 2.3509528e-038
-60.840984 290.11868 47.015614 2.3509528e-038
-56.259869 290.9682 47.153282 2.3509528e-038
-54.438046 291.97739 47.316822 2.3509528e-038
-27.284618 292.2988 47.368916 2.3418052e-038
-22.788126 288.97913 46.830936 2.3418052e-038
-17.984358 287.74658 46.631195 2.3418052e-038
-13.278077 287.75293 46.632225 2.3418052e-038
-11.753728 287.95303 46.66465 2.3509886e-038
6.8034983 277.89517 45.034714 3.5733111e-043
9.8535519 276.48001 44.805378 3.5733111e-043
14.356198 276.1022 44.744152 3.5733111e-043
19.001842 277.99728 45.051262 3.5733111e-043
20.700935 279.39685 45.278072 3.5733111e-043
-69.235275 293.19003 42.717731 2.3509528e-038
-65.796692 291.04913 42.405804 2.3509528e-038
-60.753029 289.69928 42.209133 2.3509528e-038
-56.070122 289.98688 42.251034 2.3509528e-038
-52.321583 291.80908 42.516529 2.3509528e-038
-27.430368 292.97806 42.686848 2.3418052e-038
-22.811087 289.27029 42.146626 2.3418052e-038
-17.999908 287.99536 41.960873 2.3418052e-038
-13.281084 287.81808 41.935043 2.3418052e-038
-11.151933 287.94867 41.954067 2.3509886e-038
5.1946335 278.90332 40.636158 3.5733111e-043
5.375483 278.77335 40.617226 3.5733111e-043
9.8586102 276.62195 40.303768 3.5733111e-043
14.390395 276.75989 40.323864 3.5733111e-043
19.117439 279.68848 40.750561 3.5733111e-043
20.097473 280.71957 40.900787 3.5733111e-043
-68.169296 293.22476 37.926609 2.3509528e-038
-65.91684 291.58057 37.713943 2.3509528e-038
-60.689507 289.39636 37.431435 2.3509528e-038
-55.933006 289.27774 37.416088 2.3509528e-038
-51.557606 291.29028 37.676399 2.3509528e-038
-50.509762 292.38751 37.818321 2.3509528e-038
-27.177694 293.13934 37.915562 2.3418052e-038
-22.858938 289.87708 37.493614 2.3418052e-038
-18.040733 288.64859 37.334713 2.3418052e-038
-13.311276 288.47238 37.311924 2.3418052e-038
-10.864083 288.71844 37.343746 2.3509886e-038
3.6044312 280.11441 36.230877 3.5733111e-043
5.3729739 278.64322 36.040588 3.5733111e-043
9.8488836 276.349 35.743847 3.5733111e-043
14.379901 276.55807 35.770889 3.5733111e-043
19.149504 280.15759 36.236462 3.5733111e-043
19.72842 280.94577 36.338409 3.5733111e-043
-67.032318 293.39069 33.149181 2.3509528e-038
-66.169319 292.69742 33.070854 2.3509528e-038
-60.726795 289.57422 32.717968 2.3509528e-038
-55.885231 289.03064 32.656555 2.3509528e-038
-51.459743 290.7374 32.849392 2.3509528e-038
-48.857117 293.14536 33.121464 2.3509528e-038
-26.963928 293.95361 33.212784 2.3418052e-038
-22.936228 290.85724 32.862934 2.3418052e-038
-18.080526 289.28528 32.685326 2.3418052e-038
-13.334362 288.97269 32.650005 2.3418052e-038
-10.859818 289.43646 32.702408 2.3509886e-038
2.1598439 282.16879 31.881262 3.5733111e-043
5.3794546 278.97931 31.520887 3.5733111e-043
9.8485689 276.34018 31.222704 3.5733111e-043
14.362798 276.22916 31.210159 3.5733111e-043
19.122957 279.7692 31.610134 3.5733111e-043
19.182726 279.86093 31.620502 3.5733111e-043
52.73349 266.15488 30.071905 2.3418409e-038
53.007885 266.09595 30.065245 2.3418409e-038
57.352188 266.05817 30.060976 2.3418409e-038
60.704998 267.05557 30.17367 2.3418409e-038
-65.89994 294.72177 28.478912 2.3509528e-038
-61.033501 291.03671 28.122828 2.3509528e-038
-55.973305 289.48618 27.972996 2.3509528e-038
-51.412632 290.47122 28.068184 2.3509528e-038
-47.237301 294.05566 28.414547 2.3509528e-038
-47.201935 294.10736 28.41954 2.3509528e-038
-26.918304 294.79672 28.486155 2.3418052e-038
-22.988844 291.52444 28.169954 2.3418052e-038
-18.087471 289.39636 27.964319 2.3418052e-038
-13.330774 288.89493 27.915865 2.3509886e-038
-10.959034 289.50232 27.974558 2.3509886e-038
0.72329766 284.41086 27.482571 3.5733111e-043
0.83178318 284.27643 27.469582 3.5733111e-043
5.3912897 279.59305 27.017027 3.5733111e-043
9.8735781 277.0419 26.77051 3.5733111e-043
14.407692 277.09256 26.775402 3.5733111e-043
18.242125 279.72278 27.029562 3.5733111e-043
48.295288 268.02118 25.898836 2.3418409e-038
48.936646 267.63382 25.861408 2.3418409e-038
53.090099 266.50864 25.752682 2.3418409e-038
57.546001 266.95728 25.796036 2.3418409e-038
60.572487 268.20026 25.916142 2.3418409e-038
-64.625793 296.31006 23.785742 2.3509528e-038
-61.512878 293.32263 23.545933 2.3509528e-038
-56.151455 290.4075 23.311926 2.3509528e-038
-51.40696 290.43918 23.314468 2.3509528e-038
-46.974766 292.42136 23.473585 2.3509528e-038
-45.045311 293.89636 23.591986 2.3509528e-038
-27.292324 295.62436 23.730698 2.3418052e-038
-23.01362 291.83862 23.426805 2.3418052e-038
-18.084288 289.34543 23.226671 2.3509886e-038
-13.318946 288.63858 23.16993 2.3509886e-038
-10.703441 289.13019 23.209391 2.3509886e-038
-1.0437518 286.35394 22.986532 2.3509886e-038
0.83201164 284.35452 22.826033 3.5733111e-043
5.4085484 280.4881 22.515663 3.5733111e-043
9.9279404 278.56726 22.361473 3.5733111e-043
14.530064 279.44604 22.432014 3.5733111e-043
16.809801 281.21515 22.574028 3.5733111e-043
44.385197 269.67059 21.64731 2.3418409e-038
44.847218 269.36462 21.622747 2.3418409e-038
48.911213 267.49475 21.472647 2.3418409e-038
53.192009 267.02023 21.434555 2.3418409e-038
57.813423 268.19788 21.529087 2.3418409e-038
58.693855 268.77261 21.575224 2.3418409e-038
-62.754639 296.06577 18.923485 2.3509528e-038
-61.904297 295.18909 18.867451 2.3509528e-038
-56.339546 291.38031 18.624008 2.3509528e-038
-51.436623 290.60678 18.574564 2.3509528e-038
-46.771286 291.15469 18.609585 2.3509528e-038
-42.198727 292.46985 18.693645 2.3509528e-038
-41.856861 292.63565 18.704243 2.3509528e-038
-28.728373 296.21887 18.93327 2.3509886e-038
-28.151653 295.66711 18.898005 2.3509886e-038
-23.009186 291.78241 18.649706 2.3509886e-038
-18.094658 289.51135 18.504549 2.3509886e-038
-13.319758 288.65622 18.449892 2.3509886e-038
-9.0107393 288.98279 18.470764 2.3509886e-038
-4.1240916 288.28702 18.426294 2.3509886e-038
-3.8700631 288.15057 18.417572 2.3509886e-038
0.83327377 284.78586 18.202513 2.3509886e-038
5.4362578 281.92514 18.019665 3.5733111e-043
10.003009 280.67358 17.939671 3.5733111e-043
14.681826 282.36475 18.047764 3.5733111e-043
15.118058 282.77496 18.073982 3.5733111e-043
39.923428 270.88055 17.313734 2.3418409e-038
40.610481 270.49142 17.288862 2.3418409e-038
44.742207 268.73392 17.176529 2.3418409e-038
48.945313 267.68121 17.109243 2.3418409e-038
53.331284 267.71936 17.111681 2.3418409e-038
55.999863 268.73404 17.176537 2.3418409e-038
-60.543289 295.26364 14.042688 2.3509528e-038
-56.569439 292.56927 13.914544 2.3509528e-038
-51.515038 291.0498 13.842279 2.3509528e-038
-46.672901 290.54224 13.818139 2.3509528e-038
-41.952118 290.76068 13.828528 2.3509528e-038
-37.423771 292.53931 13.913118 2.3509886e-038
-32.845135 294.38858 14.001071 2.3509886e-038
-27.909781 293.1268 13.94106 2.3509886e-038
-22.978739 291.3963 13.858757 2.3509886e-038
-18.129721 290.07236 13.795792 2.3509886e-038
-13.341823 289.13434 13.75118 2.3509886e-038
-8.5995188 288.69693 13.730375 2.3509886e-038
-3.8654153 287.8045 13.687933 2.3509886e-038
0.83598489 285.71246 13.588435 2.3509886e-038
5.4712701 283.74088 13.494668 2.3509886e-038
10.083972 282.94534 13.456832 3.5733111e-043
13.815766 283.96854 13.505495 3.5733111e-043
35.501244 273.77997 13.020928 2.3418409e-038
36.497292 272.81723 12.975141 2.3418409e-038
40.563026 270.17532 12.849492 2.3418409e-038
44.755432 268.81335 12.784716 2.3418409e-038
49.093407 268.49115 12.769393 2.3418409e-038
53.095833 269.38672 12.811986 2.3418409e-038
-58.53899 295.64236 9.2249775 2.3509528e-038
-56.93655 294.46793 9.1883307 2.3509528e-038
-51.666245 291.90408 9.1083307 2.3509528e-038
-46.662617 290.47824 9.0638399 2.3509528e-038
-41.840179 289.98489 9.0484457 2.3509886e-038
-37.151066 290.40756 9.0616341 2.3509886e-038
-32.468189 291.01004 9.0804338 2.3509886e-038
-27.712811 291.05811 9.081934 2.3509886e-038
-22.948547 291.01346 9.0805407 2.3509886e-038
-18.167372 290.67474 9.069972 2.3509886e-038
-13.370587 289.75772 9.041358 2.3509886e-038
-8.5997772 288.7056 9.0085278 2.3509886e-038
-3.8647306 287.75354 8.9788218 2.3509886e-038
0.83825362 286.48782 8.9393263 2.3509886e-038
5.4954891 284.99686 8.8928041 2.3509886e-038
10.135489 284.39087 8.8738947 2.3509886e-038
13.4916 285.09195 8.895771 2.3509886e-038
31.110945 276.57062 8.629878 2.3418409e-038
32.374805 275.71185 8.6030817 2.3418409e-038
36.532524 273.08063 8.5209799 2.3418409e-038
40.653824 270.78012 8.4491959 2.3418409e-038
44.87405 269.52579 8.410058 2.3418409e-038
49.457611 270.48297 8.4399233 2.3418409e-038
50.280754 271.05832 8.4578772 2.3418409e-038
-56.802811 296.52667 4.4023838 2.3509528e-038
-51.847435 292.92776 4.3489523 2.3509528e-038
-46.691307 290.6568 4.3152366 2.3509886e-038
-41.836227 289.95749 4.3048544 2.3509886e-038
-37.107971 290.07068 4.3065348 2.3509886e-038
-32.38805 290.29175 4.3098168 2.3509886e-038
-27.659628 290.49954 4.312902 2.3509886e-038
-22.935078 290.84262 4.3179951 2.3509886e-038
-18.179476 290.86844 4.3183784 2.3509886e-038
-13.386896 290.11115 4.3071356 2.3509886e-038
-8.6091261 289.01944 4.2909274 2.3509886e-038
-3.8696692 288.12125 4.2775927 2.3509886e-038
0.83988577 287.04565 4.2616234 2.3509886e-038
5.5048833 285.48404 4.2384391 2.3509886e-038
10.142094 284.57617 4.2249608 2.3509886e-038
14.815988 284.94501 4.2304363 2.3509886e-038
15.224848 284.95703 4.2306147 2.3509886e-038
25.645575 278.992 4.142055 2.3418409e-038
28.044355 277.48569 4.1196918 2.3418409e-038
32.392578 275.86319 4.0956035 2.3418409e-038
36.695633 274.29984 4.0723929 2.3418409e-038
40.895786 272.39172 4.0440645 2.3418409e-038
45.174747 271.33188 4.0283294 2.3418409e-038
47.153831 271.77365 4.0348873 2.3418409e-038
-55.215694 296.32935 -0.44750533 2.3509886e-038
-51.941059 293.45673 -0.44316724 2.3509886e-038
-46.670456 290.52701 -0.43874288 2.3509886e-038
-41.818676 289.83582 -0.43769902 2.3509886e-038
-37.118744 290.15491 -0.43818092 2.3509886e-038
-32.400822 290.40622 -0.43856046 2.3509886e-038
-27.662004 290.52451 -0.43873909 2.3509886e-038
-22.92598 290.72726 -0.43904525 2.3509886e-038
-18.171135 290.73499 -0.43905693 2.3509886e-038
-13.391701 290.21527 -0.43827212 2.3509886e-038
-8.6241999 289.52548 -0.43723041 2.3509886e-038
-3.8810627 288.96957 -0.43639088 2.3509886e-038
0.84275115 288.02493 -0.4349643 2.3509886e-038
5.521091 286.32458 -0.4323965 2.3509886e-038
10.150129 284.80164 -0.4300966 2.3509886e-038
14.755726 283.78604 -0.42856291 2.3509886e-038
19.281437 282.08777 -0.42599824 2.3418409e-038
23.718161 279.99484 -0.42283759 2.3418409e-038
28.142197 278.4538 -0.42051035 2.3418409e-038
32.584141 277.4946 -0.41906184 2.3418409e-038
36.991772 276.51349 -0.41758016 2.3418409e-038
41.343086 275.371 -0.41585484 2.3418409e-038
44.053997 275.42783 -0.41594061 2.3418409e-038
-53.944305 295.12234 -5.2728996 2.3509886e-038
-51.923271 293.35623 -5.2413445 2.3509886e-038
-46.601692 290.09897 -5.1831479 2.3509886e-038
-41.748192 289.34732 -5.1697183 2.3509886e-038
-37.088558 289.91895 -5.1799316 2.3509886e-038
-32.400955 290.40744 -5.1886592 2.3509886e-038
-27.670614 290.61493 -5.1923666 2.3509886e-038
-22.922623 290.68466 -5.1936126 2.3509886e-038
-18.162664 290.59943 -5.1920896 2.3509886e-038
-13.395659 290.30109 -5.186759 2.3509886e-038
-8.6411324 290.09393 -5.1830578 2.3509886e-038
-3.8944514 289.96643 -5.1807799 2.3509886e-038
0.84653521 289.31821 -5.169198 2.3509886e-038
5.5521564 287.93564 -5.144496 2.3509886e-038
10.206079 286.37149 -5.11655 2.3509886e-038
14.805858 284.75018 -5.0875821 2.3509886e-038
19.335497 282.87866 -5.0541439 2.3418409e-038
23.835257 281.37717 -5.027317 2.3418409e-038
28.342606 280.43677 -5.0105147 2.3418409e-038
32.845554 279.72086 -4.9977236 2.3418409e-038
37.365253 279.30524 -4.9902983 2.3418409e-038
40.526257 279.96652 -5.0021129 2.3418409e-038
-53.365467 294.72009 -10.086349 2.3509886e-038
-51.933617 293.41467 -10.041675 2.3509886e-038
-46.547276 289.76019 -9.916605 2.3509886e-038
-41.675884 288.84616 -9.8853235 2.3509886e-038
-37.045647 289.5835 -9.9105587 2.3509886e-038
-32.403332 290.42874 -9.9394846 2.3509886e-038
-27.697447 290.89673 -9.9555016 2.3509886e-038
-22.939865 290.90332 -9.9557276 2.3509886e-038
-18.170189 290.71985 -9.9494476 2.3509886e-038
-13.403537 290.4718 -9.940959 2.3509886e-038
-8.6497545 290.38336 -9.937932 2.3509886e-038
-3.9006178 290.42557 -9.9393759 2.3509886e-038
0.8491658 290.21725 -9.9322472 2.3509886e-038
5.5831127 289.54105 -9.9091043 2.3509886e-038
10.276799 288.35587 -9.8685436 2.3509886e-038
14.912356 286.7984 -9.8152409 2.3509886e-038
19.472893 284.88876 -9.7498875 2.3418409e-038
23.999275 283.31342 -9.6959743 2.3418409e-038
28.548189 282.47089 -9.6671391 2.3418409e-038
33.132217 282.16217 -9.6565733 2.3418409e-038
36.926048 282.97409 -9.6843605 2.3418409e-038
-53.195667 294.34787 -14.888161 2.3509886e-038
-51.875725 293.08762 -14.824415 2.3509886e-038
-46.469063 289.27332 -14.631489 2.3509886e-038
-41.610611 288.39377 -14.587 2.3509886e-038
-37.014614 289.34094 -14.634909 2.3509886e-038
-32.420731 290.58472 -14.697819 2.3509886e-038
-27.730642 291.24536 -14.731235 2.3509886e-038
-22.960722 291.16782 -14.727313 2.3509886e-038
-18.188894 291.0191 -14.71979 2.3509886e-038
-13.419523 290.81821 -14.709629 2.3509886e-038
-8.6562433 290.60126 -14.698655 2.3509886e-038
-3.9019988 290.52838 -14.69497 2.3509886e-038
0.85009068 290.53336 -14.695222 2.3509886e-038
5.5992022 290.37543 -14.687234 2.3509886e-038
10.322392 289.63516 -14.64979 2.3509886e-038
14.990235 288.2962 -14.582065 2.3509886e-038
19.581995 286.48495 -14.490453 2.3509886e-038
24.127211 284.82373 -14.406426 2.3418409e-038
28.71302 284.10181 -14.369912 2.3418409e-038
33.425232 284.65753 -14.398022 2.3418409e-038
34.376873 285.14023 -14.422436 2.3418409e-038
-53.350121 293.42258 -19.640772 2.3509886e-038
-51.656933 291.85147 -19.535606 2.3509886e-038
-46.303574 288.24313 -19.294077 2.3509886e-038
-41.484478 287.51956 -19.245644 2.3509886e-038
-36.942886 288.78024 -19.330029 2.3509886e-038
-32.410118 290.48959 -19.444447 2.3509886e-038
-27.742661 291.37158 -19.503485 2.3509886e-038
-22.98452 291.4696 -19.510046 2.3509886e-038
-18.222536 291.5574 -19.515924 2.3509886e-038
-13.449091 291.45898 -19.509336 2.3509886e-038
-8.6717472 291.12173 -19.486761 2.3509886e-038
-3.9075437 290.94122 -19.47468 2.3509886e-038
0.85149729 291.01407 -19.479553 2.3509886e-038
5.6106873 290.97107 -19.476677 2.3509886e-038
10.349121 290.38513 -19.437454 2.3509886e-038
15.028757 289.03705 -19.347219 2.3509886e-038
19.638353 287.30948 -19.231581 2.3509886e-038
24.223602 285.96161 -19.141357 2.3509886e-038
28.87104 285.66537 -19.121529 2.3418409e-038
32.63385 286.48944 -19.176689 2.3418409e-038
-54.355076 293.15161 -24.417616 2.3509886e-038
-51.428173 290.55902 -24.201672 2.3509886e-038
-46.149647 287.28494 -23.928961 2.3509886e-038
-41.35437 286.61783 -23.873394 2.3509886e-038
-36.837738 287.95828 -23.985046 2.3509886e-038
-32.35936 290.03464 -24.157993 2.3509886e-038
-27.74279 291.37296 -24.269464 2.3509886e-038
-23.023071 291.9585 -24.318237 2.3509886e-038
-18.272266 292.35303 -24.351099 2.3509886e-038
-13.490407 292.35437 -24.351212 2.3509886e-038
-8.6970615 291.97156 -24.319326 2.3509886e-038
-3.9186659 291.76935 -24.302485 2.3509886e-038
0.85413826 291.91666 -24.314754 2.3509886e-038
5.6286559 291.90292 -24.31361 2.3509886e-038
10.385118 291.39517 -24.271315 2.3509886e-038
15.081028 290.04233 -24.158634 2.3509886e-038
19.717203 288.46301 -24.027088 2.3509886e-038
24.355207 287.51523 -23.948143 2.3509886e-038
29.079926 287.73218 -23.966213 2.3509886e-038
31.60774 288.58798 -24.037497 2.3509886e-038
-56.812447 293.64438 -29.261705 2.3509886e-038
-56.769444 293.60367 -29.257648 2.3509886e-038
-51.177174 289.14093 -28.812935 2.3509886e-038
-46.053497 286.68643 -28.568342 2.3509886e-038
-41.30064 286.24542 -28.524399 2.3509886e-038
-36.765781 287.39581 -28.639034 2.3509886e-038
-32.304455 289.54251 -28.852955 2.3509886e-038
-27.750076 291.44949 -29.042984 2.3509886e-038
-23.076256 292.63293 -29.160915 2.3509886e-038
-18.334322 293.34592 -29.231964 2.3509886e-038
-13.538965 293.40671 -29.23802 2.3509886e-038
-8.7253265 292.92044 -29.189564 2.3509886e-038
-3.9303358 292.63828 -29.161446 2.3509886e-038
0.85694635 292.8764 -29.185175 2.3509886e-038
5.6505694 293.03934 -29.201414 2.3509886e-038
10.432811 292.73337 -29.170923 2.3509886e-038
15.158072 291.52405 -29.050413 2.3509886e-038
19.830519 290.12085 -28.910583 2.3509886e-038
24.510231 289.34531 -28.8333 2.3509886e-038
29.307169 289.98065 -28.896612 2.3509886e-038
31.175533 290.96396 -28.9946 2.3509886e-038
-110.2915 267.11154 -30.986755 9.1476764e-041
-107.96929 265.9404 -30.850897 9.1476764e-041
-103.19633 264.85461 -30.724937 9.1476764e-041
-98.992043 265.19711 -30.764669 9.1476764e-041
-94.995117 266.15198 -30.875439 9.1476764e-041
-91.345619 268.21869 -31.115194 9.1476764e-041
-87.842949 270.94687 -31.431679 2.3509886e-038
-84.33448 273.94611 -31.779613 2.3509886e-038
-82.482323 275.82986 -31.998138 2.3509886e-038
-61.287189 292.6568 -33.950184 2.3509886e-038
-55.96487 289.44254 -33.577305 2.3509886e-038
-50.823997 287.14557 -33.310837 2.3509886e-038
-45.970856 286.17197 -33.197899 2.3509886e-038
-41.305347 286.27808 -33.210201 2.3509886e-038
-36.752476 287.29184 -33.327808 2.3509886e-038
-32.276016 289.28763 -33.559334 2.3509886e-038
-27.76158 291.57031 -33.824139 2.3509886e-038
-23.131315 293.33112 -34.028408 2.3509886e-038
-18.401192 294.41586 -34.154243 2.3509886e-038
-13.591622 294.54782 -34.169552 2.3509886e-038
-8.7562733 293.95938 -34.101288 2.3509886e-038
-3.94315 293.59238 -34.058712 2.3509886e-038
0.85978132 293.84531 -34.088055 2.3509886e-038
5.6698475 294.03912 -34.110538 2.3509886e-038
10.468191 293.7261 -34.074226 2.3509886e-038
15.209259 292.50851 -33.93298 2.3509886e-038
19.900204 291.14035 -33.774261 2.3509886e-038
24.60289 290.43912 -33.692917 2.3509886e-038
29.446281 291.35709 -33.799408 2.3509886e-038
31.050205 292.38782 -33.918976 2.3509886e-038
-112.42574 268.06985 -35.482655 9.1476764e-041
-107.82254 265.57892 -35.15295 9.1476764e-041
-103.08044 264.55716 -35.017704 9.1476764e-041
-98.795853 264.67151 -35.032837 9.1476764e-041
-94.732323 265.41568 -35.13134 9.1476764e-041
-90.994904 267.18887 -35.366047 9.1476764e-041
-87.41832 269.63712 -35.690102 9.1476764e-041
-83.811317 272.2467 -36.035519 9.1476764e-041
-80.209778 275.16785 -36.422173 9.1476764e-041
-76.607628 278.43417 -36.854511 2.3509886e-038
-72.793884 281.29568 -37.233273 2.3509886e-038
-68.786118 283.74301 -37.557209 2.3509886e-038
-64.723221 286.30066 -37.895748 2.3509886e-038
-60.130283 286.72977 -37.952545 2.3509886e-038
-55.333607 286.17773 -37.879475 2.3509886e-038
-50.596958 285.86282 -37.837795 2.3509886e-038
-45.941097 285.98669 -37.854191 2.3509886e-038
-41.32531 286.41641 -37.911068 2.3509886e-038
-36.760315 287.35309 -38.035053 2.3509886e-038
-32.260876 289.15195 -38.273151 2.3509886e-038
-27.761108 291.56537 -38.592602 2.3509886e-038
-23.170139 293.82349 -38.891495 2.3509886e-038
-18.453539 295.25336 -39.080761 2.3509886e-038
-13.639935 295.59482 -39.125954 2.3509886e-038
-8.795022 295.26022 -39.081665 2.3509886e-038
-3.9626999 295.04797 -39.053574 2.3509886e-038
0.8635447 295.1315 -39.064632 2.3509886e-038
5.6863928 294.89716 -39.033611 2.3509886e-038
10.483471 294.15485 -38.935356 2.3509886e-038
15.218869 292.69333 -38.741901 2.3509886e-038
19.910576 291.29208 -38.556431 2.3509886e-038
24.622341 290.66876 -38.473927 2.3509886e-038
29.478062 291.67154 -38.606659 2.3509886e-038
30.997887 292.62228 -38.732502 2.3509886e-038
-110.24319 269.10617 -40.021503 9.1476764e-041
-109.00517 268.49188 -39.930149 9.1476764e-041
-104.03322 267.00247 -39.708641 9.1476764e-041
-99.483002 266.51236 -39.635754 9.1476764e-041
-95.192429 266.70477 -39.664368 9.1476764e-041
-91.20105 267.79419 -39.826385 9.1476764e-041
-87.369583 269.48679 -40.07811 9.1476764e-041
-83.572495 271.47092 -40.373188 9.1476764e-041
-79.79213 273.73508 -40.709915 9.1476764e-041
-75.96051 276.08218 -41.058979 9.1476764e-041
-71.97963 278.1492 -41.366383 9.1476764e-041
-67.887253 280.03522 -41.646877 9.1476764e-041
-63.746899 281.98193 -41.93639 2.3509886e-038
-59.421017 283.34763 -42.139496 2.3509886e-038
-54.999413 284.44931 -42.303337 2.3509886e-038
-50.492447 285.27237 -42.425743 2.3509886e-038
-45.907261 285.77609 -42.500656 2.3509886e-038
-41.307766 286.29483 -42.577805 2.3509886e-038
-36.741722 287.20776 -42.713573 2.3509886e-038
-32.219868 288.78436 -42.948048 2.3509886e-038
-27.730148 291.24017 -43.313278 2.3509886e-038
-23.1754 293.89017 -43.707386 2.3509886e-038
-18.47534 295.6022 -43.961998 2.3509886e-038
-13.675572 296.36713 -44.07576 2.3509886e-038
-8.8360415 296.63727 -44.115936 2.3509886e-038
-3.9855609 296.75012 -44.132717 2.3509886e-038
0.86792994 296.63022 -44.114887 2.3509886e-038
5.7053409 295.87982 -44.003284 2.3509886e-038
10.500524 294.63333 -43.817909 2.3509886e-038
15.23008 292.90894 -43.561455 2.3509886e-038
19.916893 291.38452 -43.334743 2.3509886e-038
24.632406 290.78757 -43.245968 2.3509886e-038
29.50935 291.98114 -43.42347 2.3509886e-038
31.014473 293.00488 -43.575722 2.3509886e-038
-100.65009 272.44507 -44.974361 9.1476764e-041
-96.943733 271.61148 -44.836754 9.1476764e-041
-92.442467 271.43936 -44.808338 9.1476764e-041
-88.086098 271.69684 -44.850842 9.1476764e-041
-83.940254 272.66553 -45.010754 9.1476764e-041
-79.892639 274.0799 -45.244228 9.1476764e-041
-75.762589 275.36285 -45.456013 9.1476764e-041
-71.55497 276.50818 -45.645084 9.1476764e-041
-67.365875 277.88455 -45.872292 9.1476764e-041
-63.183865 279.49136 -46.137539 9.1476764e-041
-58.943378 281.07004 -46.398136 2.3509886e-038
-54.674129 282.767 -46.678268 2.3509886e-038
-50.291946 284.13959 -46.90485 2.3509886e-038
-45.788757 285.03839 -47.053223 2.3509886e-038
-41.242863 285.845 -47.186378 2.3509886e-038
-36.700874 286.88846 -47.358624 2.3509886e-038
-32.183216 288.45584 -47.617363 2.3509886e-038
-27.704517 290.97101 -48.032558 2.3509886e-038
-23.167147 293.78552 -48.497169 2.3509886e-038
-18.484953 295.75601 -48.822456 2.3509886e-038
-13.709911 297.1113 -49.046181 2.3509886e-038
-8.8778753 298.04169 -49.199768 2.3509886e-038
-4.0074067 298.37665 -49.255062 2.3509886e-038
0.87204337 298.03607 -49.198841 2.3509886e-038
5.7259421 296.94818 -49.019257 2.3509886e-038
10.52582 295.34311 -48.754295 2.3509886e-038
15.257418 293.43472 -48.439262 2.3509886e-038
19.945454 291.80234 -48.169796 2.3509886e-038
24.671171 291.24518 -48.07782 2.3509886e-038
29.567902 292.56046 -48.294941 2.3509886e-038
30.939466 293.61432 -48.46891 2.3509886e-038
-86.976723 277.30563 -50.312519 9.1476764e-041
-85.379601 277.341 -50.318939 9.1476764e-041
-80.942268 277.68076 -50.380581 9.1476764e-041
-76.321533 277.39435 -50.328617 9.1476764e-041
-71.656593 276.90088 -50.239086 9.1476764e-041
-67.166054 277.06027 -50.268002 9.1476764e-041
-62.823795 277.89862 -50.420105 9.1476764e-041
-58.53495 279.12244 -50.642147 9.1476764e-041
-54.270733 280.68069 -50.924866 2.3509886e-038
-49.945904 282.18448 -51.197704 2.3509886e-038
-45.551781 283.5632 -51.447849 2.3509886e-038
-41.106319 284.89868 -51.690151 2.3509886e-038
-36.628323 286.32132 -51.948265 2.3509886e-038
-32.157036 288.22122 -52.292969 2.3509886e-038
-27.690502 290.82379 -52.765163 2.3509886e-038
-23.153955 293.61823 -53.272167 2.3509886e-038
-18.488049 295.80554 -53.669022 2.3509886e-038
-13.737813 297.71597 -54.015636 2.3509886e-038
-8.9127054 299.211 -54.286884 2.3509886e-038
-4.0244765 299.64764 -54.366108 2.3509886e-038
0.87493092 299.02295 -54.252766 2.3509886e-038
5.742187 297.79068 -54.029194 2.3509886e-038
10.55341 296.11725 -53.725574 2.3509886e-038
15.30449 294.34003 -53.403126 2.3509886e-038
20.023272 292.94083 -53.149265 2.3509886e-038
24.783916 292.57617 -53.083103 2.3509886e-038
29.701288 293.88028 -53.319714 2.3509886e-038
30.629602 294.66437 -53.461971 2.3509886e-038
-78.554428 283.70972 -56.114975 9.1476764e-041
-77.954506 283.3295 -56.039772 9.1476764e-041
-72.523506 280.25089 -55.430851 9.1476764e-041
-67.504585 278.45673 -55.075989 9.1476764e-041
-62.793316 277.76379 -54.938931 9.1476764e-041
-58.313408 278.06601 -54.998707 9.1476764e-041
-53.935127 278.94498 -55.172558 2.3509886e-038
-49.568501 280.05225 -55.391563 2.3509886e-038
-45.219788 281.49649 -55.677223 2.3509886e-038
-40.852863 283.142 -56.002689 2.3509886e-038
-36.450111 284.92822 -56.355988 2.3509886e-038
-32.046467 287.23019 -56.811291 2.3509886e-038
-27.60951 289.97318 -57.353828 2.3509886e-038
-23.101686 292.95538 -57.943684 2.3509886e-038
-18.475721 295.60828 -58.468399 2.3509886e-038
-13.754341 298.07416 -58.95612 2.3509886e-038
-8.9365044 300.00998 -59.339005 2.3509886e-038
-4.036427 300.53745 -59.443336 2.3509886e-038
0.87698549 299.72513 -59.282665 2.3509886e-038
5.7565103 298.53348 -59.04697 2.3509886e-038
10.587427 297.07172 -58.757854 2.3509886e-038
15.374754 295.69135 -58.484825 2.3509886e-038
20.146933 294.74997 -58.298634 2.3509886e-038
24.966286 294.72906 -58.294495 2.3509886e-038
29.955482 296.39539 -58.624077 2.3509886e-038
30.095137 296.52246 -58.649212 2.3509886e-038
-71.85231 285.14233 -61.062309 9.1476764e-041
-68.679787 283.30441 -60.668728 9.1476764e-041
-63.443104 280.63809 -60.097744 9.1476764e-041
-58.500664 278.95895 -59.738159 9.1476764e-041
-53.827133 278.38644 -59.615559 2.3509886e-038
-49.340813 278.76587 -59.696808 2.3509886e-038
-44.969604 279.93909 -59.948051 2.3509886e-038
-40.605362 281.42664 -60.266605 2.3509886e-038
-36.223061 283.15341 -60.636391 2.3509886e-038
-31.863365 285.58908 -61.157978 2.3509886e-038
-27.473509 288.5448 -61.790939 2.3509886e-038
-23.024828 291.98074 -62.526733 2.3509886e-038
-18.456289 295.29739 -63.23698 2.3509886e-038
-13.7625 298.25098 -63.869484 2.3509886e-038
-8.9494505 300.44458 -64.339233 2.3509886e-038
-4.0446072 301.14651 -64.489548 2.3509886e-038
0.87920642 300.48416 -64.347717 2.3509886e-038
5.776001 299.54428 -64.146446 2.3509886e-038
10.637772 298.48434 -63.919464 2.3509886e-038
15.469286 297.5094 -63.710682 2.3509886e-038
20.295296 296.92053 -63.584572 2.3509886e-038
25.177481 297.22223 -63.649185 2.3509886e-038
29.501814 298.95673 -64.020622 2.3509886e-038
-66.041145 288.30927 -66.456284 9.1476764e-041
-64.935997 287.24185 -66.210243 9.1476764e-041
-59.250042 282.53235 -65.124672 2.3509886e-038
-54.11758 279.88861 -64.515289 2.3509886e-038
-49.431767 279.27972 -64.374947 2.3509886e-038
-44.984795 280.03366 -64.548721 2.3509886e-038
-40.569168 281.17575 -64.811981 2.3509886e-038
-36.144226 282.53717 -65.125793 2.3509886e-038
-31.763378 284.69287 -65.622696 2.3509886e-038
-27.38994 287.66708 -66.308258 2.3509886e-038
-22.976364 291.36618 -67.160912 2.3509886e-038
-18.444912 295.11536 -68.025108 2.3509886e-038
-13.768603 298.38324 -68.778366 2.3509886e-038
-8.9574718 300.71384 -69.315575 2.3509886e-038
-4.0511637 301.63467 -69.527832 2.3509886e-038
0.88176298 301.35791 -69.464043 2.3509886e-038
5.8005528 300.8175 -69.339478 2.3509886e-038
10.701712 300.27841 -69.215218 2.3509886e-038
15.588848 299.80887 -69.106979 2.3509886e-038
20.500834 299.92755 -69.134338 2.3509886e-038
25.561722 301.75824 -69.556313 2.3509886e-038
29.748087 305.50394 -70.419716 2.3509886e-038
-59.24231 287.78644 -71.042992 2.3509886e-038
-55.059597 284.76059 -70.296036 2.3509886e-038
-50.016731 282.58466 -69.758888 2.3509886e-038
-45.321423 282.12921 -69.646446 2.3509886e-038
-40.796806 282.75348 -69.800552 2.3509886e-038
-36.306694 283.80716 -70.060669 2.3509886e-038
-31.843147 285.40787 -70.455818 2.3509886e-038
-27.420586 287.98895 -71.092987 2.3509886e-038
-22.984983 291.47546 -71.953667 2.3509886e-038
-18.454575 295.26993 -72.890373 2.3509886e-038
-13.786193 298.76443 -73.753021 2.3509886e-038
-8.975029 301.30325 -74.379761 2.3509886e-038
-4.0620184 302.44284 -74.661079 2.3509886e-038
0.88518918 302.52887 -74.682312 2.3509886e-038
5.8315506 302.42508 -74.656693 2.3509886e-038
10.777802 302.41342 -74.653816 2.3509886e-038
15.740238 302.72043 -74.729599 2.3509886e-038
20.827398 304.7052 -75.219566 2.3509886e-038
26.339544 310.94046 -76.758804 2.3509886e-038
31.922165 321.09821 -79.266342 2.3509886e-038
-52.6819 290.63678 -76.500473 2.3509886e-038
-51.234303 289.46368 -76.191704 2.3509886e-038
-46.05088 286.6701 -75.456383 2.3509886e-038
-41.293949 286.19907 -75.33239 2.3509886e-038
-36.665379 286.61099 -75.440819 2.3509886e-038
-32.092331 287.6413 -75.712013 2.3509886e-038
-27.588932 289.75705 -76.268913 2.3509886e-038
-23.086277 292.76001 -77.059341 2.3509886e-038
-18.524166 296.38342 -78.013084 2.3509886e-038
-13.84522 300.04361 -78.976509 2.3509886e-038
-9.0224142 302.89401 -79.726784 2.3509886e-038
-4.0883455 304.40308 -80.123993 2.3509886e-038
0.89213258 304.90189 -80.255295 2.3509886e-038
5.885025 305.19824 -80.333298 2.3509886e-038
10.890821 305.58466 -80.435005 2.3509886e-038
15.946856 306.69415 -80.727043 2.3509886e-038
21.26684 311.13425 -81.895752 2.3509886e-038
27.31208 322.42139 -84.866707 2.3509886e-038
34.041748 336.82706 -88.658531 2.3509886e-038
35.797245 340.23724 -89.556145 2.3509886e-038
-44.335365 293.87808 -82.1605 2.3509886e-038
-42.314426 293.27176 -81.990997 2.3509886e-038
-37.3582 292.0267 -81.642914 2.3509886e-038
-32.613888 292.31592 -81.72377 2.3509886e-038
-27.983521 293.90128 -82.166985 2.3509886e-038
-23.35775 296.20258 -82.810371 2.3509886e-038
-18.713213 299.40814 -83.706566 2.3509886e-038
-13.98315 303.03275 -84.71991 2.3509886e-038
-9.1206598 306.19229 -85.603233 2.3509886e-038
-4.1395383 308.21472 -86.168655 2.3509886e-038
0.90438807 309.09042 -86.413475 2.3509886e-038
5.9689541 309.55081 -86.542191 2.3509886e-038
11.060728 310.35205 -86.76619 2.3509886e-038
16.246147 312.4502 -87.352776 2.3509886e-038
21.750021 318.20322 -88.961166 2.3509886e-038
27.961742 330.09067 -92.284584 2.3509886e-038
34.722595 343.56375 -96.051308 2.3509886e-038
39.369431 350.52362 -97.997093 2.3509886e-038
-33.840351 301.30981 -89.166641 2.3509886e-038
-33.617912 301.31494 -89.168159 2.3509886e-038
-28.745146 301.90036 -89.3414 2.3509886e-038
-23.912395 303.23611 -89.736694 2.3509886e-038
-19.080559 305.28561 -90.343193 2.3509886e-038
-14.218062 308.1236 -91.183044 2.3509886e-038
-9.2723761 311.28558 -92.118767 2.3509886e-038
-4.2131729 313.69727 -92.832458 2.3509886e-038
0.92096895 314.75723 -93.146133 2.3509886e-038
6.0797281 315.29559 -93.30545 2.3509886e-038
11.28763 316.71869 -93.726593 2.3509886e-038
16.607609 319.40192 -94.520638 2.3509886e-038
22.137091 323.86603 -95.841705 2.3509886e-038
28.163517 332.47263 -98.388649 2.3509886e-038
34.761547 343.94916 -101.7849 2.3509886e-038
41.534698 353.71976 -104.67632 2.3509886e-038
41.639744 353.84302 -104.71279 2.3509886e-038
-24.155634 313.6644 -97.953247 2.3509886e-038
-19.619228 313.90421 -98.028122 2.3509886e-038
-14.583432 316.04163 -98.69561 2.3509886e-038
-9.5091162 319.23328 -99.692322 2.3509886e-038
-4.3145051 321.2421 -100.31966 2.3509886e-038
0.94156736 321.79709 -100.49297 2.3509886e-038
6.2149129 322.3063 -100.65199 2.3509886e-038
11.539001 323.77185 -101.10966 2.3509886e-038
16.932583 325.65192 -101.69678 2.3509886e-038
22.417597 327.96985 -102.42065 2.3509886e-038
28.217215 333.10654 -104.02477 2.3509886e-038
34.552422 341.87994 -106.76458 2.3509886e-038
41.248428 351.28183 -109.70067 2.3509886e-038
41.935253 352.12796 -109.9649 2.3509886e-038
-12.695139 330.12463 -108.4933 2.3509886e-038
-9.8633862 331.12656 -108.82258 2.3509886e-038
-4.4469867 331.10617 -108.81586 2.3509886e-038
0.96599132 330.14441 -108.49979 2.3509886e-038
6.364141 330.04529 -108.46722 2.3509886e-038
11.781354 330.57205 -108.64034 2.3509886e-038
17.215202 331.08731 -108.80968 2.3509886e-038
22.706692 332.19931 -109.17513 2.3509886e-038
28.403803 335.30923 -110.19718 2.3509886e-038
34.459541 340.96094 -112.05458 2.3509886e-038
40.199245 347.17245 -114.09595 2.3509886e-038
-2.5340774 340.27994 -117.39661 2.3509886e-038
0.99067342 338.57996 -116.81011 2.3509886e-038
6.5044107 337.3197 -116.37533 2.3509886e-038
11.998813 336.67371 -116.15246 2.3509886e-038
17.48473 336.27097 -116.01351 2.3509886e-038
23.019993 336.7829 -116.19012 2.3509886e-038
28.693813 338.73285 -116.86285 2.3509886e-038
34.563137 341.98596 -117.98519 2.3509886e-038
36.915382 343.51657 -118.51324 2.3509886e-038
8.44524 342.62238 -123.80891 2.3509886e-038
12.18036 341.76773 -123.50008 2.3509886e-038
17.718182 340.76077 -123.13621 2.3509886e-038
23.267141 340.39868 -123.00536 2.3509886e-038
28.921267 341.41794 -123.37368 2.3509886e-038
30.292295 341.87747 -123.53973 2.3509886e-038
-108.29739 266.74854 -29.424484 9.1476764e-041
-109.30444 269.229 -40.713352 9.1476764e-041
-103.80138 266.40747 -27.414822 9.1476764e-041
-105.3918 270.48929 -42.944603 9.1476764e-041
-99.540199 266.66559 -26.631117 9.1476764e-041
-101.57625 272.12012 -44.604149 9.1476764e-041
-95.464035 267.46573 -26.841944 9.1476764e-041
-97.597183 273.44226 -46.16795 9.1476764e-041
-91.733757 269.35837 -27.877853 9.1476764e-041
-93.606911 274.85852 -47.70438 9.1476764e-041
-88.110603 271.7724 -29.366247 2.3509886e-038
-89.489403 276.02524 -49.188545 9.1476764e-041
-84.455521 274.33929 -31.042923 2.3509886e-038
-85.6903 278.35022 -51.050682 9.1476764e-041
-80.807327 277.21783 -32.863064 2.3509886e-038
-82.037811 281.43912 -53.50248 9.1476764e-041
-77.105553 280.2439 -34.807404 2.3509886e-038
-78.111717 283.90085 -56.451069 9.1476764e-041
-73.060059 282.32425 -36.26297 2.3509886e-038
-73.646439 284.59021 -59.593533 9.1476764e-041
-71.352203 294.32816 67.424599 2.3509528e-038
-71.09446 293.26495 49.850056 2.3509528e-038
-69.030342 284.75049 -36.766922 2.3509886e-038
-69.531021 286.8158 -63.382149 9.1476764e-041
-65.768852 290.92596 67.322334 2.3509528e-038
-66.450676 293.94199 30.741228 2.3509528e-038
-65.390427 289.25198 -36.209236 2.3509886e-038
-65.193192 288.37955 -67.085747 9.1476764e-041
-60.912975 290.46198 62.061893 2.3509528e-038
-62.012012 295.70273 17.292973 2.3509528e-038
-61.367733 292.63049 -34.003212 2.3509886e-038
-60.343769 287.74774 -70.258308 2.3509886e-038
-56.546383 292.45004 52.069744 2.3509528e-038
-57.287052 296.28067 5.8508091 2.3509528e-038
-56.777302 293.64432 -29.209446 2.3509886e-038
-55.89777 289.09549 -73.831352 2.3509886e-038
-51.66832 291.9158 40.896645 2.3509528e-038
-51.475132 290.82434 -77.300117 2.3509886e-038
-47.242569 294.08847 28.526897 2.3509528e-038
-46.902702 291.97275 -80.262497 2.3509886e-038
-42.230091 292.68726 19.141924 2.3509528e-038
-42.573818 295.06955 -83.359116 2.3509886e-038
-37.51947 293.28735 15.0453 2.3509886e-038
-38.029961 297.27783 -86.006737 2.3509886e-038
-32.926571 295.11847 14.75345 2.3509886e-038
-33.643173 301.54135 -89.33287 2.3509886e-038
-28.196167 296.13461 20.169836 2.3509886e-038
-29.236013 307.05579 -93.305519 2.3509886e-038
-22.872959 290.0549 85.266228 2.3418052e-038
-24.686554 313.05331 -97.509323 2.3509886e-038
-18.100883 289.61096 84.683655 2.3418052e-038
-19.870722 317.92807 -101.23191 2.3509886e-038
-13.399959 290.39426 62.868954 2.3418052e-038
-15.016518 325.42715 -105.83521 2.3509886e-038
-8.6080418 288.98303 18.050318 2.3509886e-038
-9.9692812 334.68161 -111.38293 2.3509886e-038
-3.8704774 288.18143 18.683163 2.3509886e-038
-4.5593309 339.47092 -115.97436 2.3509886e-038
0.8317247 284.25647 27.797644 3.5733111e-043
0.9986614 341.30997 -119.70937 2.3509886e-038
5.3759704 278.79861 41.121639 3.5733111e-043
6.6022601 342.39417 -122.90131 2.3509886e-038
9.8786945 277.18549 56.843266 3.5733111e-043
12.221078 342.91022 -125.33389 2.3509886e-038
14.299251 275.00699 70.875862 3.5733111e-043
14.719603 283.09131 16.850397 3.5733111e-043
14.822984 285.07956 4.6686044 2.3509886e-038
17.812061 342.56631 -126.46275 2.3509886e-038
18.667177 273.10114 73.148964 3.5733111e-043
19.124546 279.79242 31.226583 3.5733111e-043
19.330223 282.80151 2.2927346 2.3418409e-038
23.35743 341.7196 -125.89812 2.3509886e-038
23.294762 274.99658 69.555969 3.5733111e-043
23.658045 279.28516 59.236046 3.5733111e-043
23.734516 280.1879 3.1437182 2.3418409e-038
28.945816 341.70773 -124.13699 2.3509886e-038
28.05961 277.63666 5.8714247 2.3418409e-038
30.001036 296.84613 -59.41597 2.3509886e-038
33.147491 327.97882 -82.79953 2.3509886e-038
34.637596 342.72272 -120.76713 2.3509886e-038
32.411938 276.02808 9.9219093 2.3418409e-038
33.546185 285.68759 -16.451836 2.3418409e-038
41.541893 353.78104 -104.22832 2.3509886e-038
40.982239 349.01489 -112.61339 2.3509886e-038
36.515308 272.9519 14.029428 2.3418409e-038
37.746834 282.15756 -8.5002947 2.3418409e-038
40.643673 270.71249 17.986259 2.3418409e-038
41.82552 278.58432 -3.4035985 2.3418409e-038
44.870033 269.50168 22.140949 2.3418409e-038
45.538235 273.51508 1.6653385 2.3418409e-038
48.944077 267.67444 26.616144 2.3418409e-038
49.599091 271.25671 7.4568262 2.3418409e-038
53.006519 266.08908 30.237476 2.3418409e-038
53.62962 269.21698 13.611155 2.3418409e-038
57.30267 265.82846 31.807467 2.3418409e-038
57.930916 268.74292 20.25453 2.3418409e-038
