# .PCD v0.7 - Point Cloud Data file format
VERSION 0.7
FIELDS x y z rgb
SIZE 4 4 4 4
TYPE F F F F
COUNT 1 1 1 1
WIDTH 864
HEIGHT 1
VIEWPOINT 0 0 0 1 0 0 0
POINTS 864
DATA ascii
-19.334532 293.23166 77.338127 2.3418052e-038
54.084263 267.0593 27.671017 9.1476764e-041
-102.07172 261.11545 -36.893391 3.5733111e-043
-67.574173 292.81271 60.678848 2.3509528e-038
17.179247 280.586 67.3955 2.3418409e-038
-23.205917 291.99957 80.943085 2.3418052e-038
-19.42378 292.70746 81.13932 2.3418052e-038
-17.607006 293.38815 81.328003 2.3418052e-038
-24.759174 292.25058 76.236572 2.3418052e-038
-24.165091 292.19641 76.222458 2.3418052e-038
-19.441992 292.9819 76.427345 2.3418052e-038
-15.422977 294.59802 76.84893 2.3418052e-038
14.556892 280.20639 73.094727 2.3418409e-038
17.960501 278.97382 72.773201 2.3418409e-038
19.599987 278.36639 72.614746 2.3418409e-038
-25.057081 291.79993 71.350296 2.3418052e-038
-24.126141 291.72546 71.332085 2.3418052e-038
-19.426006 292.741 71.580406 2.3418052e-038
-14.855984 294.76041 72.074181 2.3418052e-038
10.972677 282.51337 69.079567 2.3418409e-038
13.526815 281.58481 68.852516 2.3418409e-038
18.09881 281.12216 68.739388 2.3418409e-038
22.151628 280.83643 68.669525 2.3418409e-038
-69.732895 292.9433 66.842453 2.3509528e-038
-67.290436 292.84262 66.819481 2.3509528e-038
-66.098442 293.20258 66.901619 2.3509528e-038
-25.334608 291.37411 66.484406 2.3418052e-038
-24.082369 291.19617 66.443802 2.3418052e-038
-19.377806 292.01462 66.630554 2.3418052e-038
-14.695372 293.80994 67.040207 2.3418052e-038
-14.549618 293.92255 67.065895 2.3418052e-038
9.4820499 282.58655 64.479301 2.3418409e-038
13.527435 281.59772 64.253662 2.3418409e-038
18.189575 282.53198 64.46685 2.3418409e-038
22.313747 284.32196 64.875275 2.3418409e-038
-71.747849 293.18683 62.106628 2.3509528e-038
-67.121857 292.10898 61.878307 2.3509528e-038
-62.856049 294.48889 62.382458 2.3509528e-038
-62.506432 294.90067 62.469677 2.3509528e-038
-25.952955 291.48752 61.746662 2.3418052e-038
-24.052912 290.84 61.609497 2.3418052e-038
-19.328415 291.27036 61.700657 2.3418052e-038
-14.650861 292.92001 62.050114 2.3418052e-038
-14.082491 293.36417 62.144199 2.3418052e-038
8.5390825 281.64584 59.661869 2.3418409e-038
8.9201965 281.43219 59.616611 2.3418409e-038
13.518626 281.41434 59.612831 2.3418409e-038
18.257803 283.59171 60.074074 2.3418409e-038
21.880428 286.45605 60.680832 2.3418409e-038
-71.87442 292.89069 57.257347 2.3509528e-038
-66.988106 291.52689 56.990734 2.3509528e-038
-62.661694 293.57834 57.391773 2.3509528e-038
-60.24921 296.00781 57.866714 2.3509528e-038
-26.703773 291.78546 57.041279 2.3418052e-038
-24.032085 290.58817 56.807224 2.3418052e-038
-19.315456 291.07507 56.902412 2.3418052e-038
-14.648567 292.87415 57.254112 2.3418052e-038
-13.398212 293.80048 57.4352 2.3418052e-038
7.5791912 279.46982 54.633694 2.3418409e-038
8.8450718 279.06201 54.55397 2.3418409e-038
13.466527 280.3298 54.801811 2.3418409e-038
18.253351 283.52255 55.425964 2.3418409e-038
21.133327 286.42017 55.99242 2.3418409e-038
-71.333321 292.74628 52.444916 2.3509528e-038
-66.960419 291.40643 52.204884 2.3509528e-038
-62.551281 293.061 52.501301 2.3509528e-038
-58.457027 296.58755 53.133076 2.3509528e-038
-58.113102 297.09763 53.224453 2.3509528e-038
-27.340412 292.53345 52.406788 2.3418052e-038
-24.052828 290.83899 52.10323 2.3418052e-038
-19.3277 291.25958 52.178577 2.3418052e-038
-14.645569 292.81424 52.457088 2.3418052e-038
-12.712895 293.74185 52.623272 2.3418052e-038
6.4166059 277.61014 49.733307 2.3418409e-038
8.7712851 276.73404 49.576355 2.3418409e-038
13.378333 278.4939 49.891628 2.3418409e-038
18.159941 282.07166 50.532578 2.3418409e-038
20.186676 284.52975 50.972939 2.3418409e-038
-70.43512 292.79913 47.669334 2.3509528e-038
-66.993607 291.55084 47.466106 2.3509528e-038
-62.402477 292.36386 47.598469 2.3509528e-038
-58.139244 294.97525 48.023621 2.3509528e-038
-55.882504 297.97449 48.511909 2.3509528e-038
-27.740549 293.70032 47.816048 2.3418052e-038
-24.09869 291.39355 47.440498 2.3418052e-038
-19.329372 291.28476 47.422791 2.3418052e-038
-14.615028 292.20361 47.572376 2.3418052e-038
-12.216892 292.74158 47.659962 2.3418052e-038
5.0681033 278.93768 45.412617 2.3418409e-038
8.751543 276.11115 44.952438 2.3418409e-038
13.322307 277.32761 45.150482 2.3418409e-038
18.08382 280.88931 45.73035 2.3418409e-038
19.278326 282.52789 45.99712 2.3418409e-038
-69.296661 292.69623 42.869202 2.3509528e-038
-67.014656 291.64246 42.714859 2.3509528e-038
-62.215443 291.48758 42.692177 2.3509528e-038
-57.857967 293.54816 42.993977 2.3509528e-038
-54.069679 299.13034 43.811562 2.3509528e-038
-53.880245 299.6398 43.886177 2.3509528e-038
-27.835623 294.03461 43.065224 2.3509886e-038
-24.109966 291.52991 42.698376 2.3418052e-038
-19.317471 291.10541 42.636204 2.3418052e-038
-14.590105 291.70532 42.724064 2.3418052e-038
-12.027256 292.08041 42.779007 2.3418052e-038
3.6085417 282.08014 41.314335 2.3418409e-038
4.3154416 281.07733 41.167461 2.3418409e-038
8.7734509 276.80237 40.541336 2.3418409e-038
13.323966 277.36215 40.623322 2.3418409e-038
18.10371 281.19824 41.185165 2.3418409e-038
18.459711 281.71475 41.260815 2.3418409e-038
-68.058807 292.48819 38.058754 2.3509528e-038
-67.08757 291.95978 37.989994 2.3509528e-038
-62.091167 290.90533 37.852791 2.3509528e-038
-57.58548 292.16568 38.016785 2.3509528e-038
-53.543789 296.22095 38.544464 2.3509528e-038
-51.812973 299.07938 38.916405 2.3509528e-038
-27.815506 293.88235 38.240162 2.3509886e-038
-24.110226 291.53302 37.934467 2.3418052e-038
-19.325413 291.2251 37.894402 2.3418052e-038
-14.601122 291.92557 37.985546 2.3418052e-038
-12.012407 292.35349 38.041225 2.3418409e-038
2.1054049 283.8511 36.934895 2.3418409e-038
4.3166213 281.15414 36.583961 2.3418409e-038
8.7922258 277.39471 36.09478 2.3418409e-038
13.340609 277.70856 36.135616 2.3418409e-038
17.496363 280.96475 36.559319 2.3418409e-038
-67.045105 293.54453 33.398972 2.3509528e-038
-62.180328 291.32306 33.146217 2.3509528e-038
-57.401768 291.23361 33.136036 2.3509528e-038
-53.059826 293.54355 33.398861 2.3509528e-038
-49.582458 296.62683 33.749668 2.3509528e-038
-27.83432 294.92874 33.556465 2.3418052e-038
-24.176119 292.32977 33.260757 2.3418052e-038
-19.361298 291.7659 33.196602 2.3418052e-038
-14.628152 292.46597 33.276257 2.3418409e-038
-12.007005 292.98914 33.335777 2.3418409e-038
0.60791934 285.55347 32.489761 2.3418409e-038
4.3189793 281.30774 32.006687 2.3418409e-038
8.8099928 277.95526 31.625252 2.3418409e-038
13.34077 277.71191 31.597567 2.3418409e-038
16.26313 279.38959 31.788446 2.3509886e-038
51.651451 267.50388 30.436113 9.1476764e-041
52.206402 267.56009 30.442511 9.1476764e-041
56.874218 268.95624 30.60136 9.1476764e-041
59.545105 270.45114 30.771446 9.1476764e-041
-66.240883 296.32306 28.872458 2.3509528e-038
-62.628666 293.42355 28.589943 2.3509528e-038
-57.463554 291.54706 28.407104 2.3509528e-038
-52.861607 292.4469 28.494783 2.3509528e-038
-48.48978 294.92529 28.736265 2.3509528e-038
-47.540665 295.78375 28.81991 2.3509528e-038
-27.806965 296.00842 28.841799 2.3509886e-038
-24.243105 293.13977 28.56229 2.3418052e-038
-19.378864 292.03061 28.454218 2.3418052e-038
-14.628028 292.4635 28.496399 2.3418409e-038
-11.835112 292.89389 28.538334 2.3418409e-038
-0.96398622 287.07019 27.970898 2.3418409e-038
-0.28320169 286.28909 27.894791 2.3418409e-038
4.3245859 281.67291 27.445011 2.3418409e-038
8.8237514 278.38934 27.125072 2.3418409e-038
13.329094 277.4689 27.035387 2.3509886e-038
14.89318 278.07681 27.094624 2.3509886e-038
46.67635 267.19775 26.034613 9.1476764e-041
47.680416 266.70215 25.98632 9.1476764e-041
52.116444 267.09906 26.024996 9.1476764e-041
57.025234 269.67041 26.275536 9.1476764e-041
59.489468 271.42264 26.446264 9.1476764e-041
-64.871613 297.9379 24.160759 2.3509528e-038
-63.216499 296.17764 24.018015 2.3509528e-038
-57.645168 292.46851 23.71723 2.3509528e-038
-52.833717 292.29263 23.702967 2.3509528e-038
-48.389004 294.31235 23.866753 2.3509528e-038
-45.509365 296.7457 24.064079 2.3509528e-038
-27.848898 296.4108 24.036922 2.3509886e-038
-24.275957 293.53699 23.803875 2.3418052e-038
-19.388781 292.18002 23.693836 2.3418052e-038
-14.62347 292.37241 23.709435 2.3418409e-038
-10.920065 292.37939 23.710003 2.3418409e-038
-3.0902774 287.88904 23.345863 2.3418409e-038
-0.28263554 285.71677 23.16971 2.3418409e-038
4.3355894 282.38962 22.899899 2.3418409e-038
8.8573551 279.44955 22.66148 2.3418409e-038
13.370209 278.32477 22.570265 2.3509886e-038
13.668444 278.42599 22.578476 2.3509886e-038
42.667683 271.2182 21.993973 9.1476764e-041
43.833031 269.84912 21.88295 9.1476764e-041
47.762699 267.16241 21.665073 9.1476764e-041
52.150993 267.27612 21.674297 9.1476764e-041
57.178482 270.39511 21.927225 9.1476764e-041
57.413101 270.61008 21.944656 9.1476764e-041
-62.875294 297.94226 19.292009 2.3509886e-038
-57.845993 293.48743 19.003557 2.3509528e-038
-52.854504 292.40762 18.93364 2.3509528e-038
-48.31078 293.83661 19.026163 2.3509528e-038
-43.915123 296.58084 19.203859 2.3509528e-038
-42.832367 297.41599 19.257933 2.3509528e-038
-28.558258 296.07889 19.171356 2.3509528e-038
-24.271875 293.48764 19.003571 2.3509886e-038
-19.389078 292.18451 18.919189 2.3509886e-038
-14.600339 291.90994 18.901411 2.3418052e-038
-9.8042603 291.15091 18.852264 2.3418409e-038
-5.0042028 288.73206 18.695641 2.3418409e-038
-0.2829943 286.07944 18.523884 2.3418409e-038
4.3549118 283.64813 18.366455 2.3418409e-038
8.9200716 281.42825 18.222713 2.3418409e-038
12.732795 280.85541 18.185623 2.3509886e-038
38.394146 272.60861 17.651634 9.1476764e-041
39.641151 271.34207 17.569626 9.1476764e-041
43.733715 269.2377 17.433365 9.1476764e-041
47.948521 268.20181 17.366291 9.1476764e-041
52.290443 267.99081 17.352629 9.1476764e-041
54.476467 268.97046 17.416061 9.1476764e-041
-60.75565 296.7381 14.364608 2.3509886e-038
-58.0452 294.49811 14.256174 2.3509528e-038
-52.91032 292.7164 14.169925 2.3509528e-038
-48.163891 292.94318 14.180902 2.3509528e-038
-43.526436 293.95587 14.229924 2.3509528e-038
-38.859676 294.99734 14.28034 2.3509528e-038
-37.781361 295.10626 14.285613 2.3509528e-038
-31.689026 294.7334 14.267564 2.3509528e-038
-29.144054 294.25369 14.244342 2.3509886e-038
-24.2498 293.2207 14.194336 2.3509886e-038
-19.395866 292.28677 14.149127 2.3509886e-038
-14.576412 291.43155 14.107726 2.3509886e-038
-9.7819605 290.48865 14.062082 2.3509886e-038
-5.0121441 289.19025 13.999228 2.3418409e-038
-0.2841695 287.26746 13.906149 2.3418409e-038
4.378551 285.18784 13.805479 2.3418409e-038
8.9975109 283.87143 13.741754 2.3509886e-038
12.235596 284.28586 13.761816 2.3509886e-038
34.527122 274.24344 13.275679 9.1476764e-041
35.425789 273.03012 13.216944 9.1476764e-041
39.339336 269.27618 13.035221 9.1476764e-041
43.603096 268.43356 12.994431 9.1476764e-041
48.136715 269.25449 13.03417 9.1476764e-041
51.842468 270.48474 13.093726 9.1476764e-041
-59.22707 297.10379 9.5269003 2.3509886e-038
-58.431061 296.45581 9.5061216 2.3509886e-038
-53.101254 293.77274 9.4200869 2.3509528e-038
-48.108669 292.6073 9.3827162 2.3509528e-038
-43.298878 292.41904 9.3766794 2.3509528e-038
-38.561207 292.73157 9.3867006 2.3509528e-038
-33.789642 292.83905 9.3901472 2.3509886e-038
-29.015249 292.95322 9.3938084 2.3509886e-038
-24.230808 292.99106 9.3950224 2.3509886e-038
-19.415216 292.5784 9.3817892 2.3509886e-038
-14.582892 291.5611 9.3491678 2.3509886e-038
-9.7809505 290.45868 9.313818 2.3509886e-038
-5.0197139 289.62698 9.2871494 2.3509886e-038
-0.28510216 288.2103 9.2417221 2.3509886e-038
4.3950129 286.26004 9.1791849 2.3509886e-038
9.052351 285.60165 9.1580734 2.3509886e-038
12.833718 287.09409 9.2059298 2.3509886e-038
30.511511 276.93573 8.8801928 9.1476764e-041
31.332415 276.28052 8.8591824 9.1476764e-041
35.400097 272.83212 8.7486067 9.1476764e-041
39.384693 269.58661 8.644537 9.1476764e-041
43.588547 268.34399 8.6046915 9.1476764e-041
48.383854 270.63687 8.6782141 9.1476764e-041
48.743805 271.04309 8.6912403 9.1476764e-041
-58.116482 299.07861 4.7025523 2.3509886e-038
-53.426125 295.57001 4.6473846 2.3509886e-038
-48.205433 293.19583 4.6100545 2.3509886e-038
-43.320145 292.56265 4.6000986 2.3509886e-038
-38.579365 292.86938 4.6049218 2.3509886e-038
-33.808826 293.00531 4.607059 2.3509886e-038
-29.012814 292.92865 4.6058531 2.3509886e-038
-24.225315 292.92465 4.6057906 2.3509886e-038
-19.427107 292.7576 4.6031637 2.3509886e-038
-14.604534 291.9938 4.5911546 2.3509886e-038
-9.7961569 290.91025 4.5741172 2.3509886e-038
-5.0263395 290.00928 4.5599508 2.3509886e-038
-0.28560486 288.71848 4.5396547 2.3509886e-038
4.4039431 286.84171 4.5101452 2.3509886e-038
9.0697327 286.15002 4.49927 2.3509886e-038
13.797851 287.2269 4.516202 2.3509886e-038
16.043903 287.59497 4.5219898 2.3509886e-038
24.708757 281.60797 4.4278536 9.1476764e-041
27.09057 279.09567 4.388351 9.1476764e-041
31.330854 276.26678 4.3438711 9.1476764e-041
35.597931 274.35684 4.3138399 9.1476764e-041
39.701862 271.75763 4.2729716 9.1476764e-041
43.809998 269.70734 4.2407336 9.1476764e-041
44.950943 269.8877 4.2435694 9.1476764e-041
-56.941982 299.87936 -0.18562697 2.3509886e-038
-53.647816 296.79648 -0.18371864 2.3509886e-038
-48.249344 293.46292 -0.18165517 2.3509886e-038
-43.333633 292.65378 -0.1811543 2.3509886e-038
-38.632515 293.27289 -0.18153751 2.3509886e-038
-33.880955 293.63043 -0.18175884 2.3509886e-038
-29.051857 293.32285 -0.18156844 2.3509886e-038
-24.234871 293.04019 -0.18139347 2.3509886e-038
-19.429581 292.79489 -0.18124163 2.3509886e-038
-14.615829 292.2196 -0.18088552 2.3509886e-038
-9.813961 291.43896 -0.18040232 2.3509886e-038
-5.038034 290.68405 -0.17993501 2.3509886e-038
-0.28645241 289.57526 -0.17924866 2.3509886e-038
4.4201593 287.89789 -0.17821036 2.3509886e-038
9.0862494 286.67114 -0.177451 2.3509886e-038
13.733903 285.89569 -0.176971 2.3509886e-038
18.315672 284.49057 -0.17610121 2.3509886e-038
22.772621 282.10785 -0.17462632 9.1476764e-041
27.135103 279.55447 -0.17304575 9.1476764e-041
31.490271 277.67245 -0.17188078 9.1476764e-041
35.900826 276.69125 -0.17127341 9.1476764e-041
40.252686 275.52798 -0.17055334 9.1476764e-041
41.856228 275.03983 -0.17025115 9.1476764e-041
-55.75486 298.8588 -5.0690866 2.3509886e-038
-53.674778 296.94565 -5.0366368 2.3509886e-038
-48.216679 293.26425 -4.9741945 2.3509886e-038
-43.274639 292.25534 -4.9570818 2.3509886e-038
-38.594666 292.98557 -4.9694676 2.3509886e-038
-33.886353 293.67722 -4.9811988 2.3509886e-038
-29.076918 293.57587 -4.9794798 2.3509886e-038
-24.253302 293.26306 -4.9741745 2.3509886e-038
-19.439486 292.94412 -4.9687648 2.3509886e-038
-14.630845 292.51984 -4.9615679 2.3509886e-038
-9.8361607 292.09824 -4.9544168 2.3509886e-038
-5.054584 291.63895 -4.9466267 2.3509886e-038
-0.28762531 290.76093 -4.9317346 2.3509886e-038
4.4433374 289.40756 -4.9087791 2.3509886e-038
9.1235466 287.84787 -4.8823252 2.3509886e-038
13.739431 286.01077 -4.8511648 2.3509886e-038
18.285732 284.02554 -4.8174925 9.1476764e-041
22.783468 282.24225 -4.7872448 9.1476764e-041
27.23119 280.5444 -4.7584472 9.1476764e-041
31.624119 278.85269 -4.7297535 9.1476764e-041
36.135777 278.50208 -4.7238064 9.1476764e-041
38.512409 279.23508 -4.7362385 9.1476764e-041
-55.125847 298.34543 -9.9360685 2.3509886e-038
-53.68457 296.99982 -9.8912544 2.3509886e-038
-48.171738 292.99091 -9.7577419 2.3509886e-038
-43.193844 291.70969 -9.7150726 2.3509886e-038
-38.499878 292.26599 -9.7335997 2.3509886e-038
-33.829216 293.18201 -9.7641068 2.3509886e-038
-29.076458 293.57123 -9.77707 2.3509886e-038
-24.28142 293.60303 -9.7781286 2.3509886e-038
-19.472717 293.44495 -9.7728634 2.3509886e-038
-14.657604 293.05484 -9.7598724 2.3509886e-038
-9.8540564 292.62967 -9.7457113 2.3509886e-038
-5.0661297 292.30511 -9.7349024 2.3509886e-038
-0.28853074 291.67624 -9.7139587 2.3509886e-038
4.4639421 290.7496 -9.6830988 2.3509886e-038
9.1704435 289.32748 -9.6357365 2.3509886e-038
13.801586 287.30463 -9.568367 2.3509886e-038
18.361244 285.19843 -9.4982214 9.1476764e-041
22.887293 283.52841 -9.4426041 9.1476764e-041
27.379456 282.07187 -9.3940954 9.1476764e-041
31.811867 280.50821 -9.34202 9.1476764e-041
35.282524 280.45892 -9.3403788 9.1476764e-041
-54.923458 297.54385 -14.771964 2.3509886e-038
-53.556328 296.29034 -14.709732 2.3509886e-038
-48.054825 292.27982 -14.510624 2.3509886e-038
-43.083633 290.96539 -14.445369 2.3509886e-038
-38.409676 291.58124 -14.475943 2.3509886e-038
-33.785419 292.80243 -14.53657 2.3509886e-038
-29.074808 293.55457 -14.573912 2.3509886e-038
-24.301905 293.85074 -14.588615 2.3509886e-038
-19.505617 293.9407 -14.593081 2.3509886e-038
-14.686934 293.64124 -14.578214 2.3509886e-038
-9.8690233 293.07413 -14.550059 2.3509886e-038
-5.0728621 292.69354 -14.531165 2.3509886e-038
-0.28907943 292.23093 -14.508197 2.3509886e-038
4.4780078 291.66577 -14.480139 2.3509886e-038
9.2087059 290.53464 -14.423984 2.3509886e-038
13.861279 288.54727 -14.325317 2.3509886e-038
18.439938 286.42075 -14.219742 9.1476764e-041
22.997738 284.89661 -14.144075 9.1476764e-041
27.561977 283.95227 -14.097193 9.1476764e-041
32.154003 283.52505 -14.075982 9.1476764e-041
33.18354 283.63437 -14.081409 9.1476764e-041
-55.050423 296.14481 -19.542255 2.3509886e-038
-53.255016 294.62341 -19.441858 2.3509886e-038
-47.832611 290.92828 -19.198021 2.3509886e-038
-42.915085 289.82709 -19.125355 2.3509886e-038
-38.317287 290.87991 -19.19483 2.3509886e-038
-33.763123 292.60922 -19.308945 2.3509886e-038
-29.083586 293.64319 -19.377174 2.3509886e-038
-24.319229 294.06024 -19.404694 2.3509886e-038
-19.53141 294.32941 -19.422459 2.3509886e-038
-14.715886 294.22009 -19.415245 2.3509886e-038
-9.8892174 293.67383 -19.379196 2.3509886e-038
-5.0825238 293.25101 -19.351295 2.3509886e-038
-0.2897568 292.91568 -19.329168 2.3509886e-038
4.4903636 292.47049 -19.299789 2.3509886e-038
9.2404938 291.53757 -19.238226 2.3509886e-038
13.914292 289.65082 -19.113724 2.3509886e-038
18.508045 287.47864 -18.970383 2.3509886e-038
23.087149 286.00424 -18.873091 9.1476764e-041
27.71419 285.52042 -18.841162 9.1476764e-041
31.822615 286.51788 -18.906984 9.1476764e-041
-56.145458 295.73599 -24.348324 2.3509886e-038
-52.963223 293.00909 -24.123816 2.3509886e-038
-47.609879 289.57355 -23.840961 2.3509886e-038
-42.761806 288.79193 -23.776609 2.3509886e-038
-38.234196 290.24911 -23.896582 2.3509886e-038
-33.739582 292.40518 -24.074095 2.3509886e-038
-29.098503 293.79379 -24.188421 2.3509886e-038
-24.349272 294.42349 -24.240265 2.3509886e-038
-19.566412 294.85684 -24.275944 2.3509886e-038
-14.751121 294.92456 -24.281519 2.3509886e-038
-9.9156675 294.45929 -24.243212 2.3509886e-038
-5.0963459 294.04852 -24.209393 2.3509886e-038
-0.29071021 293.87949 -24.195475 2.3509886e-038
4.5058136 293.47681 -24.162325 2.3509886e-038
9.2773962 292.70181 -24.098515 2.3509886e-038
13.979239 291.00281 -23.958635 2.3509886e-038
18.594887 288.82751 -23.779539 2.3509886e-038
23.188696 287.26221 -23.650667 2.3509886e-038
27.842155 286.83875 -23.615801 2.3509886e-038
30.815723 288.07031 -23.717201 2.3509886e-038
-58.630947 296.93167 -29.299353 3.5733111e-043
-58.494835 296.77939 -29.284327 3.5733111e-043
-52.677143 291.42642 -28.756128 2.3509886e-038
-47.455925 288.63718 -28.480904 2.3509886e-038
-42.699657 288.37222 -28.454758 2.3509886e-038
-38.189716 289.91144 -28.60664 2.3509886e-038
-33.705757 292.11206 -28.823782 2.3509886e-038
-29.105152 293.86093 -28.996351 2.3509886e-038
-24.390659 294.92392 -29.10124 2.3509886e-038
-19.617882 295.63248 -29.171156 2.3509886e-038
-14.794918 295.8002 -29.187706 2.3509886e-038
-9.9438295 295.29559 -29.137913 2.3509886e-038
-5.1100569 294.83963 -29.09292 2.3509886e-038
-0.29164705 294.82651 -29.091627 2.3509886e-038
4.5230751 294.6011 -29.069386 2.3509886e-038
9.3181295 293.98694 -29.008785 2.3509886e-038
14.045208 292.37607 -28.849833 2.3509886e-038
18.683384 290.20212 -28.635321 2.3509886e-038
23.301205 288.65598 -28.482758 2.3509886e-038
27.98345 288.2944 -28.447081 2.3509886e-038
30.095684 289.20782 -28.53721 2.3509886e-038
-100.19359 261.33517 -30.057785 3.5733111e-043
-98.498276 261.36172 -30.060837 3.5733111e-043
-94.532051 262.20789 -30.158161 3.5733111e-043
-91.160522 264.8623 -30.463461 3.5733111e-043
-90.755463 265.4534 -30.531446 3.5733111e-043
-61.719799 295.0177 -33.93182 3.5733111e-043
-57.622597 292.35397 -33.62545 3.5733111e-043
-52.259945 289.11835 -33.2533 3.5733111e-043
-47.337727 287.91827 -33.115273 2.3509886e-038
-42.699596 288.3718 -33.167439 2.3509886e-038
-38.173512 289.78842 -33.330368 2.3509886e-038
-33.659348 291.70984 -33.551365 2.3509886e-038
-29.089573 293.70364 -33.780682 2.3509886e-038
-24.42745 295.3688 -33.972202 2.3509886e-038
-19.674843 296.49084 -34.101257 2.3509886e-038
-14.842318 296.74789 -34.130821 2.3509886e-038
-9.9741259 296.19531 -34.067265 2.3509886e-038
-5.1244607 295.67068 -34.006927 2.3509886e-038
-0.29249686 295.68561 -34.008644 2.3509886e-038
4.538064 295.57736 -33.996193 2.3509886e-038
9.3498116 294.98654 -33.928238 2.3509886e-038
14.090359 293.31598 -33.736095 2.3509886e-038
18.741835 291.11002 -33.482372 2.3509886e-038
23.384962 289.69357 -33.319458 2.3509886e-038
28.109591 289.59396 -33.308002 2.3509886e-038
29.756229 290.27536 -33.386375 2.3509886e-038
-109.3101 263.58688 -34.624416 3.5733111e-043
-107.48434 262.44455 -34.474361 3.5733111e-043
-102.37028 260.34622 -34.19873 3.5733111e-043
-98.038353 260.14133 -34.171814 3.5733111e-043
-94.055321 260.88556 -34.269573 3.5733111e-043
-90.57827 263.17059 -34.569736 3.5733111e-043
-87.626442 267.28549 -35.11026 3.5733111e-043
-84.805626 272.25278 -35.762756 3.5733111e-043
-81.738228 276.83795 -36.365059 3.5733111e-043
-65.75956 287.01309 -37.701653 3.5733111e-043
-61.542999 288.33707 -37.875572 3.5733111e-043
-56.719227 287.77066 -37.801167 3.5733111e-043
-51.905949 287.15991 -37.72094 3.5733111e-043
-47.270981 287.5123 -37.767227 2.3509886e-038
-42.708248 288.43021 -37.887806 2.3509886e-038
-38.155159 289.64914 -38.04792 2.3509886e-038
-33.602295 291.21539 -38.253662 2.3509886e-038
-29.053429 293.33871 -38.532578 2.3509886e-038
-24.446558 295.59985 -38.829597 2.3509886e-038
-19.722645 297.21121 -39.041264 2.3509886e-038
-14.889913 297.69949 -39.105404 2.3509886e-038
-10.012 297.32001 -39.055557 2.3509886e-038
-5.1448398 296.84647 -38.993355 2.3509886e-038
-0.2935203 296.72021 -38.976765 2.3509886e-038
4.5508995 296.41336 -38.936459 2.3509886e-038
9.3698559 295.61893 -38.832104 2.3509886e-038
14.118685 293.90561 -38.607044 2.3509886e-038
18.784119 291.76678 -38.326092 2.3509886e-038
23.444935 290.43649 -38.151348 2.3509886e-038
28.19142 290.43698 -38.151409 2.3509886e-038
29.692753 291.02676 -38.228886 2.3509886e-038
-111.00177 264.06467 -39.00264 3.5733111e-043
-107.50663 262.49899 -38.771389 3.5733111e-043
-102.5735 260.86307 -38.529758 3.5733111e-043
-98.023277 260.10132 -38.417248 3.5733111e-043
-93.862244 260.35001 -38.453979 3.5733111e-043
-90.25853 262.24161 -38.733372 3.5733111e-043
-87.028763 265.46243 -39.209091 3.5733111e-043
-83.817986 269.08215 -39.743725 3.5733111e-043
-80.40696 272.42422 -40.23735 3.5733111e-043
-76.758034 275.3049 -40.662834 3.5733111e-043
-72.930038 277.86203 -41.040524 3.5733111e-043
-69.007339 280.37393 -41.411533 3.5733111e-043
-64.972839 282.75662 -41.763462 3.5733111e-043
-60.679276 284.29044 -41.990005 3.5733111e-043
-56.224613 285.26117 -42.133389 3.5733111e-043
-51.739056 286.2366 -42.277458 3.5733111e-043
-47.226051 287.23904 -42.425518 2.3509886e-038
-42.668411 288.16119 -42.561722 2.3509886e-038
-38.095001 289.19244 -42.714039 2.3509886e-038
-33.52615 290.55548 -42.915359 2.3509886e-038
-29.001713 292.81656 -43.249321 2.3509886e-038
-24.442217 295.54733 -43.65266 2.3509886e-038
-19.749298 297.61288 -43.957745 2.3509886e-038
-14.932928 298.55948 -44.097561 2.3509886e-038
-10.057787 298.67975 -44.115318 2.3509886e-038
-5.171041 298.35828 -44.067837 2.3509886e-038
-0.29477379 297.98734 -44.013054 2.3509886e-038
4.5662799 297.41513 -43.928539 2.3509886e-038
9.3912659 296.29443 -43.763008 2.3509886e-038
14.140598 294.36179 -43.477558 2.3509886e-038
18.810503 292.17661 -43.1548 2.3509886e-038
23.487532 290.9642 -42.975731 2.3509886e-038
28.276955 291.31818 -43.028011 2.3509886e-038
29.76333 292.0289 -43.132988 2.3509886e-038
-109.48765 266.78842 -43.764935 3.5733111e-043
-109.22513 266.69504 -43.749619 3.5733111e-043
-104.11562 264.78497 -43.436283 3.5733111e-043
-99.059563 262.85107 -43.119034 3.5733111e-043
-94.549942 262.25751 -43.021667 3.5733111e-043
-90.728874 263.60815 -43.243233 3.5733111e-043
-87.140251 265.80249 -43.603199 3.5733111e-043
-83.54808 268.2157 -43.999069 3.5733111e-043
-79.898064 270.70007 -44.406616 3.5733111e-043
-76.128952 273.04861 -44.791878 3.5733111e-043
-72.271088 275.35144 -45.16964 3.5733111e-043
-68.378036 277.81711 -45.574116 3.5733111e-043
-64.365417 280.11319 -45.950779 3.5733111e-043
-60.164261 281.8775 -46.240204 3.5733111e-043
-55.900246 283.61548 -46.525303 3.5733111e-043
-51.575417 285.3313 -46.806774 2.3509886e-038
-47.11771 286.58008 -47.011627 2.3509886e-038
-42.569057 287.4902 -47.160927 2.3509886e-038
-38.007759 288.53015 -47.331524 2.3509886e-038
-33.454105 289.93112 -47.561348 2.3509886e-038
-28.957603 292.37122 -47.961628 2.3509886e-038
-24.430574 295.40659 -48.45956 2.3509886e-038
-19.76038 297.77985 -48.848881 2.3509886e-038
-14.967115 299.24304 -49.088905 2.3509886e-038
-10.103808 300.04639 -49.220692 2.3509886e-038
-5.1990957 299.97696 -49.209301 2.3509886e-038
-0.29612565 299.35394 -49.107101 2.3509886e-038
4.5824623 298.46915 -48.961956 2.3509886e-038
9.4142952 297.02097 -48.724392 2.3509886e-038
14.16939 294.96112 -48.38649 2.3509886e-038
18.855806 292.88031 -48.045139 2.3509886e-038
23.565296 291.92755 -47.888847 2.3509886e-038
28.423649 292.8295 -48.036804 2.3509886e-038
29.922853 293.78366 -48.193333 2.3509886e-038
-93.888481 267.37683 -48.231045 3.5733111e-043
-92.139854 267.7077 -48.290733 3.5733111e-043
-88.003952 268.43701 -48.422283 3.5733111e-043
-84.102264 269.99475 -48.703285 3.5733111e-043
-80.370338 272.30014 -49.119144 3.5733111e-043
-76.362122 273.88489 -49.40501 3.5733111e-043
-72.167137 274.95538 -49.598114 3.5733111e-043
-68.040428 276.4454 -49.866894 3.5733111e-043
-63.93277 278.23035 -50.188869 3.5733111e-043
-59.734489 279.86398 -50.483555 3.5733111e-043
-55.528942 281.73163 -50.82045 2.3509886e-038
-51.271408 283.64944 -51.166401 2.3509886e-038
-46.878654 285.1261 -51.432766 2.3509886e-038
-42.397766 286.33337 -51.650543 2.3509886e-038
-37.89262 287.6561 -51.889145 2.3509886e-038
-33.387737 289.3559 -52.195766 2.3509886e-038
-28.915283 291.94391 -52.662605 2.3509886e-038
-24.400986 295.04877 -53.222679 2.3509886e-038
-19.753735 297.67969 -53.697258 2.3509886e-038
-14.987825 299.65707 -54.053951 2.3509886e-038
-10.136394 301.01407 -54.298733 2.3509886e-038
-5.2208405 301.2316 -54.337975 2.3509886e-038
-0.29723853 300.47897 -54.202209 2.3509886e-038
4.5956855 299.33041 -53.995029 2.3509886e-038
9.4361544 297.71066 -53.702847 2.3509886e-038
14.213078 295.87061 -53.370926 2.3509886e-038
18.948528 294.3205 -53.091305 2.3509886e-038
23.716776 293.80408 -52.99815 2.3509886e-038
28.630093 294.95633 -53.206005 2.3509886e-038
30.021149 295.92926 -53.381508 2.3509886e-038
-80.749733 278.83862 -54.855495 2.3509886e-038
-77.733131 278.80225 -54.848339 2.3509886e-038
-72.977417 278.04254 -54.698883 2.3509886e-038
-68.289108 277.45581 -54.583458 2.3509886e-038
-63.787014 277.59604 -54.611042 2.3509886e-038
-59.414555 278.36505 -54.762329 2.3509886e-038
-55.144489 279.78107 -55.040905 2.3509886e-038
-50.869919 281.42828 -55.364956 2.3509886e-038
-46.520939 282.95038 -55.664394 2.3509886e-038
-42.120926 284.46375 -55.962116 2.3509886e-038
-37.686539 286.09164 -56.282372 2.3509886e-038
-33.251369 288.1741 -56.692047 2.3509886e-038
-28.813358 290.91483 -57.231228 2.3509886e-038
-24.32254 294.10025 -57.857895 2.3509886e-038
-19.716286 297.11539 -58.451054 2.3509886e-038
-14.985917 299.61893 -58.943573 2.3509886e-038
-10.149627 301.40704 -59.295345 2.3509886e-038
-5.234118 301.99765 -59.411537 2.3509886e-038
-0.29805508 301.30444 -59.275158 2.3509886e-038
4.6075234 300.10147 -59.038502 2.3509886e-038
9.4631815 298.56335 -58.735912 2.3509886e-038
14.275029 297.16022 -58.459873 2.3509886e-038
19.078249 296.33539 -58.297607 2.3509886e-038
23.934669 296.50336 -58.33065 2.3509886e-038
28.947575 298.22714 -58.669769 2.3509886e-038
29.963928 299.02304 -58.826344 2.3509886e-038
-73.618134 284.69928 -60.661156 2.3509886e-038
-69.346504 281.75192 -60.033157 2.3509886e-038
-64.135582 279.11298 -59.470871 2.3509886e-038
-59.393265 278.26529 -59.290257 2.3509886e-038
-54.921455 278.64948 -59.372116 2.3509886e-038
-50.547585 279.64502 -59.584236 2.3509886e-038
-46.20509 281.02933 -59.879192 2.3509886e-038
-41.846581 282.61096 -60.21619 2.3509886e-038
-37.440975 284.22748 -60.560627 2.3509886e-038
-33.055176 286.47375 -61.039242 2.3509886e-038
-28.663437 289.40115 -61.662983 2.3509886e-038
-24.221937 292.88382 -62.405037 2.3509886e-038
-19.668728 296.39871 -63.153961 2.3509886e-038
-14.974726 299.39517 -63.792423 2.3509886e-038
-10.155254 301.57413 -64.256699 2.3509886e-038
-5.2435417 302.54141 -64.462791 2.3509886e-038
-0.29877219 302.02933 -64.353691 2.3509886e-038
4.6215587 301.01566 -64.137695 2.3509886e-038
9.5036869 299.84128 -63.887478 2.3509886e-038
14.357408 298.87506 -63.681602 2.3509886e-038
19.224827 298.61212 -63.625572 2.3509886e-038
24.186682 299.62527 -63.841446 2.3509886e-038
29.385023 302.73386 -64.503799 2.3509886e-038
29.832859 303.18524 -64.599976 2.3509886e-038
-66.850754 284.31528 -65.225739 2.3509886e-038
-64.984138 282.80579 -64.87944 2.3509886e-038
-59.835415 280.33682 -64.313026 2.3509886e-038
-55.071068 279.40854 -64.100067 2.3509886e-038
-50.51395 279.45895 -64.111626 2.3509886e-038
-46.128567 280.5639 -64.36512 2.3509886e-038
-41.765472 282.06317 -64.709076 2.3509886e-038
-37.341904 283.4754 -65.033058 2.3509886e-038
-32.952602 285.58481 -65.516983 2.3509886e-038
-28.57762 288.5347 -66.193733 2.3509886e-038
-24.169649 292.25156 -67.046425 2.3509886e-038
-19.650106 296.1181 -67.933464 2.3509886e-038
-14.978515 299.47092 -68.702644 2.3509886e-038
-10.167545 301.93915 -69.26889 2.3509886e-038
-5.253397 303.11005 -69.537506 2.3509886e-038
-0.29956293 302.8287 -69.472961 2.3509886e-038
4.6389203 302.14642 -69.316437 2.3509886e-038
9.557806 301.54874 -69.179329 2.3509886e-038
14.464822 301.11108 -69.078918 2.3509886e-038
19.418636 301.6225 -69.196243 2.3509886e-038
24.576889 304.4592 -69.847015 2.3509886e-038
30.162094 310.7395 -71.287804 2.3509886e-038
30.209105 310.80914 -71.303787 2.3509886e-038
-59.629204 284.58807 -69.939178 2.3509886e-038
-55.781216 283.01157 -69.551743 2.3509886e-038
-50.955696 281.90286 -69.279266 2.3509886e-038
-46.404427 282.24173 -69.362549 2.3509886e-038
-41.952332 283.32513 -69.628807 2.3509886e-038
-37.491318 284.60965 -69.944481 2.3509886e-038
-33.051502 286.44193 -70.394775 2.3509886e-038
-28.633316 289.09705 -71.047287 2.3509886e-038
-24.19948 292.61224 -71.911171 2.3509886e-038
-19.672789 296.4599 -72.85675 2.3509886e-038
-15.004365 299.98776 -73.72374 2.3509886e-038
-10.191471 302.64966 -74.377914 2.3509886e-038
-5.2686567 303.99048 -74.707436 2.3509886e-038
-0.30081713 304.09659 -74.733513 2.3509886e-038
4.6642361 303.79535 -74.659477 2.3509886e-038
9.6280098 303.7637 -74.651695 2.3509886e-038
14.607046 304.07172 -74.727402 2.3509886e-038
19.714628 306.22003 -75.255356 2.3509886e-038
25.262077 312.94733 -76.90863 2.3509886e-038
31.498323 324.50577 -79.749191 2.3509886e-038
32.363743 326.2626 -80.180939 2.3509886e-038
-52.916611 288.00125 -75.48465 2.3509886e-038
-51.998421 287.67151 -75.398224 2.3509886e-038
-47.149139 286.77124 -75.16227 2.3509886e-038
-42.45676 286.73181 -75.151932 2.3509886e-038
-37.877216 287.53915 -75.363541 2.3509886e-038
-33.342579 288.96454 -75.737129 2.3509886e-038
-28.854244 291.32764 -76.356483 2.3509886e-038
-24.340366 294.31583 -77.139694 2.3509886e-038
-19.762259 297.80817 -78.055023 2.3509886e-038
-15.073677 301.37354 -78.989502 2.3509886e-038
-10.244239 304.21667 -79.734688 2.3509886e-038
-5.3029733 305.97046 -80.194351 2.3509886e-038
-0.30340025 306.70782 -80.387611 2.3509886e-038
4.7102704 306.7937 -80.410118 2.3509886e-038
9.7341509 307.11243 -80.49366 2.3509886e-038
14.800881 308.10675 -80.754265 2.3509886e-038
20.092329 312.08673 -81.797417 2.3509886e-038
26.03582 322.53244 -84.535217 2.3509886e-038
32.706169 336.94934 -88.313866 2.3509886e-038
35.917709 342.8096 -89.849823 2.3509886e-038
-44.237022 293.35895 -81.68309 2.3509886e-038
-43.415295 293.20526 -81.640305 2.3509886e-038
-38.623035 293.2009 -81.639091 2.3509886e-038
-33.969105 294.39438 -81.971397 2.3509886e-038
-29.396114 296.79865 -82.640839 2.3509886e-038
-24.719269 298.89737 -83.225212 2.3509886e-038
-19.998329 301.36563 -83.912483 2.3509886e-038
-15.235175 304.60245 -84.813744 2.3509886e-038
-10.358161 307.59976 -85.648315 2.3509886e-038
-5.3701525 309.84659 -86.273926 2.3509886e-038
-0.3076793 311.03354 -86.604424 2.3509886e-038
4.780838 311.38992 -86.703651 2.3509886e-038
9.8898277 312.02405 -86.880219 2.3509886e-038
15.070389 313.71704 -87.351616 2.3509886e-038
20.507441 318.53448 -88.692993 2.3509886e-038
26.565872 329.09875 -91.634514 2.3509886e-038
33.259247 342.64734 -95.406998 2.3509886e-038
39.341 351.73447 -97.93721 2.3509886e-038
-34.475639 306.37195 -90.313309 2.3509886e-038
-30.56546 308.60495 -90.971558 2.3509886e-038
-25.518421 308.56046 -90.958435 2.3509886e-038
-20.462032 308.35345 -90.897415 2.3509886e-038
-15.519427 310.28558 -91.466988 2.3509886e-038
-10.542863 313.08472 -92.292114 2.3509886e-038
-5.4700232 315.60889 -93.036194 2.3509886e-038
-0.31341287 316.82962 -93.396049 2.3509886e-038
4.871448 317.29166 -93.532249 2.3509886e-038
10.096466 318.54349 -93.901268 2.3509886e-038
15.415808 320.90753 -94.598152 2.3509886e-038
20.90988 324.78543 -95.741295 2.3509886e-038
26.8088 332.10818 -97.899918 2.3509886e-038
33.284847 342.9111 -101.08443 2.3509886e-038
40.042542 353.08401 -104.08324 2.3509886e-038
41.607372 355.02725 -104.65607 2.3509886e-038
-23.343287 318.96021 -99.236717 2.3509886e-038
-21.097561 317.93057 -98.916382 2.3509886e-038
-15.942991 318.75406 -99.172585 2.3509886e-038
-10.830049 321.61307 -100.0621 2.3509886e-038
-5.6106954 323.7254 -100.7193 2.3509886e-038
-0.32056853 324.06329 -100.82443 2.3509886e-038
4.9780064 324.23212 -100.87695 2.3509886e-038
10.318795 325.55798 -101.28946 2.3509886e-038
15.73665 327.58649 -101.92059 2.3509886e-038
21.236506 329.8588 -102.62756 2.3509886e-038
26.956036 333.9321 -103.89487 2.3509886e-038
33.148571 341.50714 -106.25166 2.3509886e-038
39.783722 350.80182 -109.14347 2.3509886e-038
41.709923 353.19202 -109.88712 2.3509886e-038
-11.77632 333.39755 -109.17709 2.3509886e-038
-11.232714 333.57074 -109.2338 2.3509886e-038
-5.7819591 333.60696 -109.24566 2.3509886e-038
-0.32870442 332.28787 -108.8137 2.3509886e-038
5.093854 331.77759 -108.6466 2.3509886e-038
10.527958 332.15704 -108.77085 2.3509886e-038
15.993589 332.93512 -109.02565 2.3509886e-038
21.516745 334.21164 -109.44367 2.3509886e-038
27.183418 336.74896 -110.27456 2.3509886e-038
33.13496 341.36688 -111.78678 2.3509886e-038
39.44318 347.79901 -113.8931 2.3509886e-038
39.668457 348.03323 -113.9698 2.3509886e-038
-1.8153336 340.94321 -117.21989 2.3509886e-038
-0.33672562 340.39651 -117.03193 2.3509886e-038
5.2047958 339.00357 -116.55302 2.3509886e-038
10.712825 337.98959 -116.20441 2.3509886e-038
16.215982 337.56458 -116.05828 2.3509886e-038
21.783539 338.35565 -116.33026 2.3509886e-038
27.464701 340.23349 -116.97588 2.3509886e-038
33.270714 342.76547 -117.8464 2.3509886e-038
35.542065 343.98914 -118.26711 2.3509886e-038
11.261257 342.44724 -123.3334 2.3509886e-038
16.397518 341.3436 -122.93594 2.3509886e-038
21.989653 341.55719 -123.01285 2.3509886e-038
25.640326 342.33472 -123.29288 2.3509886e-038
-107.79102 263.19339 -33.109142 3.5733111e-043
-109.29908 266.87561 -43.902924 3.5733111e-043
-102.86896 261.61447 -30.633497 3.5733111e-043
-105.19551 267.53131 -45.769005 3.5733111e-043
-98.525269 261.43332 -29.887808 3.5733111e-043
-100.38764 266.37506 -46.614887 3.5733111e-043
-94.578461 262.33661 -29.844553 3.5733111e-043
-96.048195 266.4133 -47.521603 3.5733111e-043
-91.17453 264.90298 -30.382282 3.5733111e-043
-92.343056 268.2981 -48.821259 3.5733111e-043
-88.442032 269.77332 -31.824574 3.5733111e-043
-88.491386 269.92383 -50.186306 3.5733111e-043
-85.429169 274.25455 -34.103436 3.5733111e-043
-84.947762 272.70911 -51.842422 3.5733111e-043
-81.713333 276.85031 -36.377251 3.5733111e-043
-81.888687 277.44446 -54.061607 2.3509886e-038
-77.588387 278.28311 -37.909309 3.5733111e-043
-78.349525 281.01303 -56.517918 2.3509886e-038
-73.427963 279.75909 -38.727013 3.5733111e-043
-74.550949 284.03769 -59.777706 2.3509886e-038
-69.4953 282.35651 -38.777626 3.5733111e-043
-70.24453 285.40057 -63.317478 2.3509886e-038
-67.311539 292.93448 67.494461 2.3509528e-038
-67.32058 292.97382 34.81583 2.3509528e-038
-65.898064 286.78314 -37.772144 3.5733111e-043
-65.249573 283.96094 -66.151558 2.3509886e-038
-62.906063 294.72324 63.203094 2.3509528e-038
-63.637188 298.14862 21.0327 2.3509886e-038
-62.602871 293.3027 -35.100494 3.5733111e-043
-60.669544 284.24484 -69.154099 2.3509886e-038
-58.525948 296.93723 54.105946 2.3509528e-038
-58.720665 297.92514 7.4145021 2.3509886e-038
-58.519466 296.90436 -29.120073 3.5733111e-043
-56.387844 286.08936 -72.592438 2.3509886e-038
-54.129971 299.4639 44.475258 2.3509528e-038
-52.1408 288.4592 -76.096664 2.3509886e-038
-48.661842 295.97183 31.553711 2.3509528e-038
-47.893333 291.29758 -79.320564 2.3509886e-038
-44.046432 297.46765 21.200188 2.3509528e-038
-43.506477 293.82108 -82.158249 2.3509886e-038
-38.94347 295.63342 15.087435 2.3509528e-038
-39.173733 297.38147 -85.187088 2.3509886e-038
-33.980156 294.49017 13.508816 2.3509528e-038
-35.151699 304.64334 -89.422096 2.3509886e-038
-29.285578 295.68262 17.216427 2.3509528e-038
-31.150473 314.51157 -94.549454 2.3509886e-038
-24.164715 292.19186 79.042 2.3418052e-038
-26.356073 318.68909 -97.960938 2.3509886e-038
-19.409952 292.49908 82.499214 2.3418052e-038
-21.215485 319.70764 -100.31169 2.3509886e-038
-14.728513 294.47253 69.982697 2.3418052e-038
-16.252726 324.94672 -104.1117 2.3509886e-038
-9.8219185 291.67529 21.57482 2.3418409e-038
-11.256155 334.26688 -109.74067 2.3509886e-038
-5.0054646 288.80484 21.150961 2.3418409e-038
-5.883626 339.47293 -114.4508 2.3509886e-038
-0.28343707 286.52704 29.883429 2.3418409e-038
-0.33781415 341.49692 -118.20049 2.3509886e-038
4.3094792 280.68896 43.283154 2.3418409e-038
5.2648854 342.91736 -121.44262 2.3509886e-038
8.9434004 282.16425 61.88208 2.3418409e-038
10.856298 342.51617 -123.2729 2.3509886e-038
13.489665 280.81146 72.395454 2.3418409e-038
13.397374 278.89026 21.428375 2.3509886e-038
13.822509 287.7402 6.9032521 2.3509886e-038
16.420074 341.81314 -123.86904 2.3509886e-038
17.938217 278.62769 73.408417 2.3418409e-038
18.124063 281.51437 39.511776 2.3418409e-038
18.440643 286.4317 3.4298778 2.3509886e-038
22.009039 341.85831 -123.72279 2.3509886e-038
22.870348 283.31851 3.6531737 2.3509886e-038
27.655169 342.59302 -122.75228 2.3509886e-038
27.09934 279.18604 5.9486823 2.3509886e-038
33.328465 343.36047 -120.00828 2.3509886e-038
31.361286 276.53513 9.7556934 9.1476764e-041
32.371441 285.44241 -16.740778 9.1476764e-041
40.025066 352.92993 -99.57885 2.3509886e-038
39.425282 347.64117 -114.23306 2.3509886e-038
35.488903 273.51657 14.403201 9.1476764e-041
36.308208 279.83105 -7.7244287 9.1476764e-041
39.817074 272.54623 19.134754 9.1476764e-041
40.552452 277.57986 -2.0654523 9.1476764e-041
43.846577 269.9325 23.171822 9.1476764e-041
43.973644 270.71475 2.9570127 9.1476764e-041
47.711174 266.87421 27.061171 9.1476764e-041
48.415592 270.81439 8.3027058 9.1476764e-041
52.22142 267.63708 30.775623 9.1476764e-041
52.615028 269.65433 14.429688 9.1476764e-041
56.874672 268.9584 32.398464 9.1476764e-041
57.19001 270.44962 21.58876 9.1476764e-041
