# .PCD v0.7 - Point Cloud Data file format
VERSION 0.7
FIELDS x y z rgb
SIZE 4 4 4 4
TYPE F F F F
COUNT 1 1 1 1
WIDTH 782
HEIGHT 1
VIEWPOINT 0 0 0 1 0 0 0
POINTS 782
DATA ascii
-32.374512 245.49942 72.842659 2.3418052e-038
41.986244 234.60039 19.888222 9.1476764e-041
-109.78313 240.3085 -23.767483 3.5733111e-043
-77.943413 243.37489 56.165112 2.3509528e-038
-3.3753798 238.89478 61.881962 2.3418409e-038
-37.638874 245.26366 74.570763 2.3418052e-038
-33.008259 244.99553 74.489243 2.3418052e-038
-28.359356 245.37216 74.603752 2.3418052e-038
-27.446268 245.68907 74.700111 2.3418052e-038
-38.591228 246.3322 70.177605 2.3418052e-038
-37.878487 246.151 70.125992 2.3418052e-038
-33.143135 245.99664 70.082008 2.3418052e-038
-28.609304 247.53477 70.520218 2.3418052e-038
-26.676455 249.23946 71.005859 2.3418052e-038
-38.826599 246.72252 65.563309 2.3418052e-038
-37.907711 246.34093 65.461906 2.3418052e-038
-33.143852 246.00194 65.371826 2.3418052e-038
-28.686909 248.20622 65.957581 2.3418052e-038
-26.42675 250.78317 66.642372 2.3418052e-038
-8.1921368 240.50302 63.910561 2.3418409e-038
-4.7316551 238.83574 63.467495 2.3418409e-038
-0.1573875 239.08916 63.53484 2.3418409e-038
1.2727271 240.07155 63.795902 2.3418409e-038
-80.526054 241.05791 59.44101 2.3509528e-038
-78.740677 241.34253 59.511192 2.3509528e-038
-74.75029 243.40067 60.018696 2.3509528e-038
-73.428246 244.71426 60.342606 2.3509528e-038
-38.817959 246.52396 60.788849 2.3418052e-038
-37.864147 246.05783 60.673908 2.3418052e-038
-33.084148 245.55879 60.550858 2.3418052e-038
-28.663616 248.0047 61.153976 2.3418052e-038
-26.217737 251.03003 61.899971 2.3418052e-038
-9.6400671 243.19836 59.968811 2.3418409e-038
-9.4705267 243.0555 59.933582 2.3418409e-038
-4.7567821 240.10406 59.205803 2.3418409e-038
-0.15784854 239.78955 59.12825 2.3418409e-038
2.1307759 241.45444 59.538784 2.3418409e-038
-81.703568 242.41466 55.132561 2.3509528e-038
-79.17572 242.67593 55.191982 2.3509528e-038
-74.884262 243.83693 55.456028 2.3509528e-038
-71.224342 246.92064 56.15736 2.3509528e-038
-38.928047 247.20314 56.221607 2.3418052e-038
-37.954453 246.64465 56.094593 2.3418052e-038
-33.120857 245.83125 55.909599 2.3418052e-038
-28.695318 248.27901 56.466293 2.3418052e-038
-25.896629 251.93748 57.298344 2.3418052e-038
-10.171144 243.92332 55.475677 2.3418409e-038
-9.4835043 243.38853 55.35405 2.3418409e-038
-4.7668543 240.61246 54.722687 2.3418409e-038
-0.1578587 239.80498 54.53904 2.3418409e-038
2.333771 241.03087 54.817844 2.3418409e-038
-82.21151 245.8343 51.201809 2.3509528e-038
-79.927841 244.98122 51.024128 2.3509528e-038
-74.935081 244.00238 50.820263 2.3509528e-038
-70.727165 245.61888 51.156937 2.3509528e-038
-69.333908 246.8541 51.414207 2.3509528e-038
-39.121151 248.42867 51.742157 2.3509886e-038
-38.135422 247.82068 51.615524 2.3418052e-038
-33.234882 246.67761 51.377449 2.3418052e-038
-28.744884 248.70784 51.800304 2.3418052e-038
-25.346066 253.48657 52.795605 2.3418052e-038
-10.330145 243.7527 50.768257 2.3418409e-038
-9.4754105 243.18083 50.649147 2.3418409e-038
-4.773634 240.95468 50.18549 2.3418409e-038
-0.15861018 240.94658 50.183804 2.3418409e-038
2.1606965 242.41876 50.490429 2.3418409e-038
-81.484215 247.40334 46.790051 2.3509528e-038
-80.449226 246.57925 46.634201 2.3509528e-038
-74.862267 243.76527 46.102005 2.3509528e-038
-70.428322 244.58109 46.256298 2.3509528e-038
-67.64566 246.93076 46.70068 2.3509528e-038
-39.259228 249.30554 47.149807 2.3418052e-038
-38.274296 248.72314 47.039661 2.3418052e-038
-33.326813 247.35992 46.781845 2.3418052e-038
-28.771175 248.93533 47.079792 2.3418052e-038
-24.722092 254.57726 48.146816 2.3418052e-038
-10.510474 242.80635 45.920647 2.3418409e-038
-9.4411068 242.30043 45.82497 2.3418409e-038
-4.7826867 241.41161 45.656872 2.3418409e-038
-0.16043925 243.72513 46.094414 2.3418409e-038
1.6988652 246.00209 46.525043 2.3418409e-038
-79.381256 245.45784 41.720837 2.3509528e-038
-74.780716 243.49976 41.388016 2.3509528e-038
-70.3769 244.40251 41.541462 2.3509528e-038
-66.538277 247.53658 42.074162 2.3509528e-038
-65.976616 248.28636 42.201603 2.3509528e-038
-39.308517 249.61848 42.428028 2.3509886e-038
-38.331028 249.09181 42.338509 2.3418052e-038
-33.38306 247.77742 42.115101 2.3418052e-038
-28.80057 249.18967 42.355141 2.3418052e-038
-24.475983 253.83762 43.145157 2.3418052e-038
-24.247816 254.12097 43.193321 2.3418052e-038
-11.052241 242.18018 41.163723 2.3418409e-038
-9.4129124 241.57684 41.061176 2.3418409e-038
-4.7938514 241.97516 41.12888 2.3418409e-038
-0.16239943 246.70287 41.932457 2.3418409e-038
1.0729647 248.96399 42.316784 2.3418409e-038
-77.630028 244.09775 36.814426 2.3509528e-038
-74.774261 243.47874 36.721066 2.3509528e-038
-70.434319 244.6019 36.890457 2.3509528e-038
-66.529991 247.50574 37.328411 2.3509528e-038
-64.302994 251.02419 37.859055 2.3509528e-038
-39.358097 249.93335 37.694538 2.3509886e-038
-38.390652 249.47928 37.626057 2.3418052e-038
-33.47242 248.44064 37.46941 2.3418052e-038
-28.8463 249.58531 37.642052 2.3418052e-038
-24.397966 253.02852 38.161346 2.3418052e-038
-24.004232 253.30597 38.20319 2.3418052e-038
-12.048227 242.22665 36.532227 2.3418409e-038
-9.3891983 240.96823 36.342434 2.3418409e-038
-4.7894287 241.75192 36.460632 2.3418409e-038
-0.16293454 247.51575 37.329918 2.3418409e-038
0.62567604 249.12929 37.573269 2.3418409e-038
-76.804115 244.52267 32.195145 2.3509528e-038
-74.995667 244.19966 32.152615 2.3509528e-038
-70.475342 244.74437 32.224335 2.3509528e-038
-66.331825 246.76854 32.490845 2.3509528e-038
-62.709972 251.1929 33.07338 2.3509528e-038
-62.155849 252.19157 33.204872 2.3509528e-038
-39.416573 250.30479 32.956448 2.3418052e-038
-38.45837 249.91933 32.905697 2.3418052e-038
-33.578583 249.22862 32.814754 2.3418052e-038
-28.889502 249.95911 32.910934 2.3418052e-038
-24.371349 252.75249 33.278725 2.3418409e-038
-23.940792 252.97705 33.308292 2.3418409e-038
-13.386252 244.26776 32.161583 2.3418409e-038
-9.4027262 241.31541 31.77286 2.3418409e-038
-4.7874055 241.64981 31.816889 2.3418409e-038
-0.16284849 247.38504 32.572021 2.3418409e-038
0.6801458 249.11221 32.799431 2.3418409e-038
-76.556984 247.15631 27.808092 2.3509528e-038
-75.791771 246.79193 27.767096 2.3509528e-038
-70.800728 245.87436 27.663858 2.3509528e-038
-66.261444 246.50668 27.735001 2.3509528e-038
-62.229351 249.2677 28.04565 2.3509528e-038
-60.100967 252.37781 28.395575 2.3509528e-038
-39.501377 250.8421 28.222788 2.3509886e-038
-38.542477 250.4659 28.180462 2.3418052e-038
-33.652756 249.77916 28.103197 2.3418052e-038
-28.937906 250.37793 28.170563 2.3418409e-038
-24.4424 253.48935 28.520636 2.3418409e-038
-24.011339 253.74428 28.549318 2.3418409e-038
-14.626125 247.17567 27.810272 2.3418409e-038
-14.341499 246.76691 27.76428 2.3418409e-038
-9.4279337 241.96236 27.223709 2.3418409e-038
-4.7878218 241.67082 27.190908 2.3418409e-038
-0.16262075 247.03908 27.794903 2.3418409e-038
0.74165642 248.84131 27.997677 2.3418409e-038
-75.782181 249.56187 23.298859 2.3509528e-038
-71.327934 247.70523 23.125525 2.3509528e-038
-66.442116 247.17882 23.07638 2.3509528e-038
-62.190605 249.11249 23.256903 2.3509528e-038
-58.756016 254.39546 23.750116 2.3509528e-038
-39.666428 251.87079 23.514416 2.3509886e-038
-38.691372 251.43349 23.473591 2.3509886e-038
-33.740223 250.42834 23.379753 2.3418052e-038
-28.995667 250.87769 23.421701 2.3418409e-038
-24.597681 255.09972 23.815866 2.3418409e-038
-24.177465 255.53322 23.856339 2.3418409e-038
-15.572576 251.02303 23.43527 2.3418409e-038
-14.477334 249.10416 23.256126 2.3418409e-038
-9.4729252 243.11703 22.697174 2.3418409e-038
-4.8080158 242.69011 22.657318 2.3418409e-038
-0.16303062 247.66173 23.121464 2.3418409e-038
0.49118704 248.91289 23.23827 2.3418409e-038
39.020695 237.95833 22.215563 9.1476764e-041
40.603107 236.44986 22.074734 9.1476764e-041
44.857296 235.01138 21.940437 9.1476764e-041
47.311104 235.85201 22.018919 9.1476764e-041
-74.615005 251.89478 18.692081 2.3509528e-038
-71.968826 249.93089 18.54635 2.3509528e-038
-66.625679 247.86171 18.392805 2.3509528e-038
-62.280914 249.47424 18.512463 2.3509528e-038
-58.836586 255.26128 18.941896 2.3509528e-038
-57.900539 258.88733 19.21097 2.3509528e-038
-39.923203 253.12227 18.783169 2.3509886e-038
-38.85239 252.47986 18.735498 2.3509886e-038
-33.838097 251.15482 18.637171 2.3509886e-038
-29.05724 251.41043 18.656139 2.3418409e-038
-24.710453 256.26929 19.016697 2.3418409e-038
-24.240721 256.80878 19.05673 2.3418409e-038
-16.250294 253.33086 18.798647 2.3418409e-038
-14.553102 250.40785 18.581743 2.3418409e-038
-9.5322151 244.63867 18.153635 2.3418409e-038
-4.8423858 244.425 18.137781 2.3418409e-038
-0.16367836 248.64569 18.450981 2.3418409e-038
0.10623746 249.08186 18.483347 2.3418409e-038
34.676048 238.57217 17.703466 9.1476764e-041
36.207943 237.32549 17.610954 9.1476764e-041
40.408047 235.31392 17.461683 9.1476764e-041
44.815243 234.79106 17.422884 9.1476764e-041
46.751522 235.27405 17.458725 9.1476764e-041
-73.06353 253.52878 13.957476 2.3509528e-038
-72.977066 253.43228 13.952162 2.3509528e-038
-66.925529 248.97723 13.7069 2.3509528e-038
-62.352863 249.76245 13.750129 2.3509528e-038
-58.762505 254.93988 14.035161 2.3509528e-038
-56.745052 265.01816 14.589999 2.3509886e-038
-40.431965 254.41129 14.00606 2.3509886e-038
-38.991737 253.38539 13.949581 2.3509886e-038
-33.964123 252.09021 13.878279 2.3509886e-038
-29.181171 252.48271 13.899886 2.3509886e-038
-24.758698 256.76959 14.135892 2.3418409e-038
-23.983379 257.25107 14.162397 2.3418409e-038
-17.147892 253.41898 13.951431 2.3418409e-038
-14.532784 250.05826 13.766414 2.3418409e-038
-9.5860806 246.0211 13.544157 2.3418409e-038
-4.8795724 246.30203 13.559623 2.3418409e-038
-0.32870853 250.56148 13.794117 2.3509886e-038
30.8274 240.02567 13.214091 9.1476764e-041
31.854767 238.76724 13.144811 9.1476764e-041
36.020237 236.09515 12.997705 9.1476764e-041
40.523014 235.98343 12.991554 9.1476764e-041
44.846169 236.87305 13.04053 9.1476764e-041
-70.711304 251.97952 9.0459967 2.3509528e-038
-67.175224 249.90614 8.9715624 2.3509528e-038
-62.42815 250.06401 8.977231 2.3509528e-038
-58.298553 252.92703 9.0800123 2.3509528e-038
-54.884037 259.69244 9.3228884 2.3509886e-038
-52.94083 265.55045 9.5331879 2.3509886e-038
-42.170216 256.40472 9.2048597 2.3509886e-038
-39.135071 254.31683 9.1299047 2.3509886e-038
-34.087471 253.00571 9.0828362 2.3509886e-038
-29.232735 252.92885 9.0800772 2.3509886e-038
-24.585247 254.97079 9.1533823 2.3509886e-038
-22.065744 255.01373 9.1549244 2.3509886e-038
-19.766867 254.06015 9.1206903 2.3418409e-038
-19.625101 253.97849 9.1177588 2.3418409e-038
-14.544787 250.2648 8.9844379 2.3418409e-038
-9.6551428 247.79355 8.8957214 2.3418409e-038
-4.9124131 247.95972 8.9016867 2.3509886e-038
-0.74406773 252.2659 9.0562773 2.3509886e-038
26.36977 240.67155 8.6400433 9.1476764e-041
27.396221 239.77014 8.6076832 9.1476764e-041
31.635571 237.12425 8.5126963 9.1476764e-041
36.021946 236.10635 8.4761543 9.1476764e-041
40.754852 237.33353 8.5202093 9.1476764e-041
41.922909 238.0475 8.5458403 9.1476764e-041
-69.204803 251.64929 4.2142706 2.3509528e-038
-67.511162 251.15591 4.206008 2.3509528e-038
-62.651478 250.95859 4.2027035 2.3509528e-038
-58.001984 251.64038 4.2141209 2.3509528e-038
-53.675007 253.97173 4.2531629 2.3509886e-038
-49.267414 256.3483 4.292963 2.3509886e-038
-44.237389 255.65392 4.2813339 2.3509886e-038
-39.139309 254.34438 4.2594037 2.3509886e-038
-34.193958 253.7961 4.2502217 2.3509886e-038
-29.275711 253.30069 4.2419257 2.3509886e-038
-24.422529 253.28326 4.2416339 2.3509886e-038
-19.511414 252.50719 4.2286372 2.3509886e-038
-14.59457 251.12137 4.2054296 2.3509886e-038
-9.7244892 249.57327 4.1795044 2.3509886e-038
-4.9342256 249.06073 4.1709208 2.3509886e-038
-0.63871092 252.81474 4.2337875 2.3509886e-038
21.696251 242.15529 4.0552778 9.1476764e-041
22.901463 240.79608 4.032516 9.1476764e-041
27.181673 237.89244 3.9838898 9.1476764e-041
31.639603 237.15445 3.9715312 9.1476764e-041
36.188808 237.20006 3.9722948 9.1476764e-041
38.41169 237.8083 3.9824805 9.1476764e-041
-68.995552 254.36971 -0.61213887 2.3509528e-038
-68.277 254.00499 -0.61126119 2.3509528e-038
-63.052429 252.56464 -0.60779494 2.3509528e-038
-58.08445 251.99815 -0.60643172 2.3509886e-038
-53.336594 252.37048 -0.60732776 2.3509886e-038
-48.639824 253.08281 -0.60904193 2.3509886e-038
-43.875874 253.56465 -0.61020148 2.3509886e-038
-39.077732 253.94421 -0.61111498 2.3509886e-038
-34.270836 254.3667 -0.6121316 2.3509886e-038
-29.352228 253.96272 -0.6111595 2.3509886e-038
-24.394106 252.98849 -0.60881501 2.3509886e-038
-19.502611 252.39328 -0.6073826 2.3509886e-038
-14.639039 251.88652 -0.60616308 2.3509886e-038
-9.7637463 250.58078 -0.60302091 2.3509886e-038
-4.9522505 249.97054 -0.60155231 2.3509886e-038
-0.16675034 253.31238 -0.6095944 2.3509886e-038
0.60666615 254.48564 -0.61241788 2.3509886e-038
16.555861 246.1701 -0.59240663 9.1476764e-041
18.529551 243.957 -0.58708078 9.1476764e-041
22.885483 240.62805 -0.57906967 9.1476764e-041
27.304764 238.96971 -0.5750789 9.1476764e-041
31.897604 239.08832 -0.57536435 9.1476764e-041
35.313026 240.01747 -0.5776003 9.1476764e-041
-68.82547 257.0181 -5.541204 2.3509886e-038
-63.486935 254.30513 -5.4827132 2.3509886e-038
-58.286247 252.87363 -5.4518509 2.3509886e-038
-53.349716 252.43256 -5.4423418 2.3509886e-038
-48.601517 252.8835 -5.4520636 2.3509886e-038
-43.883377 253.60802 -5.4676838 2.3509886e-038
-39.111874 254.16609 -5.4797163 2.3509886e-038
-34.298023 254.56851 -5.4883919 2.3509886e-038
-29.414082 254.49791 -5.4868698 2.3509886e-038
-24.505497 254.14371 -5.4792333 2.3509886e-038
-19.623356 253.9559 -5.4751844 2.3509886e-038
-14.711753 253.13768 -5.4575438 2.3509886e-038
-9.8022661 251.56937 -5.4237318 2.3509886e-038
-4.9637303 250.55 -5.4017544 2.3509886e-038
-0.16578002 251.83836 -5.4295311 2.3509886e-038
4.690804 253.62756 -5.4681053 2.3509886e-038
9.4639082 251.37892 -5.4196258 9.1476764e-041
14.044592 247.25945 -5.330811 9.1476764e-041
18.538441 244.07405 -5.2621355 9.1476764e-041
23.040142 242.2542 -5.2229004 9.1476764e-041
27.541946 241.04552 -5.1968417 9.1476764e-041
31.869534 241.5869 -5.2085137 9.1476764e-041
-68.574661 258.99591 -10.544427 2.3509886e-038
-63.905449 255.98154 -10.421702 2.3509886e-038
-58.501663 253.80823 -10.333222 2.3509886e-038
-53.518566 253.23149 -10.309742 2.3509886e-038
-48.801926 253.92627 -10.338028 2.3509886e-038
-44.053089 254.58881 -10.365002 2.3509886e-038
-39.224667 254.89905 -10.377632 2.3509886e-038
-34.342773 254.90063 -10.377697 2.3509886e-038
-29.472286 255.00151 -10.381804 2.3509886e-038
-24.631687 255.45239 -10.40016 2.3509886e-038
-19.738508 255.44614 -10.399906 2.3509886e-038
-14.792398 254.5253 -10.362415 2.3509886e-038
-9.8643961 253.16391 -10.30699 2.3509886e-038
-4.9844809 251.59741 -10.243213 2.3509886e-038
-0.16526343 251.0536 -10.221073 2.3509886e-038
4.6415854 250.96637 -10.217523 9.1476764e-041
9.4135399 250.04106 -10.179851 9.1476764e-041
14.101389 248.25937 -10.107312 9.1476764e-041
18.697741 246.17136 -10.022304 9.1476764e-041
23.280891 244.78554 -9.9658833 9.1476764e-041
27.845896 243.70566 -9.9219189 9.1476764e-041
28.141935 243.68521 -9.9210873 9.1476764e-041
-69.173355 262.93945 -15.741091 2.3509886e-038
-64.503677 258.37781 -15.468006 2.3509886e-038
-58.755764 254.91061 -15.260439 2.3509886e-038
-53.727066 254.21805 -15.218978 2.3509886e-038
-48.969997 254.8008 -15.253864 2.3509886e-038
-44.147461 255.1342 -15.273824 2.3509886e-038
-39.263832 255.15359 -15.274985 2.3509886e-038
-34.392868 255.27245 -15.2821 2.3509886e-038
-29.538269 255.5724 -15.300057 2.3509886e-038
-24.692137 256.07932 -15.330404 2.3509886e-038
-19.771553 255.87379 -15.318101 2.3509886e-038
-14.822665 255.0461 -15.26855 2.3509886e-038
-9.9108343 254.3557 -15.227219 2.3509886e-038
-5.0188932 253.3344 -15.166078 2.3509886e-038
-0.16618687 252.45642 -15.113517 2.3509886e-038
4.6561909 251.75607 -15.071589 9.1476764e-041
9.4510412 251.03716 -15.028551 9.1476764e-041
14.205471 250.09177 -14.971953 9.1476764e-041
18.878527 248.55154 -14.879748 9.1476764e-041
23.56216 247.74295 -14.831341 9.1476764e-041
24.907209 247.88606 -14.839908 9.1476764e-041
-116.09174 240.82291 -19.029564 3.5733111e-043
-115.53609 240.95822 -19.040255 3.5733111e-043
-111.48544 242.1844 -19.137146 3.5733111e-043
-107.96603 244.72118 -19.337601 3.5733111e-043
-105.55753 248.35403 -19.624664 3.5733111e-043
-69.56971 264.83606 -20.927057 2.3509886e-038
-64.779236 259.4816 -20.503954 2.3509886e-038
-58.908733 255.57428 -20.195202 2.3509886e-038
-53.880974 254.94629 -20.145576 2.3509886e-038
-49.052513 255.23013 -20.168007 2.3509886e-038
-44.168716 255.25703 -20.170132 2.3509886e-038
-39.265514 255.16451 -20.162821 2.3509886e-038
-34.448536 255.68562 -20.203999 2.3509886e-038
-29.606071 256.15906 -20.241409 2.3509886e-038
-24.721569 256.38455 -20.259228 2.3509886e-038
-19.781914 256.00787 -20.229462 2.3509886e-038
-14.835989 255.27534 -20.171577 2.3509886e-038
-9.9412546 255.13643 -20.160603 2.3509886e-038
-5.0506034 254.93503 -20.144686 2.3509886e-038
-0.16754763 254.52354 -20.112171 2.3509886e-038
4.6935487 253.77599 -20.053101 9.1476764e-041
9.5139093 252.70703 -19.968632 9.1476764e-041
14.301485 251.78212 -19.895548 9.1476764e-041
19.101097 251.48186 -19.871822 9.1476764e-041
22.33909 252.60228 -19.960356 9.1476764e-041
-115.89523 238.35365 -23.399662 3.5733111e-043
-114.34703 238.47838 -23.411907 3.5733111e-043
-110.25397 239.50923 -23.513107 3.5733111e-043
-106.82756 242.14067 -23.771441 3.5733111e-043
-103.85216 246.07962 -24.158136 3.5733111e-043
-101.33008 251.51831 -24.692064 3.5733111e-043
-100.30761 254.61253 -24.995831 3.5733111e-043
-69.5541 263.49585 -25.867924 2.3509886e-038
-64.595055 258.74384 -25.401405 2.3509886e-038
-58.924755 255.64378 -25.097071 2.3509886e-038
-53.969898 255.36703 -25.069902 2.3509886e-038
-49.171345 255.84843 -25.117161 2.3509886e-038
-44.30608 256.05087 -25.137035 2.3509886e-038
-39.376392 255.88507 -25.120756 2.3509886e-038
-34.539009 256.35718 -25.167105 2.3509886e-038
-29.689074 256.87723 -25.218157 2.3509886e-038
-24.763868 256.82324 -25.21286 2.3509886e-038
-19.814102 256.42444 -25.173706 2.3509886e-038
-14.880196 256.03598 -25.135572 2.3509886e-038
-9.9757881 256.02274 -25.134272 2.3509886e-038
-5.0672889 255.77724 -25.110172 2.3509886e-038
-0.16821189 255.53265 -25.086159 2.3509886e-038
4.7123976 254.79514 -25.013756 2.3509886e-038
9.552474 253.7314 -24.909327 9.1476764e-041
14.391173 253.3611 -24.872974 9.1476764e-041
19.393612 255.33307 -25.066566 9.1476764e-041
20.2976 256.05118 -25.137066 9.1476764e-041
-114.05462 238.645 -27.999062 3.5733111e-043
-109.61874 238.12929 -27.938557 3.5733111e-043
-105.89364 240.0238 -28.160831 3.5733111e-043
-102.77428 243.52554 -28.571672 3.5733111e-043
-100.09729 248.45831 -29.15041 3.5733111e-043
-97.843704 254.98697 -29.916388 3.5733111e-043
-96.548889 261.03125 -30.625532 3.5733111e-043
-70.882004 264.37909 -31.018316 3.5733111e-043
-64.471771 258.25003 -30.299227 2.3509886e-038
-58.913132 255.59335 -29.987532 2.3509886e-038
-53.952061 255.28264 -29.951075 2.3509886e-038
-49.204884 256.02292 -30.03793 2.3509886e-038
-44.430084 256.76752 -30.125288 2.3509886e-038
-39.523926 256.84378 -30.134237 2.3509886e-038
-34.654404 257.21365 -30.177633 2.3509886e-038
-29.797075 257.81168 -30.247795 2.3509886e-038
-24.8358 257.56924 -30.219355 2.3509886e-038
-19.880632 257.28543 -30.186056 2.3509886e-038
-14.958362 257.38095 -30.197262 2.3509886e-038
-10.017427 257.09137 -30.163286 2.3509886e-038
-5.0780272 256.31924 -30.072697 2.3509886e-038
-0.16858943 256.10617 -30.047695 2.3509886e-038
4.7239127 255.41774 -29.966927 2.3509886e-038
9.5874481 254.66037 -29.878067 2.3509886e-038
14.492908 255.15216 -29.935768 2.3509886e-038
18.61207 257.91803 -30.260275 2.3509886e-038
-109.93305 238.77959 -32.58823 3.5733111e-043
-109.91816 238.77974 -32.588249 3.5733111e-043
-105.93649 240.12091 -32.771294 3.5733111e-043
-102.52009 242.92325 -33.153751 3.5733111e-043
-99.526428 247.04135 -33.715782 3.5733111e-043
-96.585579 251.70821 -34.352703 3.5733111e-043
-93.462151 256.36462 -34.988205 3.5733111e-043
-90.461464 261.8927 -35.742672 3.5733111e-043
-90.441864 261.93503 -35.748444 3.5733111e-043
-73.790916 265.83389 -36.280552 3.5733111e-043
-70.558067 262.49103 -35.824326 3.5733111e-043
-64.44812 258.15524 -35.23259 3.5733111e-043
-59.086449 256.34531 -34.985569 2.3509886e-038
-54.023346 255.61995 -34.886574 2.3509886e-038
-49.239815 256.20468 -34.966381 2.3509886e-038
-44.530636 257.34863 -35.122498 2.3509886e-038
-39.641483 257.60773 -35.157864 2.3509886e-038
-34.757706 257.98038 -35.208721 2.3509886e-038
-29.909285 258.78253 -35.318199 2.3509886e-038
-24.942036 258.67099 -35.302975 2.3509886e-038
-19.955717 258.25714 -35.246494 2.3509886e-038
-15.008908 258.25067 -35.245613 2.3509886e-038
-10.049954 257.92615 -35.201317 2.3509886e-038
-5.1011052 257.48416 -35.140999 2.3509886e-038
-0.1695109 257.50598 -35.143974 2.3509886e-038
4.7477331 256.70566 -35.034748 2.3509886e-038
9.6449137 256.18677 -34.963932 2.3509886e-038
14.618183 257.3577 -35.123737 2.3509886e-038
17.391554 259.24902 -35.381866 2.3509886e-038
-106.4974 242.98903 -37.816711 3.5733111e-043
-103.09232 244.27916 -38.017498 3.5733111e-043
-99.410217 246.7529 -38.402485 3.5733111e-043
-95.778282 249.60432 -38.846256 3.5733111e-043
-92.020813 252.41104 -39.28307 3.5733111e-043
-88.535362 256.3165 -39.890881 3.5733111e-043
-85.087059 260.79437 -40.58778 3.5733111e-043
-81.247246 264.55597 -41.173203 3.5733111e-043
-75.829353 263.33762 -40.983589 3.5733111e-043
-69.889847 260.00513 -40.464947 3.5733111e-043
-64.43763 258.11322 -40.170509 3.5733111e-043
-59.36063 257.53482 -40.08049 3.5733111e-043
-54.303761 256.94678 -39.988972 2.3509886e-038
-49.443161 257.26273 -40.038147 2.3509886e-038
-44.671337 258.16174 -40.178062 2.3509886e-038
-39.758389 258.36743 -40.210068 2.3509886e-038
-34.869846 258.81268 -40.279369 2.3509886e-038
-30.027847 259.80835 -40.434326 2.3509886e-038
-25.082058 260.12314 -40.483315 2.3509886e-038
-20.066092 259.68558 -40.415215 2.3509886e-038
-15.05002 258.95807 -40.301994 2.3509886e-038
-10.084967 258.82471 -40.281235 2.3509886e-038
-5.1351404 259.20212 -40.339977 2.3509886e-038
-0.17069083 259.29843 -40.354965 2.3509886e-038
4.7772613 258.30225 -40.199928 2.3509886e-038
9.7007809 257.67072 -40.101639 2.3509886e-038
14.73057 259.3363 -40.360855 2.3509886e-038
16.71817 260.83829 -40.594616 2.3509886e-038
-102.54641 247.70163 -43.294399 3.5733111e-043
-99.878059 247.91414 -43.331543 3.5733111e-043
-95.650291 249.27078 -43.568665 3.5733111e-043
-91.591743 251.23412 -43.911827 3.5733111e-043
-87.614372 253.65016 -44.33411 3.5733111e-043
-83.609146 256.26453 -44.791065 3.5733111e-043
-79.246094 258.03983 -45.10136 3.5733111e-043
-74.426743 258.46667 -45.175961 3.5733111e-043
-69.418709 258.25238 -45.138508 3.5733111e-043
-64.390892 257.92603 -45.081467 3.5733111e-043
-59.469063 258.00525 -45.095318 3.5733111e-043
-54.50848 257.91544 -45.079617 2.3509886e-038
-49.58202 257.98526 -45.09182 2.3509886e-038
-44.723114 258.46097 -45.174969 2.3509886e-038
-39.867233 259.07474 -45.282246 2.3509886e-038
-35.034801 260.03705 -45.450439 2.3509886e-038
-30.191652 261.22565 -45.658192 2.3509886e-038
-25.237604 261.7363 -45.747444 2.3509886e-038
-20.196772 261.37677 -45.684601 2.3509886e-038
-15.130312 260.33963 -45.503326 2.3509886e-038
-10.142657 260.30533 -45.49733 2.3509886e-038
-5.1668553 260.80295 -45.584309 2.3509886e-038
-0.171377 260.34082 -45.503536 2.3509886e-038
4.7915473 259.07465 -45.28223 2.3509886e-038
9.7257557 258.33411 -45.15279 2.3509886e-038
14.795933 260.48703 -45.529091 2.3509886e-038
16.421169 261.84973 -45.767269 2.3509886e-038
-97.899673 251.32736 -48.741825 3.5733111e-043
-96.491158 251.46213 -48.767963 3.5733111e-043
-92.00753 252.37462 -48.944927 3.5733111e-043
-87.53022 253.40652 -49.145054 3.5733111e-043
-83.072502 254.61969 -49.380333 3.5733111e-043
-78.435547 255.40054 -49.531769 3.5733111e-043
-73.746201 256.1033 -49.668064 3.5733111e-043
-69.068497 256.94955 -49.832176 3.5733111e-043
-64.228813 257.27679 -49.895645 3.5733111e-043
-59.341122 257.4502 -49.929272 3.5733111e-043
-54.447903 257.62878 -49.963909 2.3509886e-038
-49.533798 257.73434 -49.984383 2.3509886e-038
-44.670399 258.15634 -50.066219 2.3509886e-038
-39.920525 259.42105 -50.311493 2.3509886e-038
-35.173542 261.06683 -50.630672 2.3509886e-038
-30.335035 262.46622 -50.902069 2.3509886e-038
-25.359909 263.00473 -51.006504 2.3509886e-038
-20.303528 262.75833 -50.958721 2.3509886e-038
-15.227925 262.0192 -50.815372 2.3509886e-038
-10.203068 261.85571 -50.783672 2.3509886e-038
-5.1861472 261.77673 -50.768353 2.3509886e-038
-0.1715679 260.6308 -50.546108 2.3509886e-038
4.7954278 259.28448 -50.285011 2.3509886e-038
9.7552042 259.1163 -50.252392 2.3509886e-038
14.882717 262.01489 -50.814541 2.3509886e-038
16.272951 263.29764 -51.063313 2.3509886e-038
-94.157242 255.57372 -54.460373 3.5733111e-043
-93.002869 255.10481 -54.360455 3.5733111e-043
-87.781166 254.13304 -54.153378 3.5733111e-043
-82.917603 254.14491 -54.155907 3.5733111e-043
-78.044159 254.12613 -54.151905 3.5733111e-043
-73.305412 254.57254 -54.247028 3.5733111e-043
-68.713707 255.62962 -54.472286 3.5733111e-043
-63.980446 256.28195 -54.611286 3.5733111e-043
-59.121628 256.49792 -54.65731 2.3509886e-038
-54.233257 256.61316 -54.681866 2.3509886e-038
-49.361069 256.8356 -54.729267 2.3509886e-038
-44.560238 257.51968 -54.875042 2.3509886e-038
-39.891068 259.22964 -55.239414 2.3509886e-038
-35.223839 261.44012 -55.710449 2.3509886e-038
-30.422321 263.22144 -56.090031 2.3509886e-038
-25.456484 264.00629 -56.257275 2.3509886e-038
-20.41198 264.1619 -56.290428 2.3509886e-038
-15.336296 263.88388 -56.231194 2.3509886e-038
-10.256001 263.21423 -56.088493 2.3509886e-038
-5.1963344 262.29095 -55.891754 2.3509886e-038
-0.17159255 260.66824 -55.545967 2.3509886e-038
4.803627 259.72781 -55.34557 2.3509886e-038
9.8179331 260.78247 -55.570313 2.3509886e-038
15.037624 264.74207 -56.414063 2.3509886e-038
15.923368 265.68408 -56.614796 2.3509886e-038
-90.395454 257.05219 -59.698776 2.3509886e-038
-88.574425 256.4296 -59.55418 2.3509886e-038
-83.225273 255.08794 -59.242592 2.3509886e-038
-77.930191 253.755 -58.933022 3.5733111e-043
-73.023994 253.59526 -58.895927 3.5733111e-043
-68.392204 254.43358 -59.090618 3.5733111e-043
-63.653728 254.97324 -59.21595 2.3509886e-038
-58.820953 255.19344 -59.267094 2.3509886e-038
-53.971855 255.37631 -59.309563 2.3509886e-038
-49.156334 255.77032 -59.40107 2.3509886e-038
-44.446049 256.85977 -59.654091 2.3509886e-038
-39.850937 258.96884 -60.143902 2.3509886e-038
-35.248688 261.62457 -60.760685 2.3509886e-038
-30.505739 263.94321 -61.299168 2.3509886e-038
-25.558075 265.05984 -61.558506 2.3509886e-038
-20.517548 265.52811 -61.667255 2.3509886e-038
-15.418836 265.30408 -61.615227 2.3509886e-038
-10.292373 264.14767 -61.346657 2.3509886e-038
-5.2041821 262.68707 -61.007442 2.3509886e-038
-0.17187421 261.09613 -60.637951 2.3509886e-038
4.826715 260.97617 -60.610092 2.3509886e-038
9.924221 263.60568 -61.220783 2.3509886e-038
15.285266 269.45813 -62.579983 2.3509886e-038
-87.686806 261.54834 -65.752449 2.3509886e-038
-84.479172 258.93115 -65.094498 2.3509886e-038
-78.219643 254.69753 -64.030174 2.3509886e-038
-72.916229 253.22101 -63.658981 2.3509886e-038
-68.098259 253.34004 -63.688904 2.3509886e-038
-63.313648 253.61099 -63.757023 2.3509886e-038
-58.524754 253.9084 -63.831791 2.3509886e-038
-53.739418 254.27649 -63.924328 2.3509886e-038
-49.022564 255.0743 -64.124893 2.3509886e-038
-44.419685 256.70743 -64.535461 2.3509886e-038
-39.882504 259.17398 -65.15554 2.3509886e-038
-35.304466 262.03854 -65.875687 2.3509886e-038
-30.59321 264.70001 -66.544769 2.3509886e-038
-25.67543 266.27695 -66.941208 2.3509886e-038
-20.619452 266.84689 -67.084488 2.3509886e-038
-15.471363 266.20792 -66.923851 2.3509886e-038
-10.317153 264.78366 -66.565796 2.3509886e-038
-5.2149 263.22809 -66.174728 2.3509886e-038
-0.17252837 262.08984 -65.88858 2.3509886e-038
4.867404 263.17618 -66.161674 2.3509886e-038
10.107174 268.46524 -67.491341 2.3509886e-038
14.445896 276.14682 -69.422462 2.3509886e-038
-82.568901 260.91681 -70.591049 2.3509886e-038
-79.189102 257.85425 -69.762474 2.3509886e-038
-73.30191 254.56038 -68.871323 2.3509886e-038
-68.126396 253.4447 -68.569473 2.3509886e-038
-63.266373 253.42163 -68.563232 2.3509886e-038
-58.499359 253.79822 -68.665115 2.3509886e-038
-53.73531 254.25705 -68.789261 2.3509886e-038
-49.067638 255.30884 -69.073822 2.3509886e-038
-44.4883 257.10394 -69.559486 2.3509886e-038
-39.947582 259.59689 -70.233948 2.3509886e-038
-35.34301 262.32465 -70.971947 2.3509886e-038
-30.632545 265.04037 -71.70668 2.3509886e-038
-25.773973 267.29895 -72.317741 2.3509886e-038
-20.7097 268.01483 -72.511421 2.3509886e-038
-15.52753 267.17435 -72.284027 2.3509886e-038
-10.361487 265.92145 -71.945053 2.3509886e-038
-5.2425351 264.62299 -71.593765 2.3509886e-038
-0.17386232 264.11627 -71.456673 2.3509886e-038
4.9290209 266.50775 -72.103676 2.3509886e-038
10.359537 275.16849 -74.446838 2.3509886e-038
13.315516 282.67389 -76.477432 2.3509886e-038
-76.930138 260.75027 -75.540161 2.3509886e-038
-74.5354 258.84402 -74.987915 2.3509886e-038
-68.764008 255.81676 -74.110909 2.3509886e-038
-63.650532 254.96042 -73.862823 2.3509886e-038
-58.770905 254.97633 -73.867432 2.3509886e-038
-53.990189 255.46306 -74.008446 2.3509886e-038
-49.281616 256.42218 -74.286301 2.3509886e-038
-44.62384 257.88727 -74.710739 2.3509886e-038
-40.040142 260.19839 -75.38028 2.3509886e-038
-35.403389 262.7728 -76.126091 2.3509886e-038
-30.678432 265.43741 -76.898041 2.3509886e-038
-25.844198 268.02722 -77.648323 2.3509886e-038
-20.777653 268.89423 -77.89949 2.3509886e-038
-15.589181 268.23514 -77.708557 2.3509886e-038
-10.425402 267.5618 -77.513481 2.3509886e-038
-5.2906642 267.05237 -77.365906 2.3509886e-038
-0.17615725 267.60254 -77.525284 2.3509886e-038
5.0222893 271.55069 -78.669075 2.3509886e-038
10.658929 283.12091 -82.021004 2.3509886e-038
11.794734 286.30573 -82.943657 2.3509886e-038
-71.390205 262.4502 -81.05938 2.3509886e-038
-70.406914 261.92871 -80.898315 2.3509886e-038
-64.704247 259.18121 -80.049728 2.3509886e-038
-59.348362 257.4816 -79.524803 2.3509886e-038
-54.369919 257.25983 -79.456299 2.3509886e-038
-49.533211 257.73129 -79.601921 2.3509886e-038
-44.80835 258.95358 -79.979424 2.3509886e-038
-40.195751 261.20959 -80.676224 2.3509886e-038
-35.54488 263.82297 -81.483368 2.3509886e-038
-30.79273 266.42633 -82.287437 2.3509886e-038
-25.934498 268.96371 -83.071129 2.3509886e-038
-20.881569 270.23907 -83.465034 2.3509886e-038
-15.69318 270.0246 -83.398781 2.3509886e-038
-10.510055 269.73434 -83.309143 2.3509886e-038
-5.3529043 270.19403 -83.451111 2.3509886e-038
-0.17933971 272.43704 -84.143883 2.3509886e-038
5.1682706 279.44376 -86.307961 2.3509886e-038
9.8893089 291.55975 -90.050049 2.3509886e-038
-65.196106 265.7952 -87.183319 2.3509886e-038
-60.523273 262.57895 -86.128349 2.3509886e-038
-55.121338 260.81528 -85.549843 2.3509886e-038
-50.027435 260.30286 -85.381767 2.3509886e-038
-45.205746 261.25018 -85.692505 2.3509886e-038
-40.498672 263.17813 -86.32489 2.3509886e-038
-35.799877 265.71564 -87.157211 2.3509886e-038
-31.057629 268.71826 -88.142113 2.3509886e-038
-26.214344 271.86597 -89.174583 2.3509886e-038
-21.177944 274.07462 -89.89904 2.3509886e-038
-15.967295 274.74115 -90.117668 2.3509886e-038
-10.708057 274.81598 -90.142212 2.3509886e-038
-5.4685841 276.03308 -90.541435 2.3509886e-038
-0.18459724 280.42383 -91.981644 2.3509886e-038
5.3895655 291.409 -95.584877 2.3509886e-038
6.6721973 294.95557 -96.748184 2.3509886e-038
-55.705292 266.82703 -92.632332 2.3509886e-038
-50.985149 265.28604 -92.097359 2.3509886e-038
-46.000816 265.845 -92.291412 2.3509886e-038
-41.178539 267.59619 -92.899361 2.3509886e-038
-36.415924 270.28809 -93.833878 2.3509886e-038
-31.658188 273.91449 -95.092834 2.3509886e-038
-26.860628 278.56851 -96.708534 2.3509886e-038
-21.890074 283.29065 -98.347885 2.3509886e-038
-16.657736 286.62122 -99.504135 2.3509886e-038
-11.225459 288.09479 -100.0157 2.3509886e-038
-5.7475367 290.11353 -100.71654 2.3509886e-038
-0.19498557 296.20483 -102.83121 2.3509886e-038
0.13939649 296.77341 -103.02859 2.3509886e-038
-40.321732 277.5307 -101.6638 2.3509886e-038
-37.632648 279.31891 -102.31886 2.3509886e-038
-32.642891 282.43436 -103.46009 2.3509886e-038
-27.785585 288.16113 -105.55791 2.3509886e-038
-22.921049 296.63303 -108.66129 2.3509886e-038
-22.440126 297.47482 -108.96965 2.3509886e-038
-115.76926 241.44453 -18.55625 3.5733111e-043
-114.42204 238.63481 -27.364832 3.5733111e-043
-112.24438 243.83307 -17.262375 3.5733111e-043
-109.92132 238.78659 -32.603001 3.5733111e-043
-108.3028 245.48453 -17.994154 3.5733111e-043
-106.93171 242.37672 -37.135777 3.5733111e-043
-105.07788 248.98398 -20.012012 3.5733111e-043
-103.99136 246.40947 -41.534428 3.5733111e-043
-101.89369 252.9173 -23.205688 3.5733111e-043
-100.3896 249.18388 -45.696484 3.5733111e-043
-98.647118 257.08072 -27.280361 3.5733111e-043
-96.961456 252.68776 -50.242706 3.5733111e-043
-95.437393 261.78265 -31.838324 3.5733111e-043
-93.289352 255.89061 -55.580143 2.3509886e-038
-90.473396 261.92725 -35.724663 3.5733111e-043
-89.311676 258.56396 -61.98394 2.3509886e-038
-78.685303 241.17281 61.802753 2.3509528e-038
-80.430885 246.52307 44.152126 2.3509528e-038
-85.952477 263.4469 -38.944397 3.5733111e-043
-85.485916 262.01688 -68.389626 2.3509886e-038
-74.72448 243.31662 61.659492 2.3509528e-038
-76.276833 248.37137 25.714306 2.3509528e-038
-81.665977 265.9194 -40.637115 3.5733111e-043
-79.985733 260.44821 -72.686981 2.3509886e-038
-71.114418 246.96375 55.903053 2.3509528e-038
-73.002342 253.52007 13.814312 2.3509528e-038
-76.717636 266.42242 -39.227657 3.5733111e-043
-75.126862 260.89801 -77.164078 2.3509886e-038
-66.565514 247.63788 43.780724 2.3509528e-038
-68.93531 256.45404 -4.0788817 2.3509886e-038
-71.1063 264.53061 -31.6227 3.5733111e-043
-70.738579 263.1626 -81.925247 2.3509886e-038
-62.93655 252.10049 34.829906 2.3509528e-038
-66.376907 265.88126 -86.45533 2.3509886e-038
-58.685719 254.60675 23.439196 2.3509528e-038
-61.323257 266.04965 -89.637047 2.3509886e-038
-56.253094 266.17035 13.509486 2.3509886e-038
-56.388458 266.81082 -92.345528 2.3509886e-038
-50.51413 262.83521 7.8848882 2.3509886e-038
-51.349991 267.18439 -94.287949 2.3509886e-038
-44.587227 257.67569 6.9051027 2.3509886e-038
-46.651512 269.60547 -96.695076 2.3509886e-038
-37.751205 245.32388 74.247597 2.3418052e-038
-42.268791 274.68112 -100.02074 2.3509886e-038
-32.960594 244.64175 78.926117 2.3418052e-038
-37.813019 280.65768 -103.42335 2.3509886e-038
-28.283361 244.71463 76.368347 2.3418052e-038
-32.889252 284.56592 -105.43157 2.3509886e-038
-24.547491 254.57922 46.586231 2.3418052e-038
-27.935192 289.71268 -106.95616 2.3509886e-038
-19.629915 254.0408 9.2726574 2.3418409e-038
-22.935984 296.82629 -108.80772 2.3509886e-038
-14.312122 246.26143 29.075741 2.3418409e-038
-17.549728 301.9693 -109.89835 2.3509886e-038
-9.4637432 242.88139 60.709145 2.3418409e-038
-11.775343 302.20724 -109.08797 2.3509886e-038
-4.7114677 237.81677 67.321594 2.3418409e-038
-5.941 299.87881 -106.84048 2.3509886e-038
-0.15709163 238.63974 66.304176 2.3418409e-038
-0.16446315 249.83788 15.489841 2.3509886e-038
-0.16700183 253.69441 1.5944663 2.3509886e-038
-0.1954938 296.97693 -103.31374 2.3509886e-038
4.7003627 254.14439 -4.9631815 2.3509886e-038
5.4569888 295.0545 -98.136269 2.3509886e-038
9.4765778 251.71545 -4.9011478 9.1476764e-041
10.869946 288.72592 -86.565796 2.3509886e-038
14.092717 248.10669 -2.4531248 9.1476764e-041
15.300018 269.3616 -62.458084 2.3509886e-038
18.581387 244.63945 1.135674 9.1476764e-041
19.52511 257.06436 -27.374468 9.1476764e-041
22.950138 241.30788 5.29035 9.1476764e-041
23.748949 249.70691 -16.941124 9.1476764e-041
27.508596 240.75363 9.7574415 9.1476764e-041
27.878908 243.9946 -10.292352 9.1476764e-041
31.946222 239.45274 14.470245 9.1476764e-041
32.218903 241.49661 -4.7737665 9.1476764e-041
36.37738 238.43607 19.622831 9.1476764e-041
36.450592 238.91591 1.1594279 9.1476764e-041
40.761547 237.3725 23.481424 9.1476764e-041
40.839382 237.82578 7.1535759 9.1476764e-041
45.152428 236.55762 24.353085 9.1476764e-041
45.148262 236.53577 13.660131 9.1476764e-041
