# .PCD v0.7 - Point Cloud Data file format
VERSION 0.7
FIELDS x y z rgb
SIZE 4 4 4 4
TYPE F F F F
COUNT 1 1 1 1
WIDTH 747
HEIGHT 1
VIEWPOINT 0 0 0 1 0 0 0
POINTS 747
DATA ascii
-33.896767 248.17928 79.482071 2.3418052e-038
31.538221 230.9109 15.225348 9.1476764e-041
-111.84325 239.87215 -23.724325 3.5733111e-043
-79.82357 249.24561 59.867676 2.3509528e-038
-6.2343907 220.6216 50.914196 2.3418409e-038
-37.011116 250.08864 84.261765 2.3418052e-038
-34.365524 248.63252 83.771164 2.3418052e-038
-31.360697 247.61206 83.427338 2.3418052e-038
-39.727921 251.67662 80.011696 2.3418052e-038
-39.546654 251.51941 79.961716 2.3418052e-038
-34.327209 248.35533 78.955811 2.3418052e-038
-29.493523 247.41806 78.657837 2.3418052e-038
-28.531981 247.47202 78.674995 2.3418052e-038
-40.531601 253.10957 75.6549 2.3418052e-038
-39.68322 252.38797 75.439209 2.3418052e-038
-34.473881 249.41647 74.551025 2.3418052e-038
-29.624998 248.52101 74.283371 2.3418052e-038
-27.553444 248.81609 74.371567 2.3418052e-038
-40.831139 254.08336 71.115112 2.3418052e-038
-39.812214 253.2084 70.870224 2.3418052e-038
-34.577232 250.16422 70.018188 2.3418052e-038
-29.724012 249.35164 69.790756 2.3418052e-038
-27.283466 249.7843 69.91185 2.3418052e-038
-84.325157 249.32097 65.041847 2.3509528e-038
-81.464767 248.10558 64.724777 2.3509528e-038
-76.401299 246.98619 64.432762 2.3509528e-038
-76.24411 246.98145 64.431526 2.3509528e-038
-40.757721 253.49533 66.130836 2.3418052e-038
-39.726673 252.66435 65.914055 2.3418052e-038
-34.550106 249.96796 65.210632 2.3418052e-038
-29.738165 249.47035 65.080818 2.3418052e-038
-27.172955 249.84232 65.177856 2.3418052e-038
-86.354385 251.43141 60.811962 2.3509528e-038
-81.995201 249.72104 60.398289 2.3509528e-038
-76.86808 248.49516 60.101795 2.3509528e-038
-73.006813 248.67049 60.144199 2.3509528e-038
-40.84531 254.02016 61.438087 2.3418052e-038
-39.782932 253.02217 61.196712 2.3418052e-038
-34.565571 250.07986 60.485081 2.3418052e-038
-29.791536 249.91808 60.445946 2.3418052e-038
-27.075304 250.29799 60.537834 2.3418052e-038
-10.790596 223.80122 54.129246 2.3418409e-038
-9.5844135 222.10001 53.717785 2.3418409e-038
-5.2340865 216.81609 52.439796 2.3418409e-038
-2.1333246 215.8526 52.206764 2.3418409e-038
-86.277374 252.76794 56.329376 2.3509528e-038
-82.519226 251.31697 56.006027 2.3509528e-038
-77.242538 249.7057 55.646957 2.3509528e-038
-72.512016 249.7646 55.660084 2.3509528e-038
-71.160622 250.59566 55.845284 2.3509528e-038
-41.056961 255.33575 56.901611 2.3418052e-038
-39.965633 254.18416 56.644981 2.3418052e-038
-34.671253 250.84448 55.90073 2.3418052e-038
-29.888138 250.72845 55.874878 2.3418052e-038
-26.806059 251.20583 55.981258 2.3418052e-038
-12.551096 230.24463 51.310051 2.3418409e-038
-9.7769356 226.56133 50.489227 2.3418409e-038
-5.335546 221.01892 49.254101 2.3418409e-038
-1.278879 219.16405 48.840744 2.3418409e-038
-85.490234 254.15709 51.806679 2.3509528e-038
-82.940834 252.601 51.489487 2.3509528e-038
-77.39196 250.18874 50.99778 2.3509528e-038
-72.600632 250.06985 50.973545 2.3509528e-038
-69.410828 251.88509 51.343559 2.3509528e-038
-41.217213 256.33237 52.25008 2.3418052e-038
-40.134827 255.26025 52.031544 2.3418052e-038
-34.831863 252.00647 51.368301 2.3418052e-038
-30.021185 251.84459 51.3353 2.3418052e-038
-26.293343 252.75134 51.520134 2.3418052e-038
-13.258059 234.91229 47.883873 2.3418409e-038
-9.942955 230.40851 46.965832 2.3418409e-038
-5.4280195 224.84953 45.83271 2.3418409e-038
-1.1417724 222.66525 45.38747 2.3418409e-038
-1.1042805 222.66206 45.386818 2.3418409e-038
-83.82431 253.78421 46.905491 2.3509528e-038
-83.159279 253.26628 46.809765 2.3509528e-038
-77.384468 250.16451 46.236485 2.3509528e-038
-72.548279 249.88953 46.185661 2.3509528e-038
-68.22287 251.45865 46.47567 2.3509528e-038
-67.300583 252.25499 46.622856 2.3509528e-038
-41.40818 257.52002 47.595963 2.3418052e-038
-40.318531 256.42859 47.394241 2.3418052e-038
-34.957355 252.9144 46.744732 2.3418052e-038
-30.111801 252.60475 46.687504 2.3418052e-038
-25.664476 253.91898 46.930401 2.3509886e-038
-13.5173 237.88358 43.966671 2.3418409e-038
-10.062605 233.18115 43.097549 2.3418409e-038
-5.508697 228.19151 42.175343 2.3418409e-038
-1.1621974 226.64848 41.890152 2.3418409e-038
-1.0956675 226.65321 41.891026 2.3418409e-038
-82.049728 253.24918 41.991608 2.3509528e-038
-77.600555 250.86307 41.595966 2.3509528e-038
-72.767731 250.6454 41.559872 2.3509528e-038
-68.288712 251.70132 41.734955 2.3509528e-038
-65.266159 253.02934 41.955158 2.3509528e-038
-41.551144 258.41058 42.847427 2.3418052e-038
-40.453041 257.28412 42.660645 2.3418052e-038
-35.049358 253.58003 42.046467 2.3418052e-038
-30.168737 253.0824 41.963955 2.3418052e-038
-25.491314 254.42392 42.186394 2.3509886e-038
-25.265177 254.43071 42.187519 2.3509886e-038
-13.769336 241.10663 39.978237 2.3418409e-038
-10.182627 235.96242 39.125267 2.3418409e-038
-5.5881591 231.48314 38.382549 2.3418409e-038
-1.1835748 230.81744 38.272167 2.3418409e-038
-1.1151417 230.83615 38.275276 2.3418409e-038
-80.620056 253.79956 37.257397 2.3509886e-038
-78.097885 252.47083 37.06234 2.3509528e-038
-73.075569 251.70576 36.950031 2.3509528e-038
-68.402939 252.12234 37.011185 2.3509528e-038
-63.958771 253.50729 37.214493 2.3509528e-038
-63.385292 254.05139 37.294365 2.3509528e-038
-41.663097 259.14304 38.041809 2.3418052e-038
-40.581398 258.10046 37.888763 2.3418052e-038
-35.199669 254.66753 37.384811 2.3418052e-038
-30.24889 253.75476 37.25082 2.3418052e-038
-25.509541 254.60583 37.375755 2.3509886e-038
-25.102671 254.62701 37.378868 2.3509886e-038
-14.197576 243.67522 35.771156 2.3418409e-038
-10.284279 238.31799 34.984726 2.3418409e-038
-5.6654067 234.68303 34.451115 2.3418409e-038
-1.2035314 234.70932 34.454979 2.3418409e-038
-1.1339492 234.7363 34.458939 2.3418409e-038
-79.378784 254.97913 32.582668 2.3509886e-038
-78.750153 254.57945 32.531593 2.3509886e-038
-73.318924 252.54396 32.271484 2.3509528e-038
-68.458923 252.32869 32.243977 2.3509528e-038
-63.902966 253.28612 32.366325 2.3509528e-038
-61.561611 254.79921 32.559677 2.3509528e-038
-41.810547 260.25552 33.256916 2.3418052e-038
-40.759628 259.23401 33.126381 2.3418052e-038
-35.37421 255.9303 32.704212 2.3418052e-038
-30.368526 254.75839 32.554459 2.3418052e-038
-25.589834 255.40724 32.637371 2.3509886e-038
-25.13862 255.41991 32.638992 2.3509886e-038
-14.882046 245.87685 31.419527 2.3418409e-038
-10.384636 240.64359 30.750792 2.3418409e-038
-5.7364621 237.62643 30.365242 2.3418409e-038
-1.2193633 237.79683 30.387016 2.3418409e-038
-1.1488643 237.82385 30.390469 2.3418409e-038
-78.303452 256.75223 27.927633 2.3509886e-038
-73.818436 254.26453 27.657042 2.3509528e-038
-68.676788 253.13168 27.533817 2.3509528e-038
-64.066727 253.93518 27.621218 2.3509528e-038
-60.188965 257.36038 27.993784 2.3509528e-038
-42.019768 262.28915 28.529902 2.3418052e-038
-41.066238 261.18405 28.409697 2.3418052e-038
-35.547493 257.18399 27.974598 2.3418052e-038
-30.476957 255.66801 27.8097 2.3418052e-038
-25.702517 256.53189 27.903667 2.3509886e-038
-25.244493 256.58218 27.909136 2.3509886e-038
-15.781572 248.55528 27.03603 2.3418409e-038
-15.42469 248.11922 26.988598 2.3418409e-038
-10.485041 242.97028 26.428534 2.3418409e-038
-5.8008347 240.293 26.137318 2.3418409e-038
-1.2327191 240.40143 26.149113 2.3418409e-038
-1.1625235 240.42607 26.151794 2.3418409e-038
-77.290268 258.81345 23.231039 2.3509886e-038
-74.543716 256.76273 23.046965 2.3509528e-038
-69.021927 254.40382 22.835232 2.3509528e-038
-64.325058 254.95911 22.885073 2.3509528e-038
-60.167305 257.91589 23.150475 2.3509528e-038
-58.785057 260.54373 23.386349 2.3509528e-038
-42.225613 264.40082 23.732559 2.3418052e-038
-41.401943 263.31918 23.635473 2.3418052e-038
-35.710297 258.36188 23.190506 2.3509886e-038
-30.518108 256.01321 22.979691 2.3509886e-038
-25.726305 256.76932 23.04756 2.3509886e-038
-25.220463 256.88132 23.057611 2.3509886e-038
-16.724789 251.38261 22.564051 2.3418409e-038
-15.539481 249.96574 22.436871 2.3418409e-038
-10.582757 245.23465 22.012209 2.3418409e-038
-5.8772039 243.45648 21.852602 2.3418409e-038
-1.2533923 244.43307 21.94026 2.3418409e-038
-1.1923727 244.46649 21.94326 2.3418409e-038
32.410122 230.79156 20.715801 9.1476764e-041
33.73737 229.54408 20.603828 9.1476764e-041
35.064037 228.18431 20.481775 9.1476764e-041
-75.926132 259.82855 18.382055 2.3509886e-038
-75.255219 259.21344 18.338539 2.3509528e-038
-69.341507 255.58177 18.081608 2.3509528e-038
-64.472389 255.54308 18.078871 2.3509528e-038
-60.065018 257.47742 18.215717 2.3509528e-038
-56.688652 262.46411 18.568512 2.3509528e-038
-42.617195 265.3204 18.770584 2.3509886e-038
-41.509613 264.00397 18.677452 2.3509886e-038
-35.830963 259.23489 18.340057 2.3509886e-038
-30.559114 256.35721 18.136469 2.3509886e-038
-25.714817 256.65466 18.157511 2.3509886e-038
-24.904984 256.87061 18.172789 2.3509886e-038
-17.810543 254.3278 17.992893 2.3418409e-038
-15.665043 251.98552 17.827185 2.3418409e-038
-10.685088 247.60597 17.517345 2.3418409e-038
-5.9575477 246.78462 17.459238 2.3418409e-038
-1.2905284 249.71889 17.666828 2.3418409e-038
27.02973 235.85948 16.686319 9.1476764e-041
29.754845 232.52765 16.450602 9.1476764e-041
33.667767 229.07051 16.20602 9.1476764e-041
36.845627 226.76216 16.042711 9.1476764e-041
-74.58812 261.27182 13.516621 2.3509886e-038
-69.972374 257.90704 13.342546 2.3509528e-038
-64.763466 256.69678 13.279935 2.3509528e-038
-60.002743 257.21045 13.30651 2.3509528e-038
-55.566177 259.32816 13.416067 2.3509528e-038
-53.112209 262.89465 13.600575 2.3509528e-038
-44.164406 264.99475 13.709221 2.3509886e-038
-41.367817 263.10214 13.61131 2.3509886e-038
-35.933971 259.98013 13.449797 2.3509886e-038
-30.724499 257.7446 13.334144 2.3509886e-038
-25.79635 257.46844 13.319856 2.3509886e-038
-23.090992 257.57513 13.325376 2.3509886e-038
-20.668091 257.06882 13.299182 2.3418409e-038
-15.765903 253.60793 13.120136 2.3418409e-038
-10.794 250.12979 12.940199 2.3418409e-038
-6.0343089 249.96439 12.931643 2.3418409e-038
-1.62042 254.15352 13.148362 2.3418409e-038
23.862902 239.43851 12.387096 9.1476764e-041
25.823566 237.02281 12.262124 9.1476764e-041
29.848345 233.2583 12.067371 9.1476764e-041
33.913639 230.74341 11.937265 9.1476764e-041
36.160336 229.94243 11.895827 9.1476764e-041
-73.350937 263.52005 8.622654 2.3509886e-038
-70.908134 261.35611 8.5518475 2.3509886e-038
-65.198875 258.42258 8.4558592 2.3509528e-038
-60.093651 257.60016 8.4289494 2.3509528e-038
-55.291698 258.04715 8.4435749 2.3509528e-038
-50.783623 260.08624 8.5102959 2.3509886e-038
-46.206394 262.17297 8.5785761 2.3509886e-038
-41.212772 262.11606 8.5767136 2.3509886e-038
-36.078648 261.02686 8.5410738 2.3509886e-038
-30.979548 259.88419 8.503684 2.3509886e-038
-25.950331 259.00528 8.474926 2.3509886e-038
-20.961777 258.21558 8.4490862 2.3509886e-038
-15.910248 255.92982 8.3742933 2.3418409e-038
-10.933788 253.36913 8.2905054 2.3418409e-038
-6.1147189 253.29527 8.2880878 2.3418409e-038
-2.1436074 257.01093 8.4096689 2.3418409e-038
20.485596 242.825 7.9454899 9.1476764e-041
21.689358 241.16226 7.8910832 9.1476764e-041
25.826353 237.0484 7.7564735 9.1476764e-041
30.03285 234.7002 7.6796374 9.1476764e-041
34.288116 233.29131 7.6335373 9.1476764e-041
34.349136 233.28238 7.633245 9.1476764e-041
-71.712029 264.55301 3.6265273 2.3509886e-038
-65.736946 260.5553 3.5717258 2.3509886e-038
-60.409824 258.95547 3.5497956 2.3509886e-038
-55.498489 259.01224 3.5505738 2.3509886e-038
-50.773624 260.03503 3.5645943 2.3509886e-038
-46.047272 261.27011 3.5815246 2.3509886e-038
-41.169518 261.84094 3.5893497 2.3509886e-038
-36.205639 261.94565 3.590785 2.3509886e-038
-31.171082 261.49094 3.5845518 2.3509886e-038
-26.078043 260.27997 3.5679514 2.3509886e-038
-21.052296 259.33063 3.5549381 2.3509886e-038
-16.047745 258.14157 3.5386384 9.1476764e-041
-11.051292 256.09204 3.5105431 9.1476764e-041
-6.1665921 255.44408 3.5016606 9.1476764e-041
-2.4587698 257.89334 3.5352359 9.1476764e-041
16.003834 247.65694 3.3949137 9.1476764e-041
17.425854 245.69801 3.3680606 9.1476764e-041
21.675653 241.00987 3.3037949 9.1476764e-041
25.953308 238.21365 3.2654641 9.1476764e-041
30.336515 237.07327 3.2498312 9.1476764e-041
31.916693 237.03183 3.2492633 9.1476764e-041
-70.130104 265.23251 -1.4069935 2.3509886e-038
-66.251648 262.59537 -1.3930041 2.3509886e-038
-60.736328 260.35507 -1.38112 2.3509886e-038
-55.718254 260.0379 -1.3794374 2.3509886e-038
-50.918839 260.77875 -1.3833674 2.3509886e-038
-46.108498 261.61752 -1.3878169 2.3509886e-038
-41.184822 261.93826 -1.3895184 2.3509886e-038
-36.237919 262.1792 -1.3907965 2.3509886e-038
-31.246384 262.12262 -1.3904964 2.3509886e-038
-26.178022 261.27783 -1.3860148 2.3509886e-038
-21.144747 260.46945 -1.3817267 2.3509886e-038
-16.12289 259.35037 -1.3757902 9.1476764e-041
-11.102061 257.26852 -1.3647465 9.1476764e-041
-6.1795611 255.98129 -1.3579181 9.1476764e-041
-1.3189192 257.21194 -1.3644465 9.1476764e-041
-1.154622 257.28027 -1.3648088 9.1476764e-041
9.8635616 254.53159 -1.3502277 9.1476764e-041
13.048595 251.36504 -1.3334299 9.1476764e-041
17.483225 246.50694 -1.3076589 9.1476764e-041
21.817667 242.58891 -1.2868748 9.1476764e-041
26.213779 240.60442 -1.2763475 9.1476764e-041
29.035341 240.27568 -1.2746036 9.1476764e-041
-69.086212 266.35858 -6.477222 2.3509886e-038
-66.767883 264.64151 -6.4354668 2.3509886e-038
-61.020515 261.57327 -6.3608546 2.3509886e-038
-55.880707 260.79608 -6.3419542 2.3509886e-038
-51.064449 261.52451 -6.3596678 2.3509886e-038
-46.239323 262.3598 -6.3799806 2.3509886e-038
-41.289478 262.60391 -6.3859167 2.3509886e-038
-36.316582 262.74829 -6.3894281 2.3509886e-038
-31.306412 262.62619 -6.3864589 2.3509886e-038
-26.277098 262.26666 -6.3777161 2.3509886e-038
-21.25771 261.86099 -6.3678513 2.3509886e-038
-16.198965 260.5741 -6.3365569 2.3509886e-038
-11.15688 258.53885 -6.2870641 9.1476764e-041
-6.2071304 257.12332 -6.2526417 9.1476764e-041
-1.3174466 256.92474 -6.2478127 9.1476764e-041
3.5645511 256.71643 -6.2427468 9.1476764e-041
8.3965158 255.22804 -6.206553 9.1476764e-041
13.107645 252.50256 -6.1402755 9.1476764e-041
17.650343 248.86325 -6.0517759 9.1476764e-041
22.077236 245.47505 -5.9693828 9.1476764e-041
26.077538 244.10873 -5.9361572 9.1476764e-041
-68.915527 268.23077 -11.6226 2.3509886e-038
-67.32254 266.83994 -11.562333 2.3509886e-038
-61.329033 262.89578 -11.391432 2.3509886e-038
-56.103638 261.83649 -11.345531 2.3509886e-038
-51.241055 262.42896 -11.371204 2.3509886e-038
-46.371666 263.11069 -11.400744 2.3509886e-038
-41.40065 263.31094 -11.409421 2.3509886e-038
-36.408161 263.41086 -11.413751 2.3509886e-038
-31.384897 263.28464 -11.40828 2.3509886e-038
-26.37784 263.27216 -11.407741 2.3509886e-038
-21.364742 263.17947 -11.403725 2.3509886e-038
-16.291307 262.05951 -11.355195 2.3509886e-038
-11.24491 260.57877 -11.291034 9.1476764e-041
-6.2634106 259.45468 -11.242327 9.1476764e-041
-1.3257219 258.53857 -11.202632 9.1476764e-041
3.5789311 257.75208 -11.16855 9.1476764e-041
8.4494419 256.83682 -11.128894 9.1476764e-041
13.245453 255.15726 -11.056117 9.1476764e-041
17.909542 252.51785 -10.94175 9.1476764e-041
22.466614 249.8045 -10.824179 9.1476764e-041
23.282675 249.55624 -10.813421 9.1476764e-041
-69.344917 269.24908 -16.785934 2.3509886e-038
-67.467033 267.41266 -16.671448 2.3509886e-038
-61.460823 263.46072 -16.42507 2.3509886e-038
-56.304184 262.77243 -16.382158 2.3509886e-038
-51.385834 263.17044 -16.406973 2.3509886e-038
-46.439896 263.49786 -16.427385 2.3509886e-038
-41.44252 263.57724 -16.432333 2.3509886e-038
-36.462158 263.80154 -16.446316 2.3509886e-038
-31.475161 264.04181 -16.461296 2.3509886e-038
-26.468643 264.17847 -16.469814 2.3509886e-038
-21.435949 264.05661 -16.462219 2.3509886e-038
-16.366451 263.26825 -16.413071 2.3509886e-038
-11.326217 262.46289 -16.36286 2.3509886e-038
-6.3183112 261.72885 -16.317097 2.3509886e-038
-1.3371623 260.76962 -16.257298 9.1476764e-041
3.6057732 259.68521 -16.189692 9.1476764e-041
8.5116405 258.72748 -16.129982 2.3509886e-038
13.396991 258.07642 -16.089394 2.3509886e-038
18.248959 257.3035 -16.041206 2.3509886e-038
20.869215 256.96524 -16.020117 2.3509886e-038
-119.74461 242.91512 -19.762711 3.5733111e-043
-115.74223 240.90353 -19.599056 3.5733111e-043
-111.14209 240.8605 -19.595554 3.5733111e-043
-107.61356 243.2359 -19.788807 3.5733111e-043
-104.76638 245.98853 -20.012753 3.5733111e-043
-70.4562 270.01288 -21.967289 2.3509886e-038
-67.231537 266.47925 -21.679804 2.3509886e-038
-61.317123 262.84473 -21.384113 2.3509886e-038
-56.292908 262.71982 -21.373949 2.3509886e-038
-51.409023 263.28922 -21.420275 2.3509886e-038
-46.476456 263.70529 -21.454124 2.3509886e-038
-41.492218 263.89334 -21.469423 2.3509886e-038
-36.545731 264.40619 -21.511148 2.3509886e-038
-31.599157 265.082 -21.566128 2.3509886e-038
-26.573977 265.22977 -21.57815 2.3509886e-038
-21.512377 264.99808 -21.559301 2.3509886e-038
-16.438337 264.42459 -21.512644 2.3509886e-038
-11.390117 263.94363 -21.473516 2.3509886e-038
-6.3594441 263.43274 -21.431952 2.3509886e-038
-1.3474458 262.77512 -21.37845 2.3509886e-038
3.6348164 261.77689 -21.297237 2.3509886e-038
8.5740376 260.62418 -21.203457 2.3509886e-038
13.533313 260.70251 -21.209831 2.3509886e-038
18.646852 262.91367 -21.389721 2.3509886e-038
18.819292 263.06174 -21.401766 2.3509886e-038
-118.81755 240.4839 -24.137217 3.5733111e-043
-114.76792 238.87564 -23.975798 3.5733111e-043
-110.26682 238.96368 -23.984631 3.5733111e-043
-106.8227 241.44833 -24.234016 3.5733111e-043
-103.71195 244.94347 -24.58482 3.5733111e-043
-100.56327 248.67346 -24.959198 3.5733111e-043
-98.341751 251.67036 -25.259995 3.5733111e-043
-72.608574 271.81586 -27.281986 3.5733111e-043
-67.057137 265.78802 -26.676975 3.5733111e-043
-61.232166 262.48056 -26.345007 2.3509886e-038
-56.186539 262.22339 -26.319195 2.3509886e-038
-51.347885 262.97607 -26.394741 2.3509886e-038
-46.533646 264.02979 -26.500502 2.3509886e-038
-41.629395 264.76578 -26.574371 2.3509886e-038
-36.686306 265.42325 -26.640362 2.3509886e-038
-31.722284 266.11493 -26.709785 2.3509886e-038
-26.67712 266.25922 -26.72427 2.3509886e-038
-21.60483 266.13696 -26.711998 2.3509886e-038
-16.529892 265.89734 -26.687946 2.3509886e-038
-11.459944 265.56174 -26.654263 2.3509886e-038
-6.3985052 265.05081 -26.60298 2.3509886e-038
-1.3565845 264.55734 -26.553452 2.3509886e-038
3.6624186 263.76477 -26.473902 2.3509886e-038
8.6440649 262.75278 -26.372328 2.3509886e-038
13.662557 263.19223 -26.416437 2.3509886e-038
17.143541 265.4248 -26.64052 2.3509886e-038
-115.68226 239.1638 -28.551903 3.5733111e-043
-114.79064 238.92293 -28.523148 3.5733111e-043
-110.12256 238.65103 -28.490688 3.5733111e-043
-106.33594 240.34811 -28.693289 3.5733111e-043
-103.17536 243.67618 -29.090601 3.5733111e-043
-100.3695 248.19429 -29.629984 3.5733111e-043
-97.347626 252.59775 -30.155678 3.5733111e-043
-93.81514 256.06454 -30.56955 3.5733111e-043
-93.272865 256.63199 -30.637297 3.5733111e-043
-75.582573 272.21585 -32.49773 3.5733111e-043
-73.277443 270.08899 -32.24382 3.5733111e-043
-66.96524 265.42374 -31.686872 3.5733111e-043
-61.384338 263.13287 -31.413383 2.3509886e-038
-56.275318 262.63773 -31.354275 2.3509886e-038
-51.394325 263.21393 -31.423061 2.3509886e-038
-46.612244 264.47574 -31.573698 2.3509886e-038
-41.757385 265.57983 -31.705505 2.3509886e-038
-36.802456 266.26358 -31.787134 2.3509886e-038
-31.821318 266.94568 -31.868567 2.3509886e-038
-26.776155 267.24768 -31.904619 2.3509886e-038
-21.690287 267.18967 -31.89769 2.3509886e-038
-16.614866 267.26422 -31.906593 2.3509886e-038
-11.532711 267.24799 -31.904654 2.3509886e-038
-6.4408717 266.80579 -31.851866 2.3509886e-038
-1.3660864 266.41034 -31.804655 2.3509886e-038
3.6884217 265.63751 -31.712395 2.3509886e-038
8.7027063 264.53531 -31.580809 2.3509886e-038
13.771276 265.28659 -31.6705 2.3509886e-038
16.096397 266.9769 -31.872292 2.3509886e-038
-111.97589 240.4931 -33.283073 3.5733111e-043
-110.94147 240.42575 -33.273754 3.5733111e-043
-106.92283 241.67465 -33.446594 3.5733111e-043
-103.51385 244.4756 -33.834232 3.5733111e-043
-100.33665 248.11307 -34.337639 3.5733111e-043
-96.969933 251.61771 -34.822666 3.5733111e-043
-93.226112 254.45682 -35.215588 3.5733111e-043
-89.564163 257.84238 -35.684128 3.5733111e-043
-86.210449 262.55881 -36.336861 3.5733111e-043
-86.068077 262.78409 -36.368038 3.5733111e-043
-81.690964 268.40997 -37.146633 3.5733111e-043
-77.967003 268.55408 -37.166576 3.5733111e-043
-72.282135 266.42044 -36.871292 3.5733111e-043
-66.773941 264.66553 -36.628418 3.5733111e-043
-61.539711 263.79889 -36.50848 2.3509886e-038
-56.481575 263.60031 -36.480999 2.3509886e-038
-51.570919 264.11835 -36.552692 2.3509886e-038
-46.730431 265.1463 -36.694958 2.3509886e-038
-41.832752 266.05917 -36.821289 2.3509886e-038
-36.871887 266.76593 -36.919106 2.3509886e-038
-31.895164 267.56519 -37.02972 2.3509886e-038
-26.868654 268.1709 -37.113548 2.3509886e-038
-21.769638 268.16714 -37.113026 2.3509886e-038
-16.66861 268.12872 -37.107708 2.3509886e-038
-11.580002 268.34384 -37.137478 2.3509886e-038
-6.4697304 268.00122 -37.090065 2.3509886e-038
-1.3710401 267.37643 -37.003597 2.3509886e-038
3.6965525 266.22308 -36.843979 2.3509886e-038
8.71315 264.85275 -36.654331 2.3509886e-038
13.812531 266.0813 -36.824356 2.3509886e-038
15.562574 267.65155 -37.041672 2.3509886e-038
-109.15305 246.77541 -38.844437 3.5733111e-043
-105.48689 249.13547 -39.215931 3.5733111e-043
-101.22643 250.31334 -39.401337 3.5733111e-043
-96.918121 251.48326 -39.585495 3.5733111e-043
-92.798058 253.28845 -39.869644 3.5733111e-043
-88.958961 256.1001 -40.312218 3.5733111e-043
-85.211243 259.51566 -40.849854 3.5733111e-043
-81.15184 262.34351 -41.294979 3.5733111e-043
-76.546242 263.66034 -41.502262 3.5733111e-043
-71.584846 263.85034 -41.532169 3.5733111e-043
-66.562927 263.82913 -41.528831 3.5733111e-043
-61.580143 263.97223 -41.551353 2.3509886e-038
-56.615593 264.22577 -41.591267 2.3509886e-038
-51.719196 264.87775 -41.69389 2.3509886e-038
-46.828365 265.702 -41.823635 2.3509886e-038
-41.886501 266.401 -41.933662 2.3509886e-038
-36.948509 267.32028 -42.078365 2.3509886e-038
-31.987843 268.34268 -42.2393 2.3509886e-038
-26.977419 269.25644 -42.383133 2.3509886e-038
-21.878979 269.51404 -42.423679 2.3509886e-038
-16.727621 269.07794 -42.355038 2.3509886e-038
-11.607684 268.98532 -42.340458 2.3509886e-038
-6.4871774 268.72394 -42.299313 2.3509886e-038
-1.3731294 267.78384 -42.151337 2.3509886e-038
3.6976826 266.30447 -41.918468 2.3509886e-038
8.7169952 264.9696 -41.708355 2.3509886e-038
13.816833 266.16418 -41.896389 2.3509886e-038
15.203079 267.27655 -42.071484 2.3509886e-038
-106.06864 256.73434 -45.293324 2.3509886e-038
-103.57143 256.11206 -45.18354 2.3509886e-038
-98.333153 255.155 -45.014694 3.5733111e-043
-93.356239 254.81197 -44.954178 3.5733111e-043
-88.889374 255.89975 -45.146084 3.5733111e-043
-84.739639 258.07938 -45.530613 3.5733111e-043
-80.33741 259.71063 -45.818405 3.5733111e-043
-75.701607 260.75104 -46.001953 3.5733111e-043
-71.042068 261.84976 -46.195789 3.5733111e-043
-66.290459 262.74921 -46.354469 3.5733111e-043
-61.438072 263.36322 -46.462791 2.3509886e-038
-56.535168 263.85046 -46.548756 2.3509886e-038
-51.65564 264.55225 -46.672565 2.3509886e-038
-46.787235 265.46863 -46.834232 2.3509886e-038
-41.92411 266.64023 -47.040924 2.3509886e-038
-37.063313 268.15088 -47.307434 2.3509886e-038
-32.143978 269.65247 -47.57235 2.3509886e-038
-27.135786 270.83707 -47.781338 2.3509886e-038
-22.016159 271.20389 -47.846054 2.3509886e-038
-16.815924 270.49838 -47.721592 2.3509886e-038
-11.64454 269.83939 -47.605324 2.3509886e-038
-6.5030079 269.3797 -47.524227 2.3509886e-038
-1.3756082 268.26727 -47.327972 2.3509886e-038
3.7065265 266.94141 -47.094063 2.3509886e-038
8.755291 266.1337 -46.951565 2.3509886e-038
13.881389 267.40778 -47.176338 2.3509886e-038
14.701237 267.92203 -47.267059 2.3509886e-038
-100.69768 262.89783 -51.379147 2.3509886e-038
-95.288818 260.08688 -50.829796 2.3509886e-038
-89.716789 258.28177 -50.477013 3.5733111e-043
-84.681839 257.90335 -50.403053 3.5733111e-043
-79.828995 258.06705 -50.435047 2.3509886e-038
-75.118958 258.74411 -50.567375 2.3509886e-038
-70.578056 260.13947 -50.840069 2.3509886e-038
-65.927277 261.30966 -51.068764 2.3509886e-038
-61.128216 262.03494 -51.21051 2.3509886e-038
-56.295303 262.73099 -51.346542 2.3509886e-038
-51.466354 263.58282 -51.51302 2.3509886e-038
-46.636669 264.61435 -51.714615 2.3509886e-038
-41.874336 266.32367 -52.048672 2.3509886e-038
-37.127892 268.61807 -52.497078 2.3509886e-038
-32.279934 270.793 -52.922131 2.3509886e-038
-27.266781 272.1445 -53.18626 2.3509886e-038
-22.119333 272.47482 -53.25082 2.3509886e-038
-16.897625 271.81262 -53.121399 2.3509886e-038
-11.686668 270.81564 -52.926556 2.3509886e-038
-6.5149913 269.8761 -52.742935 2.3509886e-038
-1.3778595 268.70633 -52.514324 2.3509886e-038
3.7200527 267.91556 -52.359779 2.3509886e-038
8.8167791 268.00278 -52.376827 2.3509886e-038
14.019069 270.14304 -52.795105 2.3509886e-038
-96.375145 267.29858 -57.321312 2.3509886e-038
-91.676689 263.92404 -56.597649 2.3509886e-038
-85.302368 259.79318 -55.711807 2.3509886e-038
-79.704865 257.66577 -55.255592 2.3509886e-038
-74.798332 257.63974 -55.250004 2.3509886e-038
-70.224014 258.83453 -55.506226 2.3509886e-038
-65.56189 259.86145 -55.726444 2.3509886e-038
-60.775589 260.52338 -55.868389 2.3509886e-038
-56.001625 261.36041 -56.04789 2.3509886e-038
-51.251675 262.48337 -56.288704 2.3509886e-038
-46.486828 263.76413 -56.563362 2.3509886e-038
-41.789738 265.78558 -56.996853 2.3509886e-038
-37.115723 268.53003 -57.585396 2.3509886e-038
-32.329205 271.20633 -58.159313 2.3509886e-038
-27.340549 272.8808 -58.518398 2.3509886e-038
-22.196692 273.42776 -58.635693 2.3509886e-038
-16.963449 272.87149 -58.516407 2.3509886e-038
-11.72434 271.6886 -58.262741 2.3509886e-038
-6.5296898 270.48499 -58.004623 2.3509886e-038
-1.3823378 269.57965 -57.810482 2.3509886e-038
3.7437644 269.62326 -57.819832 2.3509886e-038
8.9109726 270.86594 -58.086323 2.3509886e-038
13.175234 273.24002 -58.595436 2.3509886e-038
-92.229797 270.56491 -63.165993 2.3509886e-038
-87.313683 265.91876 -62.081306 2.3509886e-038
-80.601372 260.56396 -60.831177 2.3509886e-038
-74.969337 258.22876 -60.285995 2.3509886e-038
-70.089699 258.33948 -60.311848 2.3509886e-038
-65.307617 258.85358 -60.431873 2.3509886e-038
-60.49099 259.30341 -60.536884 2.3509886e-038
-55.743595 260.15616 -60.73597 2.3509886e-038
-51.046093 261.43048 -61.033474 2.3509886e-038
-46.387043 263.19797 -61.44611 2.3509886e-038
-41.784115 265.74982 -62.041862 2.3509886e-038
-37.141586 268.71716 -62.734619 2.3509886e-038
-32.375713 271.59647 -63.406818 2.3509886e-038
-27.414814 273.62201 -63.879707 2.3509886e-038
-22.275787 274.40207 -64.061821 2.3509886e-038
-17.021299 273.80203 -63.921734 2.3509886e-038
-11.762892 272.58197 -63.63689 2.3509886e-038
-6.5537004 271.47961 -63.379539 2.3509886e-038
-1.389047 270.88806 -63.241436 2.3509886e-038
3.7780974 272.09589 -63.523411 2.3509886e-038
9.0739641 275.8204 -64.392937 2.3509886e-038
12.362133 279.40631 -65.230103 2.3509886e-038
-87.628647 274.38672 -69.275116 2.3509886e-038
-83.187325 268.92371 -67.895859 2.3509886e-038
-75.971169 261.67953 -66.066902 2.3509886e-038
-70.298874 259.11044 -65.418282 2.3509886e-038
-65.284363 258.76144 -65.33017 2.3509886e-038
-60.465332 259.19342 -65.439232 2.3509886e-038
-55.686916 259.89166 -65.615517 2.3509886e-038
-50.973511 261.05875 -65.910179 2.3509886e-038
-46.388794 263.20789 -66.452774 2.3509886e-038
-41.852703 266.18604 -67.204674 2.3509886e-038
-37.210308 269.21436 -67.969246 2.3509886e-038
-32.425171 272.01138 -68.675415 2.3509886e-038
-27.471218 274.18497 -69.22419 2.3509886e-038
-22.335608 275.13898 -69.46505 2.3509886e-038
-17.074467 274.65732 -69.343437 2.3509886e-038
-11.810491 273.68497 -69.097954 2.3509886e-038
-6.5887647 272.93207 -68.907867 2.3509886e-038
-1.3989857 272.82629 -68.881157 2.3509886e-038
3.8254941 275.50937 -69.558563 2.3509886e-038
9.2987099 282.65195 -71.36187 2.3509886e-038
11.435171 286.53848 -72.343109 2.3509886e-038
-80.31778 271.11737 -73.604431 2.3509886e-038
-77.92025 268.39307 -72.86483 2.3509886e-038
-71.361488 263.0271 -71.408051 2.3509886e-038
-65.813614 260.85916 -70.819481 2.3509886e-038
-60.829006 260.75235 -70.790482 2.3509886e-038
-55.960804 261.16989 -70.903839 2.3509886e-038
-51.175354 262.09247 -71.154305 2.3509886e-038
-46.55167 264.13205 -71.708023 2.3509886e-038
-41.962708 266.88571 -72.455597 2.3509886e-038
-37.261826 269.5871 -73.188988 2.3509886e-038
-32.457142 272.27957 -73.919952 2.3509886e-038
-27.539087 274.86234 -74.62114 2.3509886e-038
-22.417215 276.14426 -74.969162 2.3509886e-038
-17.158401 276.00745 -74.932022 2.3509886e-038
-11.885921 275.43292 -74.776047 2.3509886e-038
-6.6424904 275.15762 -74.701309 2.3509886e-038
-1.4156481 276.07574 -74.950569 2.3509886e-038
3.8994555 280.83603 -76.242912 2.3509886e-038
9.6129208 292.203 -79.32888 2.3509886e-038
10.189258 293.66815 -79.726646 2.3509886e-038
-73.492882 271.04343 -78.737694 2.3509886e-038
-67.117287 266.0264 -77.280251 2.3509886e-038
-61.623402 264.15765 -76.737381 2.3509886e-038
-56.575161 264.03711 -76.702362 2.3509886e-038
-51.658386 264.56631 -76.856102 2.3509886e-038
-46.871311 265.94568 -77.256798 2.3509886e-038
-42.16148 268.14987 -77.897125 2.3509886e-038
-37.39819 270.57367 -78.601227 2.3509886e-038
-32.582726 273.33307 -79.402824 2.3509886e-038
-27.702141 276.48978 -80.319847 2.3509886e-038
-22.591839 278.29535 -80.84436 2.3509886e-038
-17.314754 278.52252 -80.910355 2.3509886e-038
-12.013286 278.38437 -80.870216 2.3509886e-038
-6.7317104 278.85345 -81.006493 2.3509886e-038
-1.4425931 281.33047 -81.726059 2.3509886e-038
4.0046725 288.41367 -83.783722 2.3509886e-038
8.1828918 298.02094 -86.574615 2.3509886e-038
-65.694855 271.17712 -83.932404 2.3509886e-038
-63.051224 270.27823 -83.654182 2.3509886e-038
-57.786938 269.69247 -83.472885 2.3509886e-038
-52.640842 269.59793 -83.443619 2.3509886e-038
-47.568829 269.90335 -83.538162 2.3509886e-038
-42.638699 271.18503 -83.934853 2.3509886e-038
-37.790882 273.41479 -84.624985 2.3509886e-038
-32.945396 276.37546 -85.541351 2.3509886e-038
-28.058678 280.04828 -86.678123 2.3509886e-038
-22.962427 282.86041 -87.548508 2.3509886e-038
-17.64624 283.85477 -87.85627 2.3509886e-038
-12.277662 284.51077 -88.059311 2.3509886e-038
-6.9129415 286.36075 -88.631905 2.3509886e-038
-1.4934666 291.25168 -90.145706 2.3509886e-038
4.1769032 300.81757 -93.106453 2.3509886e-038
4.844357 302.16837 -93.524544 2.3509886e-038
-56.364216 280.6377 -92.196289 2.3509886e-038
-54.778465 280.54565 -92.166054 2.3509886e-038
-49.214252 279.23941 -91.736923 2.3509886e-038
-43.863316 278.97366 -91.64962 2.3509886e-038
-38.717125 280.11612 -92.02494 2.3509886e-038
-33.670483 282.45816 -92.794357 2.3509886e-038
-28.72753 286.72397 -94.195786 2.3509886e-038
-23.606819 290.79828 -95.534286 2.3509886e-038
-18.217691 293.04703 -96.273064 2.3509886e-038
-12.75261 295.51675 -97.084427 2.3509886e-038
-7.24686 300.19293 -98.620659 2.3509886e-038
-3.4986255 305.05801 -100.21895 2.3509886e-038
-116.42119 242.31671 -17.310947 3.5733111e-043
-115.00959 239.37865 -29.580942 3.5733111e-043
-111.83522 242.36263 -17.08329 3.5733111e-043
-111.19713 240.97978 -34.219166 3.5733111e-043
-107.86631 243.80716 -18.287785 3.5733111e-043
-109.1575 246.72562 -38.816513 3.5733111e-043
-104.29755 246.32651 -20.302717 3.5733111e-043
-107.73794 254.4519 -43.328678 2.3509886e-038
-100.64036 248.86407 -22.897823 3.5733111e-043
-104.53171 258.48663 -46.936874 2.3509886e-038
-97.456131 252.87929 -26.300781 3.5733111e-043
-101.15351 262.47327 -50.862991 2.3509886e-038
-93.886353 256.25891 -30.07024 3.5733111e-043
-97.43808 265.95322 -55.590527 2.3509886e-038
-89.902603 258.81668 -33.604652 3.5733111e-043
-93.718628 269.80249 -61.33485 2.3509886e-038
-81.33754 247.71808 66.184181 2.3509528e-038
-83.256165 253.56134 45.370968 2.3509528e-038
-86.2342 262.6311 -36.271545 3.5733111e-043
-89.587151 272.84274 -66.779602 2.3509886e-038
-76.388954 246.94627 64.570351 2.3509528e-038
-79.025238 255.46872 31.127388 2.3509886e-038
-82.632462 267.12994 -37.252239 3.5733111e-043
-84.736351 273.93134 -71.456993 2.3509886e-038
-72.373268 249.28671 58.86076 2.3509528e-038
-75.495125 260.03979 16.982065 2.3509886e-038
-78.67926 271.00745 -35.696556 3.5733111e-043
-78.519653 270.45764 -74.678276 2.3509886e-038
-68.412689 252.15828 49.042053 2.3509528e-038
-71.768135 264.52591 3.794214 2.3509886e-038
-73.901566 272.3894 -29.785486 3.5733111e-043
-73.535271 271.03931 -78.705429 2.3509886e-038
-64.026932 253.77745 38.891109 2.3509528e-038
-68.280357 270.63635 -82.094788 2.3509886e-038
-60.09676 257.61349 27.656046 2.3509528e-038
-63.621284 272.72186 -85.79734 2.3509886e-038
-56.281731 262.66766 17.848152 2.3509528e-038
-59.365768 277.06088 -89.649338 2.3509886e-038
-51.321999 262.84351 12.088424 2.3509528e-038
-55.055573 281.96487 -93.11628 2.3509886e-038
-46.514172 263.91928 11.236842 2.3509886e-038
-50.069687 284.09311 -95.178558 2.3509886e-038
-39.542435 251.49255 80.493484 2.3418052e-038
-44.955082 285.91739 -96.855186 2.3509886e-038
-34.437656 249.1544 85.349976 2.3418052e-038
-39.685013 287.11871 -98.124054 2.3509886e-038
-29.469791 247.21899 80.797462 2.3418052e-038
-34.366276 288.2951 -98.880875 2.3509886e-038
-25.469772 254.20892 44.983761 2.3509886e-038
-29.326275 292.69992 -100.05669 2.3509886e-038
-20.876255 257.16211 13.194268 2.3418409e-038
-24.054121 296.30832 -100.47016 2.3509886e-038
-15.379352 247.38991 28.935474 2.3418409e-038
-18.498487 297.56387 -100.07072 2.3509886e-038
-9.532567 220.89856 54.877033 2.3418409e-038
-12.924557 299.50128 -100.12006 2.3509886e-038
-5.1774402 214.46957 54.738705 2.3418409e-038
-7.3153749 303.0311 -100.54032 2.3509886e-038
-1.1354526 221.4328 46.543869 2.3418409e-038
-1.2788634 249.40038 17.940256 2.3418409e-038
-1.3194785 257.32101 -1.0402452 9.1476764e-041
-1.5672903 305.64856 -99.66011 2.3509886e-038
3.5681067 256.9725 -3.5235083 9.1476764e-041
4.2048302 302.82889 -94.420616 2.3509886e-038
8.4039583 255.4543 -2.1242263 9.1476764e-041
9.7182226 295.40384 -81.739471 2.3509886e-038
13.051929 251.42926 0.87526441 9.1476764e-041
14.022758 270.13104 -52.768246 2.3509886e-038
17.438854 245.88133 4.7638388 9.1476764e-041
18.676041 263.3252 -21.77976 2.3509886e-038
21.720995 241.51401 9.472826 9.1476764e-041
22.620947 251.52051 -12.174151 2.3509886e-038
25.860199 237.35905 15.183319 9.1476764e-041
26.526979 243.47913 -5.211935 9.1476764e-041
29.765034 232.60725 19.278717 9.1476764e-041
30.546743 238.71614 1.0473784 9.1476764e-041
33.756603 229.67497 20.869907 9.1476764e-041
34.300129 233.37305 7.5310645 9.1476764e-041
