# .PCD v0.7 - Point Cloud Data file format
VERSION 0.7
FIELDS x y z rgb
SIZE 4 4 4 4
TYPE F F F F
COUNT 1 1 1 1
WIDTH 550
HEIGHT 1
VIEWPOINT 0 0 0 1 0 0 0
POINTS 550
DATA ascii
-23.896883 230.63426 73.863091 2.3418052e-038
0 0 0 2.3418409e-038
0 0 0 2.3418409e-038
-81.551491 247.36551 57.086048 2.3509528e-038
0 0 0 2.3418409e-038
-26.714136 230.936 77.830818 2.3418052e-038
-23.929544 231.21071 77.923401 2.3418052e-038
-21.481997 231.04256 77.86673 2.3418052e-038
-29.741955 230.37375 73.255615 2.3418052e-038
-28.195562 230.1039 73.1698 2.3418052e-038
-23.871014 230.64517 73.341919 2.3418052e-038
-19.714142 231.61079 73.648972 2.3418052e-038
-30.96875 232.64539 69.549004 2.3418052e-038
-28.405727 231.81905 69.301971 2.3418052e-038
-24.073381 232.60048 69.535576 2.3418052e-038
-19.885906 235.44948 70.387283 2.3418052e-038
-19.583351 235.70546 70.463806 2.3418052e-038
-31.731461 236.08372 66.082474 2.3418052e-038
-28.738733 234.53671 65.649452 2.3418052e-038
-24.337311 235.1506 65.821281 2.3418052e-038
-20.142218 238.48422 66.754402 2.3418052e-038
-19.750532 238.86661 66.861435 2.3418052e-038
-31.983345 237.11127 61.856125 2.3418052e-038
-28.903145 235.87848 61.534519 2.3418052e-038
-24.489069 236.61693 61.727161 2.3418052e-038
-20.195372 239.11356 62.378468 2.3418052e-038
-19.730745 239.40302 62.453979 2.3418052e-038
-84.397133 244.5444 59.13974 2.3509528e-038
-81.669731 246.0338 59.499935 2.3509528e-038
-77.693779 248.29608 60.047035 2.3509528e-038
-76.793427 248.74326 60.155174 2.3509528e-038
-32.160751 237.12312 57.345001 2.3418052e-038
-29.000658 236.67429 57.236458 2.3418052e-038
-24.613123 237.81555 57.512463 2.3418052e-038
-20.213804 239.33182 57.879147 2.3418052e-038
-19.484428 239.5092 57.922047 2.3418052e-038
-85.228333 246.21288 54.855995 2.3509528e-038
-82.163605 247.52159 55.147579 2.3509528e-038
-77.810265 248.66835 55.403072 2.3509528e-038
-73.827751 248.78015 55.427982 2.3509528e-038
-32.845501 239.32469 53.321316 2.3418052e-038
-29.203051 238.326 53.098808 2.3418052e-038
-24.788015 239.50539 53.361576 2.3418052e-038
-20.363255 241.10129 53.717144 2.3418052e-038
-19.112455 241.39641 53.782894 2.3418052e-038
-85.079544 248.1615 50.565811 2.3509528e-038
-82.552994 248.69466 50.67445 2.3509528e-038
-77.764084 248.52075 50.639011 2.3509528e-038
-72.787125 247.68443 50.468605 2.3509528e-038
-71.096306 248.20303 50.574276 2.3509528e-038
-33.812542 242.22012 49.355186 2.3418052e-038
-29.395706 239.89827 48.882084 2.3418052e-038
-24.909082 240.67516 49.040382 2.3418052e-038
-20.510166 242.84074 49.481644 2.3418052e-038
-18.602152 243.79251 49.675575 2.3418052e-038
-84.332573 250.05409 46.191071 2.3509528e-038
-82.877831 249.67325 46.12072 2.3509528e-038
-77.635262 248.10904 45.831772 2.3509528e-038
-72.769257 247.62361 45.742104 2.3509528e-038
-69.211365 250.72923 46.315784 2.3509528e-038
-34.588581 243.42363 44.966263 2.3418052e-038
-34.443691 243.29541 44.942581 2.3418052e-038
-29.526592 240.96645 44.51236 2.3418052e-038
-25.018549 241.73283 44.653934 2.3418052e-038
-20.613918 244.06914 45.085506 2.3418052e-038
-18.141369 245.79924 45.405098 2.3509886e-038
-82.912483 250.80659 41.555374 2.3509528e-038
-77.594704 247.97943 41.086948 2.3509528e-038
-72.952934 248.24866 41.131557 2.3509528e-038
-69.061592 251.28564 41.634747 2.3509528e-038
-67.355637 253.46187 41.995316 2.3509528e-038
-35.214371 244.6902 40.541965 2.3418052e-038
-34.572002 244.20175 40.461037 2.3418052e-038
-29.684174 242.25244 40.138062 2.3418052e-038
-25.157852 243.0788 40.274979 2.3418052e-038
-20.744795 245.61873 40.695812 2.3418052e-038
-18.099257 248.21471 41.125931 2.3509886e-038
-80.541748 248.88557 36.498959 2.3509528e-038
-77.454704 247.53201 36.300461 2.3509528e-038
-72.952682 248.24777 36.40543 2.3509528e-038
-68.751083 250.15584 36.685246 2.3509528e-038
-64.566002 252.41238 37.016167 2.3509886e-038
-64.537476 252.44685 37.021225 2.3509886e-038
-35.686329 246.46309 36.143703 2.3418052e-038
-34.803375 245.83607 36.051754 2.3418052e-038
-29.87331 243.79599 35.752575 2.3418052e-038
-25.285484 244.312 35.828251 2.3418052e-038
-20.82822 246.60651 36.164738 2.3418052e-038
-18.334217 248.52615 36.446255 2.3509886e-038
-78.504776 247.80273 31.622656 2.3509528e-038
-77.462288 247.55626 31.591204 2.3509528e-038
-72.983276 248.35191 31.692739 2.3509528e-038
-68.58638 249.55655 31.846468 2.3509528e-038
-64.144455 250.7644 32.000603 2.3509528e-038
-62.030403 252.64505 32.240597 2.3509886e-038
-36.032269 248.32487 31.689285 2.3418052e-038
-35.054317 247.60863 31.597887 2.3418052e-038
-30.06879 245.39131 31.314928 2.3418052e-038
-25.445505 245.85817 31.374506 2.3418052e-038
-20.952076 248.07295 31.657141 2.3418052e-038
-18.938873 249.27744 31.810846 2.3509886e-038
-77.35347 249.42303 27.081062 2.3509528e-038
-73.373543 249.67992 27.108953 2.3509528e-038
-68.748901 250.14787 27.159761 2.3509528e-038
-64.253113 251.18921 27.272821 2.3509528e-038
-60.378654 255.02232 27.689003 2.3509886e-038
-60.209499 255.39801 27.729792 2.3509886e-038
-36.58559 251.95119 27.355555 2.3418052e-038
-35.513798 250.85417 27.236446 2.3418052e-038
-30.318102 247.42593 26.864227 2.3418052e-038
-25.628555 247.62682 26.886036 2.3418052e-038
-21.150433 250.42149 27.189468 2.3509886e-038
-19.847921 251.68803 27.326984 2.3509886e-038
-76.385956 252.12151 22.574312 2.3509528e-038
-73.90239 251.47951 22.51683 2.3509528e-038
-68.936516 250.83057 22.458725 2.3509528e-038
-64.455193 251.97917 22.561569 2.3509528e-038
-60.582584 255.88367 22.911167 2.3509528e-038
-58.855438 260.17172 23.295109 2.3509886e-038
-37.098751 254.42352 22.78043 2.3418052e-038
-35.843555 253.18346 22.669397 2.3418052e-038
-30.564386 249.43585 22.333847 2.3418052e-038
-25.764065 248.93611 22.289101 2.3509886e-038
-21.241499 251.49971 22.518639 2.3509886e-038
-20.492384 252.26749 22.587383 2.3509886e-038
-74.799171 253.83415 17.895329 2.3509528e-038
-74.546288 253.67061 17.883797 2.3509528e-038
-69.138077 251.56393 17.735277 2.3509528e-038
-64.515404 252.21458 17.781147 2.3509528e-038
-60.46912 255.40442 18.006031 2.3509528e-038
-56.991707 261.76495 18.454449 2.3509886e-038
-56.597519 262.82629 18.529274 2.3509886e-038
-37.935013 255.63881 18.022556 2.3509886e-038
-35.986378 254.19229 17.920576 2.3509886e-038
-30.751232 250.96071 17.692749 2.3509886e-038
-25.878702 250.04375 17.628103 2.3509886e-038
-21.261303 251.73419 17.74728 2.3509886e-038
-20.616758 251.95807 17.763063 2.3509886e-038
-72.584038 254.68275 13.106668 2.3509528e-038
-69.544502 253.04272 13.022267 2.3509528e-038
-64.642548 252.71165 13.00523 2.3509528e-038
-60.227833 254.3853 13.091359 2.3509528e-038
-55.904076 256.76941 13.214052 2.3509886e-038
-51.744934 259.45468 13.352243 2.3509886e-038
-40.530418 257.97568 13.27613 2.3509886e-038
-36.145828 255.31859 13.139388 2.3509886e-038
-30.959984 252.66432 13.002794 2.3509886e-038
-26.054289 251.74031 12.955241 2.3509886e-038
-21.248056 251.57735 12.946856 2.3509886e-038
-19.890091 250.69437 12.901414 2.3509886e-038
-70.274139 255.17249 8.2740526 2.3509528e-038
-70.099121 255.06076 8.2704296 2.3509528e-038
-64.903336 253.73116 8.2273169 2.3509528e-038
-60.178894 254.17859 8.2418242 2.3509528e-038
-55.532055 255.0607 8.2704277 2.3509886e-038
-51.077461 257.07947 8.335887 2.3509886e-038
-46.54092 259.06992 8.4004269 2.3509886e-038
-41.514698 258.48328 8.3814058 2.3509886e-038
-36.321594 256.56012 8.319046 2.3509886e-038
-31.214554 254.74188 8.2600889 2.3509886e-038
-26.222986 253.37029 8.2156143 2.3509886e-038
-20.98955 248.51663 8.0582333 2.3509886e-038
-15.527227 237.33987 7.6958237 2.3509886e-038
-10.635766 229.29543 7.4349799 2.3509886e-038
-6.2432799 228.29688 7.4026012 2.3509886e-038
-3.6306486 229.09184 7.4283781 2.3509886e-038
-68.607803 256.84006 3.4385586 2.3509528e-038
-65.427666 255.78096 3.4243798 2.3509528e-038
-60.437222 255.26968 3.4175346 2.3509528e-038
-55.676514 255.72423 3.42362 2.3509886e-038
-51.049828 256.9404 3.4399021 2.3509886e-038
-46.378796 258.16745 3.4563296 2.3509886e-038
-41.507587 258.439 3.4599652 2.3509886e-038
-36.520977 257.96844 3.4536657 2.3509886e-038
-31.475763 256.8736 3.439008 2.3509886e-038
-26.349375 254.59146 3.4084549 2.3509886e-038
-20.76897 245.90498 3.2921605 2.3509886e-038
-15.245191 233.02882 3.1197755 2.3509886e-038
-10.533718 227.09538 3.0403388 2.3509886e-038
-6.2230392 227.55673 3.0465155 2.3509886e-038
-1.905895 229.35388 3.0705755 2.3509886e-038
-1.3093499 229.69852 3.0751896 2.3509886e-038
-67.723274 259.80151 -1.4677272 2.3509886e-038
-66.203873 258.81543 -1.4621565 2.3509886e-038
-60.762924 256.64536 -1.4498967 2.3509886e-038
-55.857735 256.55658 -1.4493952 2.3509886e-038
-51.167015 257.53021 -1.4548957 2.3509886e-038
-46.468815 258.66855 -1.4613266 2.3509886e-038
-41.642334 259.27798 -1.4647697 2.3509886e-038
-36.718227 259.36176 -1.4652429 2.3509886e-038
-31.702812 258.72656 -1.4616544 2.3509886e-038
-26.46604 255.7187 -1.4446617 2.3509886e-038
-20.665058 244.67465 -1.3822693 2.3509886e-038
-15.112261 230.99695 -1.3049983 2.3509886e-038
-10.484011 226.02374 -1.2769026 2.3509886e-038
-6.2195897 227.43059 -1.2848502 2.3509886e-038
-1.9100899 229.8587 -1.2985678 2.3509886e-038
-0.65244514 230.63167 -1.3029346 2.3509886e-038
-67.06871 262.17566 -6.4722705 2.3509886e-038
-67.061623 262.1687 -6.4720993 2.3509886e-038
-61.131321 258.20135 -6.3741584 2.3509886e-038
-56.08046 257.57956 -6.358808 2.3509886e-038
-51.38007 258.60254 -6.3840618 2.3509886e-038
-46.704899 259.9827 -6.4181342 2.3509886e-038
-41.869678 260.69348 -6.4356809 2.3509886e-038
-36.921391 260.79681 -6.4382315 2.3509886e-038
-31.892159 260.27179 -6.4252706 2.3509886e-038
-26.578644 256.8067 -6.3397284 2.3509886e-038
-20.593563 243.82814 -6.01933 2.3509886e-038
-15.028242 229.71268 -5.6708646 2.3509886e-038
-10.492389 226.20438 -5.5842562 2.3509886e-038
-6.2582493 228.84424 -5.6494255 2.3509886e-038
-1.9344081 232.78514 -5.7467136 2.3509886e-038
-0.67464101 234.09486 -5.7790465 2.3509886e-038
-66.529808 263.86401 -11.537223 2.3509886e-038
-61.575451 260.07724 -11.37165 2.3509886e-038
-56.386978 258.9874 -11.323997 2.3509886e-038
-51.641693 259.91931 -11.364745 2.3509886e-038
-46.939262 261.28726 -11.424559 2.3509886e-038
-42.071384 261.9494 -11.453508 2.3509886e-038
-37.074654 261.87943 -11.450449 2.3509886e-038
-32.004429 261.18802 -11.420218 2.3509886e-038
-26.580656 256.82614 -11.229498 2.3509886e-038
-20.455585 242.1945 -10.589743 2.3509886e-038
-14.947274 228.47505 -9.989872 2.3509886e-038
-10.528234 226.97714 -9.9243774 2.3509886e-038
-6.344399 231.99446 -10.143756 2.3509886e-038
-1.989329 239.39427 -10.467306 2.3509886e-038
0.013277494 242.78209 -10.615435 2.3509886e-038
-66.051033 264.35379 -16.591255 2.3509886e-038
-61.787651 260.97351 -16.379103 2.3509886e-038
-56.583931 259.89203 -16.311226 2.3509886e-038
-51.827232 260.85318 -16.37155 2.3509886e-038
-47.071533 262.02356 -16.445005 2.3509886e-038
-42.171623 262.57352 -16.479523 2.3509886e-038
-37.171032 262.56018 -16.478685 2.3509886e-038
-32.102646 261.98956 -16.442873 2.3509886e-038
-26.397146 255.05304 -16.007526 2.3509886e-038
-20.138998 238.44609 -14.965246 2.3509886e-038
-14.833666 226.73849 -14.23046 2.3509886e-038
-10.560108 227.66432 -14.288566 2.3509886e-038
-6.4495492 235.83948 -14.801651 2.3509886e-038
-2.031487 244.46751 -15.343161 2.3509886e-038
2.6383181 245.93944 -15.435541 2.3509886e-038
3.8212678 245.39165 -15.401161 2.3509886e-038
-65.305206 262.92139 -21.506683 2.3509886e-038
-61.614182 260.24081 -21.287415 2.3509886e-038
-56.532169 259.6543 -21.239437 2.3509886e-038
-51.854404 260.98993 -21.348692 2.3509886e-038
-47.12001 262.2934 -21.455315 2.3509886e-038
-42.206036 262.78775 -21.495752 2.3509886e-038
-37.204453 262.79626 -21.496447 2.3509886e-038
-32.135139 262.25476 -21.452154 2.3509886e-038
-26.091272 252.09764 -20.621313 2.3509886e-038
-19.786844 234.27658 -19.163568 2.3509886e-038
-14.76838 225.74059 -18.465334 2.3509886e-038
-10.640653 229.40077 -18.764732 2.3509886e-038
-6.5431437 239.26193 -19.571365 2.3509886e-038
-2.0195801 243.03467 -19.879971 2.3509886e-038
2.5526028 237.94917 -19.463984 2.3509886e-038
6.9945807 234.99396 -19.22225 2.3509886e-038
9.2122841 235.98909 -19.303652 2.3509886e-038
-64.308113 260.68967 -26.286974 2.3509886e-038
-61.266026 258.77032 -26.093433 2.3509886e-038
-56.255775 258.3848 -26.05456 2.3509886e-038
-51.628967 259.85529 -26.202837 2.3509886e-038
-46.933964 261.25781 -26.344261 2.3509886e-038
-41.916462 260.9848 -26.316734 2.3509886e-038
-36.685978 259.13397 -26.130102 2.3509886e-038
-31.462465 256.76508 -25.891232 2.3509886e-038
-25.461563 246.01332 -24.807066 2.3509886e-038
-19.506397 230.95609 -23.28875 2.3509886e-038
-14.790498 226.07866 -22.796928 2.3509886e-038
-10.783392 232.47809 -23.442223 2.3509886e-038
-6.6167922 241.95502 -24.39784 2.3509886e-038
-1.9969715 240.31395 -24.232361 2.3509886e-038
2.499047 232.95682 -23.490496 2.3509886e-038
6.9224939 232.5721 -23.451702 2.3509886e-038
11.74359 240.63602 -24.264839 2.3509886e-038
12.466899 242.40306 -24.443022 2.3509886e-038
-63.573956 259.05109 -31.053411 2.3509886e-038
-60.877052 257.12741 -30.822811 2.3509886e-038
-55.727421 255.95805 -30.682636 2.3509886e-038
-50.807003 255.71823 -30.653889 2.3509886e-038
-45.664921 254.19366 -30.471132 2.3509886e-038
-40.193962 250.25999 -29.99959 2.3509886e-038
-34.682014 244.97884 -29.366518 2.3509886e-038
-29.579315 241.3967 -28.937115 2.3509886e-038
-24.417921 235.92949 -28.281738 2.3509886e-038
-19.315041 228.69041 -27.413963 2.3509886e-038
-14.897744 227.71797 -27.297394 2.3509886e-038
-10.971741 236.53868 -28.354765 2.3509886e-038
-6.6612434 243.58046 -29.198891 2.3509886e-038
-1.9759326 237.78215 -28.503826 2.3509886e-038
2.4773993 230.93887 -27.683495 2.3509886e-038
6.9644322 233.98106 -28.048174 2.3509886e-038
12.013824 246.17337 -29.509712 2.3509886e-038
14.483904 253.15613 -30.34676 2.3509886e-038
-63.077545 256.82584 -35.675945 2.3509886e-038
-60.041195 253.59698 -35.227425 2.3509886e-038
-54.23365 249.09709 -34.602341 2.3509886e-038
-48.555416 244.3857 -33.947872 2.3509886e-038
-42.939167 239.02077 -33.202625 2.3509886e-038
-37.484974 233.39299 -32.420868 2.3509886e-038
-32.332478 228.38269 -31.724882 2.3509886e-038
-27.788469 226.7816 -31.50247 2.3509886e-038
-23.559559 227.63586 -31.621136 2.3509886e-038
-19.229462 227.67717 -31.626877 2.3509886e-038
-15.0736 230.40601 -32.005939 2.3509886e-038
-11.152782 240.44173 -33.400013 2.3509886e-038
-6.6466746 243.04773 -33.762016 2.3509886e-038
-1.9494957 234.60075 -32.588638 2.3509886e-038
2.4736052 230.58516 -32.030827 2.3509886e-038
7.0791483 237.83513 -33.037926 2.3509886e-038
12.313643 252.31689 -35.049606 2.3509886e-038
15.134131 259.41061 -36.035 2.3509886e-038
-62.059189 250.6333 -39.587128 2.3509886e-038
-57.748711 243.91417 -38.525852 2.3509886e-038
-51.307106 235.65536 -37.22139 2.3509886e-038
-45.633488 229.67926 -36.277473 2.3509886e-038
-40.641293 226.22966 -35.732613 2.3509886e-038
-36.025757 224.30745 -35.429005 2.3509886e-038
-31.490608 222.43611 -35.13343 2.3509886e-038
-27.287565 222.69373 -35.174122 2.3509886e-038
-23.368773 225.79245 -35.663555 2.3509886e-038
-19.357626 229.19463 -36.200924 2.3509886e-038
-15.387911 235.21036 -37.1511 2.3509886e-038
-11.284669 243.28506 -38.426487 2.3509886e-038
-6.5654969 240.07932 -37.920143 2.3509886e-038
-1.9246531 231.61122 -36.582623 2.3509886e-038
2.492553 232.35147 -36.699543 2.3509886e-038
7.2641225 244.04962 -38.547249 2.3509886e-038
12.589314 257.96564 -40.745258 2.3509886e-038
14.846811 262.09537 -41.397545 2.3509886e-038
-61.278996 242.33087 -42.889114 2.3509886e-038
-54.617733 230.6898 -40.828808 2.3509886e-038
-48.706432 223.71037 -39.593548 2.3509886e-038
-44.059364 221.75648 -39.247742 2.3509886e-038
-39.875454 221.96663 -39.284931 2.3509886e-038
-35.773281 222.73546 -39.421001 2.3509886e-038
-31.71616 224.02931 -39.649998 2.3509886e-038
-28.000607 228.51285 -40.44352 2.3509886e-038
-24.248955 234.29691 -41.467216 2.3509886e-038
-20.165466 238.75946 -42.257023 2.3509886e-038
-16.043503 245.23134 -43.402454 2.3509886e-038
-11.39857 245.74063 -43.492592 2.3509886e-038
-6.4512897 235.90311 -41.751488 2.3509886e-038
-1.9097214 229.81435 -40.673866 2.3509886e-038
2.5316205 235.99327 -41.767448 2.3509886e-038
7.4735203 251.08469 -44.438416 2.3509886e-038
12.846981 263.24542 -46.590694 2.3509886e-038
14.456452 265.3739 -46.967403 2.3509886e-038
-62.385113 237.00946 -46.459335 2.3509886e-038
-59.536976 232.75208 -45.62479 2.3509886e-038
-53.057571 224.10013 -43.928806 2.3509886e-038
-47.944561 220.21109 -43.166466 2.3509886e-038
-43.750458 220.20172 -43.164631 2.3509886e-038
-39.830353 221.71556 -43.461376 2.3509886e-038
-36.110855 224.83731 -44.073311 2.3509886e-038
-32.835388 231.93506 -45.464634 2.3509886e-038
-29.890327 243.93486 -47.816872 2.3509886e-038
-26.200266 253.15076 -49.623405 2.3509886e-038
-21.688244 256.78918 -50.336617 2.3509886e-038
-16.861988 257.74222 -50.523438 2.3509886e-038
-11.456176 246.98256 -48.414295 2.3509886e-038
-6.3642616 232.72079 -45.618656 2.3509886e-038
-1.9155622 230.51723 -45.186707 2.3509886e-038
2.5924222 241.6611 -47.371162 2.3509886e-038
7.6753912 257.86685 -50.547867 2.3509886e-038
13.103046 268.49243 -52.630722 2.3509886e-038
14.281896 270.04987 -52.936016 2.3509886e-038
-66.150681 238.09288 -51.204388 2.3509886e-038
-64.945854 236.31021 -50.821003 2.3509886e-038
-58.577225 229.00005 -49.248875 2.3509886e-038
-53.178024 224.60889 -48.304508 2.3509886e-038
-48.422375 222.40569 -47.830688 2.3509886e-038
-44.355568 223.24731 -48.011692 2.3509886e-038
-40.780819 227.00633 -48.820103 2.3509886e-038
-37.643265 234.37856 -50.405582 2.3509886e-038
-34.834942 246.05905 -52.917591 2.3509886e-038
-31.789984 259.43796 -55.794868 2.3509886e-038
-27.691666 267.56088 -57.541786 2.3509886e-038
-22.759001 269.46698 -57.951714 2.3509886e-038
-17.227516 263.32944 -56.631775 2.3509886e-038
-11.391437 245.58684 -52.81604 2.3509886e-038
-6.3536348 232.3322 -49.965488 2.3509886e-038
-1.9563307 235.42326 -50.630257 2.3509886e-038
2.6847413 250.26691 -53.82254 2.3509886e-038
7.8843331 264.8866 -56.966656 2.3509886e-038
13.388116 274.33374 -58.998363 2.3509886e-038
14.195176 275.64322 -59.279984 2.3509886e-038
-70.970459 243.77446 -57.067089 2.3509886e-038
-64.545769 234.85448 -54.978939 2.3509886e-038
-58.857071 230.09407 -53.86454 2.3509886e-038
-54.144684 228.69179 -53.536266 2.3509886e-038
-49.981567 229.56712 -53.741184 2.3509886e-038
-46.355869 233.31509 -54.618576 2.3509886e-038
-43.06517 239.72217 -56.118454 2.3509886e-038
-39.900547 248.43311 -58.157669 2.3509886e-038
-36.486988 257.72836 -60.333668 2.3509886e-038
-32.562653 265.74374 -62.210049 2.3509886e-038
-28.0198 270.73135 -63.37764 2.3509886e-038
-22.990587 272.20895 -63.723541 2.3509886e-038
-17.251165 263.69095 -61.7295 2.3509886e-038
-11.383482 245.41536 -57.451218 2.3509886e-038
-6.474443 236.74976 -55.422619 2.3509886e-038
-2.0407166 245.57822 -57.489342 2.3509886e-038
2.7938657 260.4393 -60.968296 2.3509886e-038
8.0855732 271.64758 -63.592129 2.3509886e-038
13.778708 282.33731 -66.094566 2.3509886e-038
13.794568 282.37332 -66.102997 2.3509886e-038
-73.046371 247.24561 -62.586582 2.3509886e-038
-72.40197 246.37379 -62.365894 2.3509886e-038
-65.341125 237.74843 -60.18251 2.3509886e-038
-59.988865 234.51866 -59.364944 2.3509886e-038
-55.776688 235.58492 -59.63485 2.3509886e-038
-52.148293 239.51898 -60.630703 2.3509886e-038
-48.633827 244.78036 -61.96254 2.3509886e-038
-44.963657 250.2901 -63.35725 2.3509886e-038
-41.069817 255.71332 -64.730057 2.3509886e-038
-36.951797 261.0116 -66.071243 2.3509886e-038
-32.650291 266.45892 -67.45015 2.3509886e-038
-28.062309 271.14209 -68.635628 2.3509886e-038
-23.097734 273.47757 -69.226822 2.3509886e-038
-17.497894 267.46228 -67.704132 2.3509886e-038
-11.774725 253.85013 -64.258415 2.3509886e-038
-6.8342104 249.9053 -63.259846 2.3509886e-038
-2.1554034 259.37955 -65.658104 2.3509886e-038
2.8888152 269.29031 -68.166885 2.3509886e-038
8.2605734 277.52698 -70.251869 2.3509886e-038
12.806441 287.28012 -72.720726 2.3509886e-038
-72.778229 250.59566 -68.205299 2.3509886e-038
-66.977531 243.70264 -66.329201 2.3509886e-038
-61.641098 240.97786 -65.587585 2.3509886e-038
-57.511787 242.91348 -66.114418 2.3509886e-038
-53.666653 246.49284 -67.088615 2.3509886e-038
-49.6134 249.71068 -67.964424 2.3509886e-038
-45.440407 252.94391 -68.844421 2.3509886e-038
-41.229328 256.70651 -69.8685 2.3509886e-038
-36.960548 261.07343 -71.057053 2.3509886e-038
-32.586243 265.93622 -72.380577 2.3509886e-038
-28.054819 271.0697 -73.777771 2.3509886e-038
-23.191078 274.58276 -74.733932 2.3509886e-038
-17.879431 273.29425 -74.383232 2.3509886e-038
-12.427299 267.91888 -72.920204 2.3509886e-038
-7.2972474 266.8371 -72.625771 2.3509886e-038
-2.2543619 271.28812 -73.837219 2.3509886e-038
2.9616442 276.07932 -75.141251 2.3509886e-038
8.4431162 283.65979 -77.204445 2.3509886e-038
11.32082 289.8616 -78.89241 2.3509886e-038
-69.242676 250.60901 -72.979858 2.3509886e-038
-68.757065 250.1776 -72.854218 2.3509886e-038
-63.290043 247.42419 -72.052406 2.3509886e-038
-58.633755 247.65236 -72.118851 2.3509886e-038
-54.256489 249.20198 -72.570114 2.3509886e-038
-49.915672 251.23203 -73.161285 2.3509886e-038
-45.589737 253.77515 -73.901871 2.3509886e-038
-41.310547 257.21216 -74.902756 2.3509886e-038
-37.021282 261.50241 -76.152122 2.3509886e-038
-32.604057 266.0816 -77.485626 2.3509886e-038
-28.097073 271.47797 -79.057106 2.3509886e-038
-23.298222 275.85135 -80.330681 2.3509886e-038
-18.126385 277.06903 -80.68528 2.3509886e-038
-12.825611 276.50607 -80.521339 2.3509886e-038
-7.5622888 276.52881 -80.527962 2.3509886e-038
-2.3105459 278.04926 -80.970734 2.3509886e-038
3.0219834 281.70404 -82.035042 2.3509886e-038
8.6339445 290.07095 -84.471565 2.3509886e-038
9.4640303 291.91263 -85.007881 2.3509886e-038
-63.972198 254.01091 -78.806221 2.3509886e-038
-59.660755 251.99011 -78.179276 2.3509886e-038
-54.930885 252.29951 -78.275269 2.3509886e-038
-50.421776 253.77933 -78.734375 2.3509886e-038
-45.992493 256.01709 -79.428635 2.3509886e-038
-41.676975 259.49368 -80.507233 2.3509886e-038
-37.363396 263.91895 -81.880157 2.3509886e-038
-32.906517 268.54999 -83.316933 2.3509886e-038
-28.360447 274.02274 -85.014832 2.3509886e-038
-23.552725 278.86469 -86.517044 2.3509886e-038
-18.372538 280.83157 -87.127258 2.3509886e-038
-13.04355 281.20462 -87.242996 2.3509886e-038
-7.705143 281.75256 -87.412994 2.3509886e-038
-2.3545988 283.35056 -87.908775 2.3509886e-038
3.0890713 287.95786 -89.338165 2.3509886e-038
6.3977628 292.70956 -90.812378 2.3509886e-038
-54.006016 259.32794 -85.392746 2.3509886e-038
-51.584278 259.63034 -85.492317 2.3509886e-038
-47.109943 262.23737 -86.350769 2.3509886e-038
-42.834602 266.70142 -87.820717 2.3509886e-038
-38.394985 271.20563 -89.303879 2.3509886e-038
-33.782097 275.69559 -90.782356 2.3509886e-038
-29.068014 280.85934 -92.482704 2.3509886e-038
-24.166731 286.13452 -94.219734 2.3509886e-038
-18.942429 289.54257 -95.341957 2.3509886e-038
-13.505402 291.16162 -95.875084 2.3509886e-038
-7.9735918 291.56888 -96.009186 2.3509886e-038
-2.4241667 291.72229 -96.0597 2.3509886e-038
-1.2635123 292.15442 -96.202003 2.3509886e-038
-35.833969 289.47144 -100.8293 2.3509886e-038
-35.493008 289.65833 -100.8944 2.3509886e-038
-30.269392 292.46722 -101.8728 2.3509886e-038
-26.272612 296.1373 -103.15116 2.3509886e-038
-81.23568 244.72618 62.883629 2.3509528e-038
-83.298828 250.94151 42.527477 2.3509528e-038
-77.61837 248.05505 61.268749 2.3509528e-038
-77.741531 248.44868 28.92926 2.3509528e-038
-73.036819 248.5341 54.074471 2.3509528e-038
-74.623734 253.93414 17.490189 2.3509528e-038
-72.021935 245.08058 -59.175621 2.3509886e-038
-73.24453 249.24091 -65.61129 2.3509886e-038
-69.044815 251.22458 45.851616 2.3509528e-038
-70.142899 255.22003 7.9784374 2.3509528e-038
-65.202469 237.24393 -50.154114 2.3509886e-038
-68.890259 250.66223 -73.338509 2.3509886e-038
-64.577888 252.45885 37.093437 2.3509886e-038
-67.066071 262.1861 -6.497438 2.3509886e-038
-61.442787 240.20259 -44.025749 2.3509886e-038
-64.881241 253.64479 -78.050392 2.3509886e-038
-60.362865 254.95561 28.20237 2.3509886e-038
-60.350307 254.90257 -81.208977 2.3509886e-038
-57.220852 262.81741 19.535913 2.3509886e-038
-56.172028 258.00012 -84.222267 2.3509886e-038
-51.535583 259.38525 13.185669 2.3509886e-038
-51.794991 260.69089 -86.454491 2.3509886e-038
-46.648052 259.66626 10.728133 2.3509886e-038
-47.753708 265.82089 -89.18206 2.3509886e-038
-41.532623 258.59491 12.297056 2.3509886e-038
-44.02504 274.11343 -93.041855 2.3509886e-038
-34.434986 243.23392 45.938229 2.3418052e-038
-40.034931 282.78952 -97.378891 2.3509886e-038
-28.217461 230.28261 76.123451 2.3418052e-038
-35.50605 289.76477 -100.96627 2.3509886e-038
-24.001558 231.90654 79.473 2.3418052e-038
-30.342182 293.17053 -102.40794 2.3509886e-038
-19.62709 232.3851 72.891006 2.3418052e-038
-25.11441 297.35504 -103.45952 2.3509886e-038
-15.645461 239.14713 9.098815 2.3509886e-038
-19.74651 301.83331 -104.33176 2.3509886e-038
-10.708897 230.87204 9.555728 2.3509886e-038
-14.054319 302.99567 -103.84646 2.3509886e-038
-6.257257 228.80795 9.2706184 2.3509886e-038
-8.1802254 299.12479 -101.18491 2.3509886e-038
-1.9069401 229.47966 4.7238131 2.3509886e-038
-2.434222 292.93234 -97.017143 2.3509886e-038
2.6513503 247.15428 -14.550882 2.3509886e-038
3.1345613 292.19836 -93.624809 2.3509886e-038
7.0980563 238.47038 -17.375099 2.3509886e-038
8.6950874 292.12515 -86.813377 2.3509886e-038
11.691872 239.57628 -22.859795 2.3509886e-038
13.784795 282.46204 -66.196213 2.3509886e-038
