# .PCD v0.7 - Point Cloud Data file format
VERSION 0.7
FIELDS x y z rgb
SIZE 4 4 4 4
TYPE F F F F
COUNT 1 1 1 1
WIDTH 756
HEIGHT 1
VIEWPOINT 0 0 0 1 0 0 0
POINTS 756
DATA ascii
-34.079819 249.51952 77.560966 2.3418052e-038
34.932251 231.78314 16.374491 9.1476764e-041
-111.70615 242.0228 -22.797174 3.5733111e-043
-81.139381 249.68234 61.148514 2.3509528e-038
-5.3132582 225.62964 55.257881 2.3418409e-038
-39.224388 252.48615 80.565872 2.3418052e-038
-34.599159 249.64661 79.659805 2.3418052e-038
-29.750322 248.80615 79.391624 2.3418052e-038
-28.622011 248.89362 79.419533 2.3418052e-038
-40.618389 253.85513 76.174316 2.3418052e-038
-39.912056 253.22839 75.986252 2.3418052e-038
-34.685959 250.2729 75.099396 2.3418052e-038
-29.841463 249.56837 74.887985 2.3418052e-038
-27.580013 249.94685 75.001556 2.3418052e-038
-41.021168 254.79335 71.609604 2.3418052e-038
-40.016117 253.88864 71.355339 2.3418052e-038
-34.773243 250.90268 70.516129 2.3418052e-038
-29.933359 250.33691 70.357124 2.3418052e-038
-27.427464 250.82585 70.494537 2.3418052e-038
-85.189018 251.42213 65.879997 2.3509528e-038
-81.948395 249.2382 65.307755 2.3509528e-038
-77.212921 247.63351 64.887268 2.3509528e-038
-40.994247 254.36449 66.650986 2.3418052e-038
-39.949421 253.46547 66.415413 2.3418052e-038
-34.742252 250.67908 65.685295 2.3418052e-038
-29.936235 250.36096 65.601944 2.3418052e-038
-27.369394 250.87898 65.737679 2.3418052e-038
-8.6589842 224.82555 58.910912 2.3418409e-038
-5.4005408 220.69244 57.827915 2.3418409e-038
-1.4952098 219.69206 57.565788 2.3418409e-038
-87.329071 253.9334 61.708138 2.3509528e-038
-82.394958 250.59641 60.897217 2.3509528e-038
-77.018532 248.62718 60.418678 2.3509528e-038
-73.713509 248.14288 60.300987 2.3509528e-038
-41.142445 255.25903 62.030277 2.3418052e-038
-40.0569 254.14738 61.760136 2.3418052e-038
-34.770321 250.88161 60.966526 2.3418052e-038
-29.980997 250.73531 60.930969 2.3418052e-038
-27.273594 251.29318 61.06654 2.3418052e-038
-10.869521 231.39624 56.231403 2.3418409e-038
-10.011694 230.20076 55.940884 2.3418409e-038
-5.4949236 224.54939 54.567554 2.3418409e-038
-1.2189887 223.64433 54.347614 2.3418409e-038
0.041139431 224.49326 54.553909 2.3418409e-038
-86.875626 254.16934 56.931099 2.3509528e-038
-82.916161 252.18159 56.485863 2.3509528e-038
-77.436409 249.97617 55.991875 2.3509528e-038
-72.561356 249.56194 55.89909 2.3509528e-038
-71.763641 249.92403 55.980194 2.3509528e-038
-41.395649 256.83002 57.527058 2.3418052e-038
-40.275494 255.53429 57.236832 2.3418052e-038
-34.881172 251.68144 56.373837 2.3418052e-038
-30.050097 251.3132 56.291355 2.3418052e-038
-26.956161 251.75795 56.390972 2.3418052e-038
-12.322924 239.02184 53.538227 2.3418409e-038
-10.237676 235.3968 52.726257 2.3418409e-038
-5.601584 228.90805 51.27285 2.3418409e-038
-1.2386824 227.25749 50.903141 2.3418409e-038
0.40330377 228.06508 51.084034 2.3418409e-038
-86.262161 256.10773 52.494034 2.3509528e-038
-83.546051 254.09734 52.08197 2.3509528e-038
-77.662849 250.70715 51.387085 2.3509528e-038
-72.74218 250.18385 51.279827 2.3509528e-038
-70.013145 251.53435 51.556637 2.3509528e-038
-41.474415 257.3186 52.742229 2.3418052e-038
-40.376514 256.17523 52.50787 2.3418052e-038
-35.010658 252.61575 51.77829 2.3418052e-038
-30.14632 252.11794 51.67625 2.3418409e-038
-26.374449 252.65378 51.786083 2.3418409e-038
-13.235333 242.51085 49.707104 2.3418409e-038
-10.335932 237.65599 48.712013 2.3418409e-038
-5.6708646 231.7392 47.499252 2.3418409e-038
-1.2529322 229.87187 47.116508 2.3418409e-038
0.04720002 230.1301 47.169437 2.3418409e-038
-84.645561 255.92741 47.589264 2.3509528e-038
-83.91983 255.23415 47.46035 2.3509528e-038
-77.681984 250.76891 46.630047 2.3509528e-038
-72.718399 250.10207 46.50605 2.3509528e-038
-68.409615 251.75157 46.812775 2.3509886e-038
-67.966232 252.11156 46.879707 2.3509886e-038
-41.587833 258.0224 47.978821 2.3418052e-038
-40.493835 256.91959 47.773758 2.3418052e-038
-35.111721 253.34496 47.109058 2.3418409e-038
-30.241438 252.91342 47.028812 2.3418409e-038
-25.786205 254.21777 47.271358 2.3418409e-038
-13.744078 243.05646 45.19593 2.3418409e-038
-10.365132 238.32742 44.316574 2.3418409e-038
-5.7198715 233.74185 43.463898 2.3418409e-038
-1.2658662 232.24481 43.185524 2.3418409e-038
-0.58509243 232.27199 43.190575 2.3418409e-038
-82.80368 255.2233 42.603912 2.3509528e-038
-77.968506 251.69385 42.014748 2.3509528e-038
-72.964622 250.94891 41.890396 2.3509528e-038
-68.435005 251.84503 42.039986 2.3509528e-038
-65.790047 252.32706 42.120449 2.3509886e-038
-41.715431 258.81396 43.203297 2.3418052e-038
-40.615643 257.69241 43.016079 2.3418052e-038
-35.207062 254.03288 42.405201 2.3418409e-038
-30.317669 253.55095 42.324753 2.3418409e-038
-25.642015 255.01236 42.568703 2.3418409e-038
-25.417768 255.04453 42.57407 2.3418409e-038
-14.106277 244.1946 40.762913 2.3418409e-038
-10.422905 239.65579 40.00526 2.3418409e-038
-5.768755 235.73947 39.351517 2.3418409e-038
-1.2790186 234.65784 39.170963 2.3509886e-038
-1.0006975 234.68053 39.174751 2.3509886e-038
-81.384132 255.84196 37.841 2.3509528e-038
-78.601395 253.73691 37.529644 2.3509528e-038
-73.327942 252.19849 37.302097 2.3509528e-038
-68.581795 252.38522 37.32972 2.3509528e-038
-63.900173 252.85539 37.399258 2.3509886e-038
-63.771366 252.91339 37.407837 2.3509886e-038
-41.863132 259.73041 38.41613 2.3418052e-038
-40.769989 258.67169 38.259537 2.3418409e-038
-35.382679 255.30005 37.760841 2.3418409e-038
-30.427298 254.46779 37.637745 2.3418409e-038
-25.665382 255.24477 37.752666 2.3418409e-038
-25.254665 255.23921 37.751846 2.3418409e-038
-14.622116 245.02341 36.240849 2.3418409e-038
-10.464058 240.60205 35.586899 2.3418409e-038
-5.8125143 237.52768 35.132172 2.3418409e-038
-1.2923511 237.10394 35.0695 2.3418409e-038
-1.1802261 237.12668 35.072865 2.3418409e-038
-79.967216 256.45975 33.054432 2.3509528e-038
-79.270645 255.89734 32.981949 2.3509528e-038
-73.589905 253.09947 32.621334 2.3509528e-038
-68.67485 252.72766 32.573414 2.3509528e-038
-64.023849 253.34477 32.65295 2.3509886e-038
-61.934868 254.26024 32.770947 2.3509886e-038
-42.081821 261.08722 33.650856 2.3418052e-038
-40.974915 259.97189 33.507107 2.3418052e-038
-35.560291 256.58157 33.070137 2.3418409e-038
-30.540037 255.41064 32.919216 2.3418409e-038
-25.74906 256.07693 33.005093 2.3418409e-038
-25.300875 256.13412 33.012466 2.3418409e-038
-15.551287 248.60774 32.042412 2.3418409e-038
-15.539864 248.5925 32.040443 2.3418409e-038
-10.555788 242.7112 31.282417 2.3418409e-038
-5.8649926 239.67221 30.890732 2.3418409e-038
-1.304799 239.38771 30.854063 2.3509886e-038
-1.2311493 239.40414 30.85618 2.3509886e-038
-78.692276 257.40598 28.280455 2.3509528e-038
-74.033348 254.6246 27.974874 2.3509528e-038
-68.859337 253.40659 27.841053 2.3509528e-038
-64.238182 254.19289 27.927441 2.3509886e-038
-60.572479 257.85364 28.329638 2.3509886e-038
-42.471619 263.46777 28.946445 2.3418052e-038
-41.296684 262.01337 28.786657 2.3418052e-038
-35.730598 257.81039 28.324884 2.3418409e-038
-30.635437 256.20847 28.14889 2.3418409e-038
-25.841307 256.99432 28.235229 2.3418409e-038
-25.387873 257.10031 28.246872 2.3418409e-038
-16.451223 251.62131 27.644911 2.3418409e-038
-15.665688 250.60532 27.533285 2.3418409e-038
-10.650957 244.89943 26.906397 2.3418409e-038
-5.9193735 241.89449 26.57625 2.3509886e-038
-1.3166196 241.55643 26.53911 2.3509886e-038
-1.2491008 241.57158 26.540775 2.3509886e-038
-77.61705 258.71674 23.503595 2.3509528e-038
-74.66011 256.78024 23.327673 2.3509528e-038
-69.18325 254.59862 23.129478 2.3509528e-038
-64.502533 255.23892 23.187649 2.3509528e-038
-60.544098 259.07425 23.536076 2.3509886e-038
-59.413784 262.67987 23.863636 2.3509886e-038
-42.949657 266.09149 24.173571 2.3418052e-038
-41.643379 264.21304 24.00292 2.3418052e-038
-35.903263 259.05624 23.534439 2.3509886e-038
-30.685549 256.62759 23.313805 2.3418409e-038
-25.848776 257.06863 23.353872 2.3418409e-038
-25.346092 257.20358 23.366131 2.3418409e-038
-17.2843 253.76392 23.053648 2.3509886e-038
-15.748075 251.92326 22.886431 2.3509886e-038
-10.732251 246.76865 22.41815 2.3509886e-038
-5.9869227 244.65488 22.226122 2.3509886e-038
-1.3376147 245.40829 22.294567 2.3509886e-038
-1.3072252 245.42442 22.296032 2.3509886e-038
34.221405 231.08022 20.992907 9.1476764e-041
37.575325 226.72336 20.597099 9.1476764e-041
38.921627 225.62421 20.497246 9.1476764e-041
-76.789375 261.00613 18.747171 2.3509528e-038
-75.570496 259.91135 18.668537 2.3509528e-038
-69.561638 255.9911 18.386959 2.3509528e-038
-64.651268 255.82748 18.375206 2.3509528e-038
-60.290699 257.9899 18.530527 2.3509886e-038
-56.969604 263.2294 18.906862 2.3509886e-038
-43.400875 266.92929 19.172613 2.3509886e-038
-41.733635 264.78568 19.018642 2.3509886e-038
-36.008675 259.81683 18.661747 2.3509886e-038
-30.71125 256.84253 18.448114 2.3509886e-038
-25.821171 256.7941 18.444635 2.3509886e-038
-25.036108 257.00046 18.459455 2.3509886e-038
-18.391388 255.77202 18.371223 2.3509886e-038
-15.827769 253.19815 18.186352 2.3509886e-038
-10.818659 248.75543 17.867245 2.3509886e-038
-6.0584435 247.57755 17.782642 2.3509886e-038
-1.4860306 249.99042 17.955952 2.3509886e-038
29.556082 237.12331 17.03175 9.1476764e-041
30.208048 236.57071 16.992058 9.1476764e-041
34.102661 232.4467 16.695847 9.1476764e-041
37.849422 228.3772 16.403547 9.1476764e-041
39.935375 226.98943 16.303869 9.1476764e-041
-75.88427 263.96613 13.939065 2.3509528e-038
-70.307678 258.73657 13.662913 2.3509528e-038
-64.94236 256.97934 13.57012 2.3509528e-038
-60.175037 257.495 13.597349 2.3509886e-038
-55.664619 259.29871 13.692597 2.3509886e-038
-53.184292 262.52402 13.862912 2.3509886e-038
-44.68446 265.66284 14.028663 2.3509886e-038
-41.533478 263.51578 13.915283 2.3509886e-038
-36.064854 260.22217 13.741361 2.3509886e-038
-30.84034 257.92212 13.619904 2.3509886e-038
-25.900057 257.57861 13.601765 2.3509886e-038
-23.424648 257.88715 13.618057 2.3509886e-038
-21.204054 257.8374 13.615431 2.3509886e-038
-21.019352 257.80582 13.613763 2.3509886e-038
-15.928574 254.81075 13.455605 2.3509886e-038
-10.92824 251.27505 13.268897 2.3509886e-038
-6.1323743 250.59872 13.233183 2.3509886e-038
-1.9661523 253.5789 13.390555 2.3509886e-038
25.671587 238.45926 12.592143 9.1476764e-041
25.898024 238.31552 12.584553 9.1476764e-041
30.178701 236.34091 12.480281 9.1476764e-041
34.400486 234.47672 12.38184 9.1476764e-041
38.554478 232.63138 12.284394 9.1476764e-041
39.338501 232.27248 12.265442 9.1476764e-041
-74.356827 265.55475 8.9720268 2.3509528e-038
-71.264954 262.2594 8.8606892 2.3509528e-038
-65.375328 258.69263 8.7401829 2.3509528e-038
-60.254177 257.83362 8.7111607 2.3509886e-038
-55.409206 258.10895 8.7204628 2.3509886e-038
-50.881977 260.06177 8.7864408 2.3509886e-038
-46.341347 262.35928 8.8640652 2.3509886e-038
-41.344978 262.31979 8.862731 2.3509886e-038
-36.190964 261.13211 8.8226042 2.3509886e-038
-31.088533 259.99777 8.7842789 2.3509886e-038
-26.047132 259.04132 8.7519636 2.3509886e-038
-21.075491 258.49438 8.7334852 2.3509886e-038
-16.045797 256.68597 8.6723862 2.3509886e-038
-11.051687 254.11353 8.5854731 2.3509886e-038
-6.2053165 253.5795 8.5674314 2.3509886e-038
-2.4852705 256.59769 8.6694031 2.3509886e-038
21.72785 241.06671 8.1446743 9.1476764e-041
25.874414 238.09827 8.0443821 9.1476764e-041
30.236109 236.79048 8.0001974 9.1476764e-041
34.718838 236.64664 7.995338 9.1476764e-041
37.596931 237.47536 8.0233364 9.1476764e-041
-72.621643 266.02567 3.9280522 2.3509886e-038
-72.151878 265.52335 3.9206352 2.3509886e-038
-65.910973 260.81219 3.8510716 2.3509886e-038
-60.542072 259.06558 3.8252819 2.3509886e-038
-55.61285 259.05756 3.8251631 2.3509886e-038
-50.880356 260.0535 3.8398688 2.3509886e-038
-46.165371 261.36301 3.8592048 2.3509886e-038
-41.28857 261.96191 3.8680482 2.3509886e-038
-36.319004 262.05597 3.869437 2.3509886e-038
-31.282722 261.62183 3.8630266 2.3509886e-038
-26.184711 260.40955 3.8451262 2.3509886e-038
-21.157387 259.49887 3.8316796 2.3509886e-038
-16.158091 258.48233 3.8166697 2.3509886e-038
-11.153395 256.45209 3.7866917 2.3509886e-038
-6.2546816 255.59679 3.7740626 2.3509886e-038
-2.2621932 258.67191 3.819469 2.3509886e-038
17.30578 245.74611 3.6286106 9.1476764e-041
17.353354 245.6918 3.6278088 9.1476764e-041
21.66835 241.69695 3.5688219 9.1476764e-041
26.010479 239.35034 3.534173 9.1476764e-041
30.475212 238.66299 3.5240235 9.1476764e-041
34.734886 239.47429 3.5360026 9.1476764e-041
-71.902161 268.15579 -1.140895 2.3509886e-038
-66.539742 263.30026 -1.1202369 2.3509886e-038
-60.879406 260.50903 -1.1083612 2.3509886e-038
-55.838463 260.10849 -1.1066571 2.3509886e-038
-51.020367 260.76907 -1.1094676 2.3509886e-038
-46.21529 261.64563 -1.113197 2.3509886e-038
-41.306801 262.07758 -1.1150348 2.3509886e-038
-36.350967 262.28659 -1.1159241 2.3509886e-038
-31.344242 262.13635 -1.1152848 2.3509886e-038
-26.275736 261.31479 -1.1117893 2.3509886e-038
-21.243919 260.56018 -1.1085789 2.3509886e-038
-16.223446 259.52783 -1.1041867 2.3509886e-038
-11.200221 257.52878 -1.0956814 2.3509886e-038
-6.2699127 256.21921 -1.0901098 2.3509886e-038
-1.4031737 257.43622 -1.0952876 2.3509886e-038
0.30196235 258.0498 -1.0978982 2.3509886e-038
11.226975 252.61563 -1.0747781 9.1476764e-041
12.959952 251.11195 -1.0683805 9.1476764e-041
17.450552 247.06795 -1.0511749 9.1476764e-041
21.853331 243.7603 -1.0371022 9.1476764e-041
26.300571 242.01981 -1.0296971 9.1476764e-041
30.962193 242.47673 -1.031641 9.1476764e-041
31.688251 242.80281 -1.0330284 9.1476764e-041
-72.087288 271.81607 -6.326488 2.3509886e-038
-67.236084 266.05569 -6.1924162 2.3509886e-038
-61.170918 261.75644 -6.0923514 2.3509886e-038
-56.001118 260.86618 -6.071631 2.3509886e-038
-51.157372 261.4693 -6.0856681 2.3509886e-038
-46.329906 262.29453 -6.1048756 2.3509886e-038
-41.403008 262.68799 -6.1140327 2.3509886e-038
-36.426826 262.83395 -6.1174302 2.3509886e-038
-31.401064 262.61154 -6.1122532 2.3509886e-038
-26.366045 262.21292 -6.1029758 2.3509886e-038
-21.348116 261.83817 -6.0942531 2.3509886e-038
-16.29273 260.63617 -6.066277 2.3509886e-038
-11.25051 258.68509 -6.0208659 2.3509886e-038
-6.2977815 257.35806 -5.9899793 2.3509886e-038
-1.4009808 257.03391 -5.9824347 2.3509886e-038
3.4799948 256.4523 -5.9688978 2.3509886e-038
8.3176003 255.21935 -5.9402008 9.1476764e-041
13.054303 252.94009 -5.8871517 9.1476764e-041
17.637836 249.71953 -5.8121934 9.1476764e-041
22.134222 246.89345 -5.7464166 9.1476764e-041
26.654068 245.27269 -5.708694 9.1476764e-041
28.239737 245.30681 -5.7094879 9.1476764e-041
-71.890556 273.16592 -11.553599 2.3509886e-038
-67.673111 267.78503 -11.326015 2.3509886e-038
-61.437927 262.89902 -11.119359 2.3509886e-038
-56.21632 261.86865 -11.07578 2.3509886e-038
-51.329899 262.35114 -11.096186 2.3509886e-038
-46.441959 262.92889 -11.120623 2.3509886e-038
-41.496033 263.2782 -11.135397 2.3509886e-038
-36.512787 263.45419 -11.14284 2.3509886e-038
-31.487427 263.3338 -11.137748 2.3509886e-038
-26.477425 263.32059 -11.13719 2.3509886e-038
-21.459099 263.1994 -11.132063 2.3509886e-038
-16.384377 262.10223 -11.08566 2.3509886e-038
-11.336699 260.66684 -11.024949 2.3509886e-038
-6.3551235 259.70135 -10.984114 2.3509886e-038
-1.4113396 258.93442 -10.951675 2.3509886e-038
3.5011067 258.00809 -10.912497 9.1476764e-041
8.3796873 257.12445 -10.875124 9.1476764e-041
13.191628 255.60091 -10.810684 9.1476764e-041
17.88199 253.17633 -10.708137 9.1476764e-041
22.504889 251.028 -10.617273 9.1476764e-041
24.811121 250.54666 -10.596914 9.1476764e-041
-71.070595 270.98755 -16.615717 2.3509886e-038
-67.51767 267.16995 -16.381639 2.3509886e-038
-61.542412 263.3461 -16.147177 2.3509886e-038
-56.414074 262.78986 -16.113071 2.3509886e-038
-51.487686 263.15756 -16.135618 2.3509886e-038
-46.536777 263.4657 -16.15451 2.3509886e-038
-41.555618 263.65622 -16.166193 2.3509886e-038
-36.566292 263.84027 -16.177477 2.3509886e-038
-31.56748 264.0033 -16.187473 2.3509886e-038
-26.559002 264.1319 -16.19536 2.3509886e-038
-21.522549 263.97763 -16.1859 2.3509886e-038
-16.450823 263.16516 -16.136084 2.3509886e-038
-11.414168 262.44809 -16.092115 2.3509886e-038
-6.4097214 261.9325 -16.060501 2.3509886e-038
-1.423581 261.1803 -16.014381 2.3509886e-038
3.5274022 259.94589 -15.938694 9.1476764e-041
8.4341259 258.79486 -15.868118 9.1476764e-041
13.320659 258.10098 -15.825571 9.1476764e-041
18.170771 257.26492 -15.774308 9.1476764e-041
21.571602 257.06808 -15.762239 9.1476764e-041
-120.43369 244.73788 -19.661201 3.5733111e-043
-116.66841 242.57518 -19.487459 3.5733111e-043
-111.72707 241.86623 -19.430506 3.5733111e-043
-108.1823 244.24953 -19.621967 3.5733111e-043
-105.10651 247.953 -19.919491 3.5733111e-043
-104.02557 249.1925 -20.019068 3.5733111e-043
-71.04641 269.74115 -21.669857 2.3509886e-038
-67.196861 265.90048 -21.361315 2.3509886e-038
-61.416 262.80521 -21.112652 2.3509886e-038
-56.416615 262.80167 -21.11237 2.3509886e-038
-51.529289 263.37021 -21.158043 2.3509886e-038
-46.596718 263.80505 -21.192978 2.3509886e-038
-41.607704 263.98669 -21.207571 2.3509886e-038
-36.641376 264.38205 -21.239328 2.3509886e-038
-31.682291 264.96347 -21.286041 2.3509886e-038
-26.654552 265.08215 -21.295574 2.3509886e-038
-21.592567 264.8364 -21.275831 2.3509886e-038
-16.516636 264.21802 -21.226151 2.3509886e-038
-11.472493 263.78918 -21.191702 2.3509886e-038
-6.4469686 263.45459 -21.164822 2.3509886e-038
-1.4330024 262.90878 -21.120975 2.3509886e-038
3.5527055 261.81058 -21.032749 2.3509886e-038
8.4902658 260.51749 -20.928867 9.1476764e-041
13.449228 260.59216 -20.934866 9.1476764e-041
18.544231 262.55243 -21.092348 9.1476764e-041
19.011606 262.90085 -21.120338 9.1476764e-041
-118.9575 242.13239 -24.057322 3.5733111e-043
-115.88607 240.94855 -23.939701 3.5733111e-043
-111.21951 240.76747 -23.921709 3.5733111e-043
-107.56889 242.86456 -24.130068 3.5733111e-043
-104.40302 246.29343 -24.470747 3.5733111e-043
-101.35957 250.34682 -24.873474 3.5733111e-043
-99.355507 255.31512 -25.367107 3.5733111e-043
-72.676697 271.23633 -26.948975 2.3509886e-038
-67.101395 265.52274 -26.381296 2.3509886e-038
-61.346676 262.50854 -26.081818 2.3509886e-038
-56.301983 262.26767 -26.057886 2.3509886e-038
-51.45026 262.96631 -26.127298 2.3509886e-038
-46.630905 263.9986 -26.229864 2.3509886e-038
-41.716484 264.67688 -26.297255 2.3509886e-038
-36.7649 265.27332 -26.356512 2.3509886e-038
-31.796318 265.91708 -26.420477 2.3509886e-038
-26.75079 266.03925 -26.432615 2.3509886e-038
-21.680429 265.91406 -26.420176 2.3509886e-038
-16.603569 265.6087 -26.389837 2.3509886e-038
-11.535488 265.23764 -26.352968 2.3509886e-038
-6.4794464 264.78177 -26.307676 2.3509886e-038
-1.4408708 264.35242 -26.265017 2.3509886e-038
3.576833 263.58859 -26.189129 2.3509886e-038
8.5547361 262.4957 -26.080542 9.1476764e-041
13.571379 262.95895 -26.126568 9.1476764e-041
17.12422 265.38815 -26.367926 9.1476764e-041
-115.2011 240.53407 -28.473537 3.5733111e-043
-111.40825 241.17604 -28.549534 3.5733111e-043
-107.45962 242.61787 -28.720211 3.5733111e-043
-103.99438 245.32941 -29.041193 3.5733111e-043
-101.07186 249.6362 -29.551016 3.5733111e-043
-98.292519 254.73866 -30.155025 3.5733111e-043
-94.804512 258.43839 -30.592985 3.5733111e-043
-94.100899 258.83554 -30.640001 3.5733111e-043
-75.832436 272.59085 -32.268299 3.5733111e-043
-73.492622 270.45737 -32.015747 3.5733111e-043
-67.125847 265.61951 -31.443064 3.5733111e-043
-61.531391 263.29895 -31.168362 2.3509886e-038
-56.401779 262.73257 -31.101315 2.3509886e-038
-51.491478 263.17694 -31.153919 2.3509886e-038
-46.694077 264.35626 -31.293522 2.3509886e-038
-41.829296 265.39264 -31.416204 2.3509886e-038
-36.874924 266.06714 -31.496052 2.3509886e-038
-31.894043 266.73441 -31.575035 2.3509886e-038
-26.849163 267.01758 -31.608559 2.3509886e-038
-21.763626 266.93448 -31.598721 2.3509886e-038
-16.684425 266.90219 -31.594898 2.3509886e-038
-11.606338 266.8667 -31.590696 2.3509886e-038
-6.521071 266.48276 -31.545252 2.3509886e-038
-1.4501106 266.04761 -31.493734 2.3509886e-038
3.5993347 265.24683 -31.398945 2.3509886e-038
8.6051521 264.04266 -31.256399 2.3509886e-038
13.648628 264.45575 -31.305298 2.3509886e-038
15.956689 265.90683 -31.477076 2.3509886e-038
-111.86836 244.15807 -33.546482 3.5733111e-043
-108.52803 245.03009 -33.666294 3.5733111e-043
-104.62002 246.80533 -33.910206 3.5733111e-043
-101.13158 249.78371 -34.319427 3.5733111e-043
-97.651596 253.07759 -34.771996 3.5733111e-043
-93.741394 255.54031 -35.110363 3.5733111e-043
-89.596581 257.59781 -35.393055 3.5733111e-043
-85.683884 260.59933 -35.805458 3.5733111e-043
-85.57058 260.71994 -35.822029 3.5733111e-043
-81.211113 266.53928 -36.621582 3.5733111e-043
-77.911865 267.96408 -36.817348 3.5733111e-043
-72.536758 266.93973 -36.676605 3.5733111e-043
-67.004364 265.13876 -36.429161 3.5733111e-043
-61.710457 264.06522 -36.281658 3.5733111e-043
-56.622631 263.76135 -36.239902 2.3509886e-038
-51.682762 264.15463 -36.293941 2.3509886e-038
-46.820137 265.06995 -36.419701 2.3509886e-038
-41.909084 265.89886 -36.533592 2.3509886e-038
-36.952553 266.62729 -36.633675 2.3509886e-038
-31.978849 267.44363 -36.745838 2.3509886e-038
-26.948586 268.00635 -36.823154 2.3509886e-038
-21.842508 267.90195 -36.808811 2.3509886e-038
-16.741848 267.82074 -36.797653 2.3509886e-038
-11.659256 268.08347 -36.833748 2.3509886e-038
-6.5534506 267.80597 -36.795624 2.3509886e-038
-1.4560252 267.13275 -36.703125 2.3509886e-038
3.607563 265.85321 -36.527317 2.3509886e-038
8.6150808 264.34735 -36.320419 2.3509886e-038
13.670743 264.88425 -36.394188 2.3509886e-038
15.384083 265.94193 -36.539509 2.3509886e-038
-109.60546 251.76633 -39.380505 3.5733111e-043
-106.89011 252.16064 -39.442184 3.5733111e-043
-102.23615 252.51186 -39.497124 3.5733111e-043
-97.697739 253.19719 -39.604317 3.5733111e-043
-93.361885 254.50575 -39.808998 3.5733111e-043
-89.310928 256.77655 -40.164188 3.5733111e-043
-85.376442 259.66431 -40.615883 3.5733111e-043
-81.22419 262.20367 -41.013081 3.5733111e-043
-76.705482 263.81494 -41.265114 3.5733111e-043
-71.867714 264.47757 -41.368759 3.5733111e-043
-66.829567 264.44711 -41.363995 3.5733111e-043
-61.772652 264.33133 -41.345886 3.5733111e-043
-56.762756 264.41406 -41.358829 2.3509886e-038
-51.840336 264.95999 -41.444221 2.3509886e-038
-46.929844 265.69104 -41.558567 2.3509886e-038
-41.970196 266.28662 -41.651726 2.3509886e-038
-37.035797 267.22791 -41.798962 2.3509886e-038
-32.07626 268.25827 -41.960125 2.3509886e-038
-27.056456 269.07913 -42.08852 2.3509886e-038
-21.953098 269.25839 -42.116562 2.3509886e-038
-16.80858 268.88828 -42.058666 2.3509886e-038
-11.69356 268.87219 -42.056156 2.3509886e-038
-6.5717325 268.55304 -42.006233 2.3509886e-038
-1.4585699 267.59961 -41.857101 2.3509886e-038
3.6100886 266.03931 -41.613041 2.3509886e-038
8.6231298 264.5943 -41.387016 2.3509886e-038
13.690886 265.27454 -41.493416 2.3509886e-038
15.053537 266.04483 -41.613907 2.3509886e-038
-105.72179 259.12714 -45.460548 2.3509886e-038
-104.7925 258.82574 -45.407673 2.3509886e-038
-99.282555 257.30447 -45.140781 3.5733111e-043
-94.071182 256.4393 -44.989002 3.5733111e-043
-89.411789 257.06653 -45.099037 3.5733111e-043
-85.143936 258.95715 -45.430725 3.5733111e-043
-80.684372 260.46106 -45.694569 3.5733111e-043
-76.027542 261.48328 -45.873901 3.5733111e-043
-71.345299 262.55508 -46.061935 3.5733111e-043
-66.554237 263.35764 -46.202736 3.5733111e-043
-61.654648 263.82635 -46.284966 3.5733111e-043
-56.695717 264.10181 -46.333286 2.3509886e-038
-51.77504 264.62625 -46.425297 2.3509886e-038
-46.87722 265.3931 -46.55983 2.3509886e-038
-41.995968 266.4501 -46.745266 2.3509886e-038
-37.145931 268.02258 -47.021141 2.3509886e-038
-32.225948 269.51016 -47.282116 2.3509886e-038
-27.208467 270.59091 -47.471718 2.3509886e-038
-22.090933 270.94894 -47.534534 2.3509886e-038
-16.896217 270.29022 -47.418968 2.3509886e-038
-11.729872 269.70715 -47.316673 2.3509886e-038
-6.5884929 269.23798 -47.234364 2.3509886e-038
-1.4615993 268.15543 -47.044445 2.3509886e-038
3.6196296 266.74243 -46.796555 2.3509886e-038
8.6620855 265.78967 -46.629398 2.3509886e-038
13.770334 266.8139 -46.809093 2.3509886e-038
14.590921 267.25214 -46.885975 2.3509886e-038
-100.41391 264.55093 -51.443905 2.3509886e-038
-96.095818 261.95847 -50.939785 2.3509886e-038
-90.251251 259.48007 -50.457836 3.5733111e-043
-85.128052 258.90884 -50.34676 3.5733111e-043
-80.273407 259.1344 -50.390625 3.5733111e-043
-75.502647 259.67801 -50.49633 3.5733111e-043
-70.85704 260.75824 -50.70639 3.5733111e-043
-66.155594 261.78018 -50.905113 3.5733111e-043
-61.346298 262.50693 -51.046436 2.3509886e-038
-56.465103 263.02756 -51.147675 2.3509886e-038
-51.592999 263.69583 -51.277626 2.3509886e-038
-46.731762 264.56961 -51.447536 2.3509886e-038
-41.947708 266.14392 -51.753674 2.3509886e-038
-37.205063 268.44925 -52.201962 2.3509886e-038
-32.35881 270.62131 -52.624332 2.3509886e-038
-27.345133 271.95004 -52.882717 2.3509886e-038
-22.20117 272.30103 -52.950966 2.3509886e-038
-16.982307 271.66739 -52.827755 2.3509886e-038
-11.77301 270.69904 -52.639446 2.3509886e-038
-6.6014657 269.7681 -52.45842 2.3509886e-038
-1.4638013 268.55939 -52.223381 2.3509886e-038
3.6321945 267.6684 -52.050121 2.3509886e-038
8.7230406 267.65997 -52.048477 2.3509886e-038
13.922067 269.75388 -52.455658 2.3509886e-038
13.969154 269.78903 -52.462498 2.3509886e-038
-95.820633 267.92352 -57.195709 2.3509886e-038
-92.229111 265.1666 -56.607162 2.3509886e-038
-85.795677 260.93936 -55.704742 2.3509886e-038
-80.141106 258.70731 -55.228252 3.5733111e-043
-75.13887 258.42685 -55.168377 3.5733111e-043
-70.481026 259.37451 -55.370682 2.3509886e-038
-65.793007 260.3454 -55.577946 2.3509886e-038
-61.005108 261.04694 -55.727711 2.3509886e-038
-56.179848 261.69876 -55.866856 2.3509886e-038
-51.380642 262.61047 -56.061489 2.3509886e-038
-46.592308 263.78009 -56.311176 2.3509886e-038
-41.87812 265.70239 -56.721546 2.3509886e-038
-37.196102 268.38461 -57.294136 2.3509886e-038
-32.40918 271.04254 -57.861549 2.3509886e-038
-27.417816 272.67288 -58.209591 2.3509886e-038
-22.27549 273.21259 -58.324802 2.3509886e-038
-17.050625 272.76028 -58.228245 2.3509886e-038
-11.815845 271.68396 -57.998474 2.3509886e-038
-6.6177473 270.43341 -57.731514 2.3509886e-038
-1.4678072 269.29434 -57.48835 2.3509886e-038
3.6531637 269.21368 -57.471127 2.3509886e-038
8.8168402 270.53815 -57.753872 2.3509886e-038
13.260759 273.20258 -58.322666 2.3509886e-038
-91.659729 271.04608 -63.017681 2.3509886e-038
-87.920219 267.40094 -62.1702 2.3509886e-038
-81.00045 261.48141 -60.793919 2.3509886e-038
-75.255707 258.8287 -60.177166 2.3509886e-038
-70.340355 258.85684 -60.183708 2.3509886e-038
-65.544037 259.36023 -60.300747 2.3509886e-038
-60.725792 259.85172 -60.41502 2.3509886e-038
-55.928188 260.52649 -60.571899 2.3509886e-038
-51.168545 261.52643 -60.804386 2.3509886e-038
-46.483025 263.16138 -61.184509 2.3509886e-038
-41.877651 265.6994 -61.774597 2.3509886e-038
-37.232819 268.64951 -62.460491 2.3509886e-038
-32.46365 271.49808 -63.122772 2.3509886e-038
-27.49263 273.4169 -63.568897 2.3509886e-038
-22.353167 274.16528 -63.742889 2.3509886e-038
-17.106544 273.65482 -63.62421 2.3509886e-038
-11.853693 272.5542 -63.36832 2.3509886e-038
-6.6412492 271.39383 -63.098534 2.3509886e-038
-1.4747586 270.5697 -62.906929 2.3509886e-038
3.6874914 271.74338 -63.179806 2.3509886e-038
8.9900818 275.85397 -64.135506 2.3509886e-038
12.72481 280.50143 -65.216034 2.3509886e-038
-87.26754 274.92041 -69.147537 2.3509886e-038
-83.748024 270.35098 -67.998238 2.3509886e-038
-76.33149 262.52866 -66.030777 2.3509886e-038
-70.579018 259.73511 -65.328148 2.3509886e-038
-65.52758 259.2951 -65.217484 2.3509886e-038
-60.694012 259.71573 -65.32328 2.3509886e-038
-55.883133 260.31659 -65.474396 2.3509886e-038
-51.12434 261.30051 -65.721878 2.3509886e-038
-46.497055 263.24081 -66.2099 2.3509886e-038
-41.948788 266.15079 -66.941803 2.3509886e-038
-37.31192 269.22028 -67.713844 2.3509886e-038
-32.5322 272.07138 -68.430954 2.3509886e-038
-27.566126 274.14783 -68.953217 2.3509886e-038
-22.419962 274.98453 -69.163666 2.3509886e-038
-17.155663 274.44058 -69.026848 2.3509886e-038
-11.89414 273.48419 -68.786301 2.3509886e-038
-6.6746993 272.76077 -68.60434 2.3509886e-038
-1.4853936 272.52087 -68.544006 2.3509886e-038
3.7348223 275.23135 -69.225746 2.3509886e-038
9.2291327 283.18906 -71.227249 2.3509886e-038
12.099141 289.34503 -72.775589 2.3509886e-038
-80.552391 272.52802 -73.729355 2.3509886e-038
-78.544609 270.14029 -73.083389 2.3509886e-038
-71.747505 264.03522 -71.431725 2.3509886e-038
-66.097321 261.54956 -70.759262 2.3509886e-038
-61.055389 261.26208 -70.681488 2.3509886e-038
-56.15876 261.60052 -70.773048 2.3509886e-038
-51.357742 262.49344 -71.01461 2.3509886e-038
-46.680935 264.28183 -71.498444 2.3509886e-038
-42.061249 266.86429 -72.197105 2.3509886e-038
-37.365753 269.60867 -72.93956 2.3509886e-038
-32.569977 272.38733 -73.691292 2.3509886e-038
-27.643465 274.91696 -74.375656 2.3509886e-038
-22.506289 276.04337 -74.680389 2.3509886e-038
-17.238646 275.76804 -74.605904 2.3509886e-038
-11.969198 275.21002 -74.454941 2.3509886e-038
-6.7296886 275.0079 -74.400261 2.3509886e-038
-1.5031096 275.77118 -74.60675 2.3509886e-038
3.8067663 280.53317 -75.895058 2.3509886e-038
9.5440664 292.85254 -79.227921 2.3509886e-038
10.937207 296.80756 -80.297913 2.3509886e-038
-74.084335 273.00891 -79.052155 2.3509886e-038
-67.644485 267.67175 -77.506737 2.3509886e-038
-61.972557 265.18677 -76.787178 2.3509886e-038
-56.788002 264.53168 -76.597496 2.3509886e-038
-51.843166 264.97449 -76.725716 2.3509886e-038
-47.00629 266.12384 -77.058525 2.3509886e-038
-42.265873 268.16257 -77.648857 2.3509886e-038
-37.513081 270.67172 -78.375404 2.3509886e-038
-32.699314 273.46896 -79.185371 2.3509886e-038
-27.804485 276.51834 -80.068344 2.3509886e-038
-22.67853 278.15591 -80.542519 2.3509886e-038
-17.396008 278.28537 -80.580002 2.3509886e-038
-12.10014 278.22076 -80.561295 2.3509886e-038
-6.8207302 278.7283 -80.70826 2.3509886e-038
-1.5319633 281.06491 -81.384834 2.3509886e-038
3.9140251 288.43744 -83.519623 2.3509886e-038
8.810565 301.12091 -87.192238 2.3509886e-038
-67.095406 276.48419 -85.317268 2.3509886e-038
-64.045174 274.05569 -84.567886 2.3509886e-038
-58.042953 270.37753 -83.432892 2.3509886e-038
-52.687408 269.28946 -83.09713 2.3509886e-038
-47.632996 269.67188 -83.215141 2.3509886e-038
-42.737011 271.15179 -83.671799 2.3509886e-038
-37.918102 273.59412 -84.425453 2.3509886e-038
-33.06918 276.56223 -85.341347 2.3509886e-038
-28.158468 280.03876 -86.414139 2.3509886e-038
-23.055258 282.77652 -87.258957 2.3509886e-038
-17.739056 283.77316 -87.566498 2.3509886e-038
-12.370723 284.44232 -87.772987 2.3509886e-038
-7.0043707 286.23276 -88.325478 2.3509886e-038
-1.5867491 291.11627 -89.832428 2.3509886e-038
4.0877404 301.23907 -92.956108 2.3509886e-038
5.2600508 303.84546 -93.760391 2.3509886e-038
-56.302101 277.7579 -90.993362 2.3509886e-038
-54.263203 277.34348 -90.857597 2.3509886e-038
-49.034515 277.60654 -90.943779 2.3509886e-038
-43.911392 278.60284 -91.270157 2.3509886e-038
-38.80941 280.02524 -91.736137 2.3509886e-038
-33.77734 282.48468 -92.541847 2.3509886e-038
-28.839224 286.8089 -93.958458 2.3509886e-038
-23.728964 291.03964 -95.344444 2.3509886e-038
-18.335293 293.31122 -96.088608 2.3509886e-038
-12.862473 295.74924 -96.887314 2.3509886e-038
-7.3523297 300.45206 -98.427948 2.3509886e-038
-1.6825417 308.69104 -101.12704 2.3509886e-038
-1.5629721 308.90628 -101.19756 2.3509886e-038
-117.10964 243.49257 -16.846409 3.5733111e-043
-115.62878 240.41359 -27.872784 3.5733111e-043
-112.20038 242.89085 -16.061569 3.5733111e-043
-112.40951 243.34358 -32.672459 3.5733111e-043
-108.54707 245.07307 -16.972683 3.5733111e-043
-110.19085 248.78432 -37.375156 3.5733111e-043
-105.26981 248.33823 -19.07518 3.5733111e-043
-108.39211 255.70392 -42.1735 3.5733111e-043
-101.53999 250.79242 -22.095478 3.5733111e-043
-105.1879 259.80234 -46.092983 2.3509886e-038
-98.942482 256.42313 -26.107937 3.5733111e-043
-101.72847 263.64337 -50.084591 2.3509886e-038
-95.009033 258.99591 -30.042255 3.5733111e-043
-97.69236 266.3107 -54.569275 2.3509886e-038
-89.837273 258.28986 -33.244473 3.5733111e-043
-93.789551 269.65295 -60.170921 2.3509886e-038
-81.809006 248.81429 66.825462 2.3509528e-038
-84.039436 255.59792 46.021637 2.3509528e-038
-85.689316 260.61584 -35.757103 3.5733111e-043
-89.732002 272.91132 -65.83754 2.3509886e-038
-76.719917 247.66322 64.390671 2.3509528e-038
-79.54052 256.76855 31.493797 2.3509528e-038
-82.115601 265.0813 -36.701908 3.5733111e-043
-85.121536 274.78488 -70.97435 2.3509886e-038
-72.428703 249.10571 57.634171 2.3509528e-038
-76.351166 262.59634 16.206148 2.3509528e-038
-78.598022 270.32401 -35.345356 3.5733111e-043
-79.125229 272.13724 -74.702553 2.3509886e-038
-68.486992 252.03633 48.030716 2.3509886e-038
-72.344856 266.23349 2.9140337 2.3509886e-038
-73.982719 272.26096 -29.435766 3.5733111e-043
-74.180161 272.98755 -78.97216 2.3509886e-038
-63.900867 252.85814 37.720192 2.3509886e-038
-69.388992 274.57486 -83.026344 2.3509886e-038
-60.428604 258.58002 27.719969 2.3509886e-038
-64.888443 277.66409 -87.102043 2.3509886e-038
-56.490555 263.14609 18.150749 2.3509886e-038
-59.520466 277.26013 -89.514938 2.3509886e-038
-51.365719 262.53421 12.33009 2.3509886e-038
-54.548794 278.80313 -92.000893 2.3509886e-038
-46.648701 264.09937 11.529844 2.3509886e-038
-49.956844 282.82825 -94.886116 2.3509886e-038
-39.877834 253.01129 79.024155 2.3418052e-038
-45.175274 286.62173 -97.313309 2.3509886e-038
-34.665466 250.12505 83.598618 2.3418052e-038
-39.860916 287.61227 -98.394844 2.3509886e-038
-29.752089 248.82092 81.289055 2.3418052e-038
-34.545177 288.90619 -99.191978 2.3509886e-038
-25.609753 254.69151 45.354687 2.3418409e-038
-29.630346 294.67673 -101.2514 2.3509886e-038
-21.017353 257.78134 13.816238 2.3509886e-038
-24.496576 300.45456 -103.22276 2.3509886e-038
-15.537587 248.55609 32.101551 2.3418409e-038
-18.929258 302.81293 -103.86404 2.3509886e-038
-9.9186611 228.06161 57.614742 2.3418409e-038
-13.273215 305.19351 -104.10785 2.3509886e-038
-5.3634658 219.17738 59.576138 2.3418409e-038
-7.5493679 308.504 -103.81672 2.3509886e-038
-1.2006621 220.28201 57.190098 2.3418409e-038
-1.3465741 247.05206 20.806324 2.3509886e-038
-1.409966 258.6824 1.1919228 2.3509886e-038
-1.6840223 308.96271 -101.29392 2.3509886e-038
3.4829216 256.66797 -2.6889606 2.3509886e-038
4.1382151 304.95871 -95.331276 2.3509886e-038
8.2987175 254.63995 -2.37375 2.3509886e-038
9.7860794 300.27853 -84.719681 2.3509886e-038
12.951994 250.95776 0.02739512 9.1476764e-041
13.931554 269.93768 -52.769814 2.3509886e-038
17.353117 245.68845 3.674469 9.1476764e-041
18.616282 263.57254 -22.013275 9.1476764e-041
21.621017 241.16896 8.0263405 9.1476764e-041
22.840412 254.77058 -13.688085 9.1476764e-041
25.904589 238.37593 12.864413 9.1476764e-041
26.855293 247.12439 -7.6541972 9.1476764e-041
30.218561 236.65306 17.711042 9.1476764e-041
31.079716 243.39708 -1.9023544 9.1476764e-041
33.966331 231.51747 20.841362 9.1476764e-041
35.090965 239.18307 4.0733991 9.1476764e-041
37.559238 226.62627 21.529186 9.1476764e-041
38.906776 234.7571 10.797697 9.1476764e-041
