# .PCD v0.7 - Point Cloud Data file format
VERSION 0.7
FIELDS x y z rgb
SIZE 4 4 4 4
TYPE F F F F
COUNT 1 1 1 1
WIDTH 759
HEIGHT 1
VIEWPOINT 0 0 0 1 0 0 0
POINTS 759
DATA ascii
-138.44476 316.08133 -13.397881 2.3418052e-038
15.862266 306.18069 -7.2101212 9.1476764e-041
-50.083801 322.24677 63.743019 3.5733111e-043
-19.072758 311.51245 45.48119 2.3509528e-038
-101.51417 316.97354 58.221363 2.3418409e-038
-51.523453 319.66391 69.478966 3.5733111e-043
-50.927059 319.96826 69.545113 3.5733111e-043
-47.92519 321.92307 69.969986 3.5733111e-043
-104.27257 319.5704 64.475533 2.3418409e-038
-100.30978 318.34863 64.229034 2.3418409e-038
-99.159515 318.27643 64.21447 2.3418409e-038
-55.838192 319.43417 64.448044 3.5733111e-043
-55.822792 319.43283 64.447777 3.5733111e-043
-50.99773 320.41229 64.645386 3.5733111e-043
-46.441521 323.47708 65.263733 3.5733111e-043
-45.453053 324.6268 65.495689 3.5733111e-043
-106.11115 317.20233 59.051594 2.3418409e-038
-104.82032 316.9772 59.009678 2.3418409e-038
-99.874458 316.96707 59.007793 2.3418409e-038
-95.675835 317.84775 59.171749 2.3418409e-038
-57.566319 319.71967 59.520229 3.5733111e-043
-55.878685 319.75262 59.526363 3.5733111e-043
-51.128658 321.23489 59.802303 3.5733111e-043
-46.53656 324.13907 60.34296 3.5733111e-043
-45.573544 325.15961 60.532948 3.5733111e-043
-105.90898 315.27823 53.777214 2.3418409e-038
-104.22525 315.1777 53.760071 2.3418409e-038
-99.471809 315.68921 53.847317 2.3418409e-038
-94.873146 316.77072 54.031792 2.3418409e-038
-93.915894 317.2446 54.112617 2.3418409e-038
-58.496876 319.05185 54.420883 3.5733111e-043
-55.832466 319.48816 54.495304 3.5733111e-043
-51.159718 321.43002 54.82653 3.5733111e-043
-46.560154 324.30338 55.316643 3.5733111e-043
-46.187469 324.64282 55.374538 3.5733111e-043
-105.48106 315.02841 48.822323 2.3418409e-038
-104.11895 314.85626 48.795643 2.3418409e-038
-99.317757 315.20029 48.848965 2.3418409e-038
-94.847816 316.68616 49.079239 2.3418409e-038
-93.075912 318.20117 49.314034 2.3418409e-038
-59.254936 318.20078 49.313969 3.5733111e-043
-55.754978 319.04477 49.444767 3.5733111e-043
-51.062256 320.81769 49.719532 3.5733111e-043
-46.459934 322.90289 50.042694 3.5733111e-043
-23.36096 310.11426 48.060741 2.3509528e-038
-20.349878 310.19226 48.07283 2.3509528e-038
-15.54216 310.77493 48.163132 2.3509528e-038
-13.730624 311.40646 48.261005 2.3509528e-038
-105.22092 315.67517 44.000202 2.3418409e-038
-104.35314 315.56445 43.984768 2.3418409e-038
-99.757011 316.59433 44.128319 2.3418409e-038
-95.796524 319.85382 44.582638 2.3418409e-038
-93.593773 322.90353 45.007725 2.3418409e-038
-59.960602 317.41934 44.243313 3.5733111e-043
-55.641628 318.39615 44.379463 3.5733111e-043
-50.939651 320.04736 44.609619 3.5733111e-043
-46.6422 322.21475 44.911716 3.5733111e-043
-25.77392 311.38196 43.401794 2.3509528e-038
-25.28653 311.42123 43.407269 2.3509528e-038
-20.480255 312.17957 43.512966 2.3509528e-038
-15.683413 313.59933 43.710861 2.3509528e-038
-13.56387 315.01959 43.908825 2.3509528e-038
-105.45989 317.11127 39.255608 2.3418409e-038
-104.82668 316.99643 39.241394 2.3418409e-038
-100.41198 318.67297 39.44894 2.3418409e-038
-96.914642 323.58707 40.057259 2.3418409e-038
-94.234421 328.05591 40.610462 2.3418409e-038
-60.853657 316.81912 39.219448 3.5733111e-043
-60.31826 316.88229 39.227264 3.5733111e-043
-55.554169 317.89569 39.352715 3.5733111e-043
-50.881653 319.68298 39.573967 3.5733111e-043
-46.954086 322.5603 39.930153 3.5733111e-043
-27.921726 313.07217 38.755608 2.3509528e-038
-25.465254 313.62234 38.823711 2.3509528e-038
-20.680202 315.22736 39.0224 2.3509528e-038
-15.875895 317.44818 39.297318 2.3509528e-038
-14.829798 318.45157 39.421528 2.3509528e-038
-105.88848 318.82257 34.49601 2.3418409e-038
-105.35286 318.58762 34.470589 2.3418409e-038
-100.69241 319.56296 34.576122 2.3418409e-038
-97.238007 324.66675 35.128342 2.3418409e-038
-93.882637 330.6041 35.770752 2.3418409e-038
-62.088394 316.48743 34.243351 3.5733111e-043
-60.297142 316.77133 34.274071 3.5733111e-043
-55.552402 317.88556 34.394627 3.5733111e-043
-50.862125 319.5603 34.575832 3.5733111e-043
-47.413559 321.99646 34.839417 3.5733111e-043
-29.910442 314.6618 34.045822 2.3509528e-038
-25.621836 315.55078 34.142006 2.3509528e-038
-20.831669 317.53616 34.356827 2.3509528e-038
-16.507837 319.71683 34.59277 2.3509528e-038
-106.0363 320.21973 29.653961 2.3418409e-038
-105.84716 320.08237 29.641241 2.3418409e-038
-100.60975 319.30063 29.568848 2.3418409e-038
-96.827759 323.297 29.938931 2.3418409e-038
-93.375778 328.89462 30.457298 2.3418409e-038
-92.564285 330.45108 30.601435 2.3418409e-038
-63.444347 316.83643 29.340649 3.5733111e-043
-60.376453 317.18799 29.373207 3.5733111e-043
-55.612995 318.2323 29.469915 3.5733111e-043
-50.841248 319.42911 29.580744 3.5733111e-043
-47.971916 320.35339 29.666338 3.5733111e-043
-31.84301 315.37122 29.204964 2.3509528e-038
-30.496027 315.07297 29.177343 2.3509528e-038
-25.656925 315.98294 29.261614 2.3509528e-038
-20.875637 318.20636 29.467514 2.3509528e-038
-18.313646 319.52295 29.589436 2.3509528e-038
-105.59233 321.06903 24.726137 2.3418409e-038
-100.58912 319.23514 24.584906 2.3418409e-038
-96.247452 321.35941 24.748499 2.3418409e-038
-92.487602 325.76624 25.087877 2.3418409e-038
-90.656013 328.64359 25.309469 2.3418409e-038
-64.784904 318.23245 24.507687 3.5733111e-043
-60.485413 317.76041 24.471334 3.5733111e-043
-55.683617 318.63641 24.538797 3.5733111e-043
-50.885029 319.70416 24.621029 3.5733111e-043
-48.667309 319.69638 24.620426 3.5733111e-043
-33.909782 314.18826 24.196238 2.3509528e-038
-30.390993 313.98779 24.180798 2.3509528e-038
-25.639641 315.77005 24.318054 2.3509528e-038
-20.924421 318.94998 24.562946 2.3509528e-038
-20.037186 319.67838 24.619041 2.3509528e-038
-104.3519 320.42358 19.680019 2.3418409e-038
-100.39154 318.60809 19.568516 2.3418409e-038
-95.670891 319.43436 19.619263 2.3418409e-038
-91.869118 323.58774 19.874359 2.3418409e-038
-89.140282 328.62799 20.183926 2.3418409e-038
-66.354439 321.69492 19.758104 3.5733111e-043
-66.225861 321.57495 19.750736 3.5733111e-043
-60.654514 318.64877 19.571014 3.5733111e-043
-55.775322 319.16116 19.602486 3.5733111e-043
-50.993141 320.38342 19.677555 3.5733111e-043
-49.582367 320.22455 19.667797 2.3509886e-038
-36.045795 311.24432 19.116241 2.3509528e-038
-34.981888 311.27255 19.117975 2.3509528e-038
-30.226194 312.28516 19.180168 2.3509528e-038
-25.567312 314.87927 19.339497 2.3509528e-038
-21.330154 318.72809 19.575884 2.3509528e-038
-102.50826 318.23355 14.583263 2.3509886e-038
-99.958313 317.23322 14.537422 2.3509886e-038
-95.18409 317.80896 14.563807 2.3418409e-038
-91.352722 321.76889 14.745273 2.3418409e-038
-87.842224 327.38501 15.002635 2.3418409e-038
-87.465523 328.12759 15.036665 2.3418409e-038
-67.90065 325.21844 14.903351 3.5733111e-043
-66.690758 323.83237 14.839832 3.5733111e-043
-60.871544 319.78897 14.654541 3.5733111e-043
-55.872795 319.71893 14.651332 3.5733111e-043
-50.974613 320.26706 14.67645 2.3509886e-038
-50.53587 320.19183 14.673003 2.3509886e-038
-38.459354 310.40988 14.224739 2.3509528e-038
-34.84037 310.01334 14.206567 2.3509528e-038
-30.11459 311.13211 14.257835 2.3509528e-038
-25.463814 313.60461 14.37114 2.3509528e-038
-22.392231 316.48886 14.503312 2.3509528e-038
-101.05363 316.88675 9.580287 2.3509886e-038
-99.732185 316.51553 9.5690651 2.3509886e-038
-94.984596 317.14288 9.5880299 2.3509886e-038
-90.968979 320.41724 9.6870222 2.3418409e-038
-87.084015 324.55917 9.8122444 2.3418409e-038
-85.343178 326.60623 9.8741312 2.3418409e-038
-69.124306 325.96155 9.8546419 3.5733111e-043
-66.655449 323.66092 9.7850866 3.5733111e-043
-61.010109 320.51688 9.6900349 3.5733111e-043
-55.957031 320.20096 9.6804838 3.5733111e-043
-51.573242 320.03116 9.6753511 2.3509886e-038
-41.045612 312.89468 9.4595957 2.3509528e-038
-39.956848 312.22003 9.4392004 2.3509528e-038
-34.925964 310.77496 9.3955116 2.3509528e-038
-30.112223 311.10764 9.40557 2.3509528e-038
-25.385832 312.64426 9.4520254 2.3509528e-038
-23.615702 313.81177 9.4873228 2.3509528e-038
-100.51643 317.47272 4.6476064 2.3509886e-038
-99.984688 317.31693 4.6453252 2.3509886e-038
-95.111862 317.56781 4.6489978 2.3509886e-038
-90.845085 319.98083 4.6843233 2.3509886e-038
-86.704231 323.14374 4.7306266 2.3509886e-038
-82.586708 326.71573 4.7829185 2.3509886e-038
-70.959732 325.15884 4.7601261 2.3509886e-038
-66.403671 322.43835 4.7203002 3.5733111e-043
-61.022602 320.58255 4.6931319 2.3509886e-038
-55.966148 320.25314 4.6883101 2.3509886e-038
-52.454208 320.34335 4.6896305 2.3509886e-038
-43.704739 316.6312 4.6352868 2.3509528e-038
-40.234154 314.38687 4.6024313 2.3509528e-038
-35.147388 312.74518 4.5783982 2.3509528e-038
-30.26207 312.65579 4.5770898 2.3509528e-038
-25.478197 313.78177 4.5935731 2.3509528e-038
-25.442621 313.80075 4.5938511 2.3509528e-038
-100.8066 319.36591 -0.304584 2.3509886e-038
-100.60073 319.272 -0.30449441 2.3509886e-038
-95.42466 318.61218 -0.3038651 2.3509886e-038
-90.873207 320.0799 -0.30526489 2.3509886e-038
-86.453728 322.21014 -0.30729654 2.3509886e-038
-81.98793 324.41995 -0.30940408 2.3509886e-038
-77.149078 325.34714 -0.31028834 2.3509886e-038
-71.816414 324.17587 -0.30917129 2.3509886e-038
-66.301453 321.94202 -0.30704081 2.3509886e-038
-60.986904 320.39499 -0.30556542 2.3509886e-038
-55.901691 319.88431 -0.30507836 2.3509886e-038
-52.147697 320.63605 -0.30579531 2.3509886e-038
-47.18383 320.52969 -0.30569389 2.3509886e-038
-45.92577 319.88474 -0.30507877 2.3509886e-038
-40.530525 316.7027 -0.302044 2.3509528e-038
-35.465462 315.57544 -0.30096895 2.3509528e-038
-30.578007 315.91992 -0.30129749 2.3509528e-038
-27.923212 316.64117 -0.30198535 2.3509528e-038
-142.47809 316.40753 -5.235549 2.3418052e-038
-139.07462 316.19427 -5.2320199 2.3418052e-038
-137.67567 316.6113 -5.2389202 2.3418052e-038
-101.59 322.10614 -5.329843 2.3509886e-038
-101.469 322.02759 -5.3285432 2.3509886e-038
-95.866432 320.08722 -5.2964363 2.3509886e-038
-90.97876 320.45169 -5.3024669 2.3509886e-038
-86.233276 321.38849 -5.3179679 2.3509886e-038
-81.440445 322.2536 -5.332283 2.3509886e-038
-76.506996 322.6394 -5.3386669 2.3509886e-038
-71.391281 322.25684 -5.3323364 2.3509886e-038
-66.159988 321.25507 -5.3157601 2.3509886e-038
-60.964897 320.27939 -5.2996163 2.3509886e-038
-55.918182 319.97867 -5.2946396 2.3509886e-038
-51.04332 320.6987 -5.3065543 2.3509886e-038
-45.938782 319.97537 -5.2945857 2.3509886e-038
-40.709675 318.10257 -5.2635965 2.3509886e-038
-35.769543 318.28119 -5.2665524 2.3509886e-038
-30.953196 319.79623 -5.2916212 2.3509886e-038
-30.591394 319.95471 -5.2942438 2.3509886e-038
11.54052 306.74426 -5.0756521 9.1476764e-041
13.330514 306.1124 -5.065197 9.1476764e-041
18.031643 304.89273 -5.0450149 9.1476764e-041
21.296356 304.87857 -5.0447807 9.1476764e-041
-147.56223 318.79239 -10.245984 2.3418052e-038
-144.26988 316.7757 -10.181169 2.3418052e-038
-138.68742 315.31396 -10.134188 2.3418052e-038
-134.65114 317.38928 -10.200889 2.3418052e-038
-132.38554 319.82538 -10.279185 2.3418052e-038
-102.36626 324.5488 -10.430995 2.3509886e-038
-102.23182 324.44852 -10.427773 2.3509886e-038
-96.301926 321.54129 -10.334333 2.3509886e-038
-91.186356 321.18289 -10.322815 2.3509886e-038
-86.272034 321.53293 -10.334065 2.3509886e-038
-81.322578 321.7872 -10.342237 2.3509886e-038
-76.312813 321.8205 -10.343307 2.3509886e-038
-71.267754 321.69922 -10.33941 2.3509886e-038
-66.181602 321.36002 -10.328508 2.3509886e-038
-61.055977 320.75787 -10.309155 2.3509886e-038
-55.997086 320.43015 -10.298622 2.3509886e-038
-51.006821 320.46939 -10.299883 2.3509886e-038
-45.897285 319.68634 -10.274716 2.3509886e-038
-40.781887 318.66681 -10.241948 2.3509886e-038
-35.909454 319.52612 -10.269567 2.3509886e-038
-32.609066 321.22446 -10.324151 2.3509886e-038
4.958952 308.09955 -9.9023161 9.1476764e-041
8.6144199 308.15674 -9.9041548 9.1476764e-041
13.403375 307.78555 -9.8922243 9.1476764e-041
18.11219 306.25467 -9.8430214 9.1476764e-041
20.061611 305.64185 -9.8233261 9.1476764e-041
-148.20413 320.74936 -15.31036 2.3418052e-038
-144.99203 318.36133 -15.196372 2.3418052e-038
-138.77983 315.52408 -15.060941 2.3418052e-038
-134.25897 316.4649 -15.105849 2.3418052e-038
-130.64189 319.68915 -15.259753 2.3418052e-038
-129.43251 321.36752 -15.339868 2.3418052e-038
-103.11202 326.55869 -15.587657 2.3509886e-038
-102.82305 326.32489 -15.576497 2.3509886e-038
-96.636696 322.65906 -15.401515 2.3509886e-038
-91.358223 321.78824 -15.359949 2.3509886e-038
-86.422333 322.09311 -15.3745 2.3509886e-038
-81.50724 322.51791 -15.394777 2.3509886e-038
-76.514709 322.67191 -15.402129 2.3509886e-038
-71.464447 322.5871 -15.398081 2.3509886e-038
-66.371712 322.28314 -15.383573 2.3509886e-038
-61.231979 321.6825 -15.3549 2.3509886e-038
-56.13541 321.22168 -15.332905 2.3509886e-038
-51.061665 320.81396 -15.313443 2.3509886e-038
-45.9123 319.79092 -15.26461 2.3509886e-038
-40.781223 318.66162 -15.210706 2.3509886e-038
-35.836483 318.87686 -15.22098 2.3509886e-038
-33.126461 319.66357 -15.258532 2.3509886e-038
-2.5987782 308.59039 -14.729974 9.1476764e-041
-0.9963035 308.2998 -14.716104 9.1476764e-041
3.8093278 308.15894 -14.709379 9.1476764e-041
8.6423359 309.15536 -14.756943 9.1476764e-041
13.521146 310.48996 -14.820646 9.1476764e-041
16.771244 310.74542 -14.83284 9.1476764e-041
-146.8988 321.20099 -20.340462 2.3418052e-038
-145.92976 320.42032 -20.291023 2.3418052e-038
-139.19888 316.47681 -20.041296 2.3418052e-038
-134.29042 316.53906 -20.045238 2.3418052e-038
-130.8056 320.08975 -20.27009 2.3418052e-038
-128.23215 325.99066 -20.64377 2.3418052e-038
-104.20918 328.70859 -20.815889 2.3509886e-038
-103.32244 327.90976 -20.765303 2.3509886e-038
-96.890205 323.50546 -20.486395 2.3509886e-038
-91.472755 322.19165 -20.403194 2.3509886e-038
-86.538002 322.52423 -20.424255 2.3509886e-038
-81.692596 323.25134 -20.470301 2.3509886e-038
-76.745842 323.64667 -20.495337 2.3509886e-038
-71.673706 323.53168 -20.488056 2.3509886e-038
-66.525497 323.02991 -20.456278 2.3509886e-038
-61.35857 322.34756 -20.413067 2.3509886e-038
-56.241825 321.83063 -20.380333 2.3509886e-038
-51.115883 321.1546 -20.337523 2.3509886e-038
-45.931782 319.92661 -20.259758 2.3509886e-038
-40.766796 318.54889 -20.172512 2.3509886e-038
-35.719944 317.83987 -20.127613 2.3509886e-038
-31.156952 317.6011 -20.112494 2.3509886e-038
-11.6419 310.90994 -19.688768 9.1476764e-041
-10.687478 310.52173 -19.664181 9.1476764e-041
-5.8180285 309.06342 -19.571833 9.1476764e-041
-0.99830085 308.91788 -19.562616 9.1476764e-041
3.8238671 309.33511 -19.589039 9.1476764e-041
8.6752062 310.33124 -19.652119 9.1476764e-041
11.73604 311.93817 -19.753881 9.1476764e-041
-144.71359 321.14276 -25.344383 2.3418052e-038
-140.03529 318.37842 -25.126223 2.3418052e-038
-134.79625 317.73132 -25.075155 2.3418052e-038
-131.19321 321.03824 -25.336136 2.3418052e-038
-128.40076 326.66983 -25.780577 2.3418052e-038
-126.77139 330.39996 -26.074955 2.3418052e-038
-106.13712 331.46555 -26.15905 2.3418052e-038
-103.60848 328.81757 -25.950073 2.3418052e-038
-97.003448 323.88358 -25.560686 2.3509886e-038
-91.549606 322.46234 -25.448523 2.3509886e-038
-86.595375 322.73804 -25.470284 2.3509886e-038
-81.741608 323.44525 -25.526094 2.3509886e-038
-76.798683 323.86951 -25.559576 2.3509886e-038
-71.711021 323.7001 -25.546206 2.3509886e-038
-66.533516 323.06882 -25.496387 2.3509886e-038
-61.377605 322.44754 -25.447355 2.3509886e-038
-56.265194 321.96436 -25.409224 2.3509886e-038
-51.118561 321.17145 -25.346645 2.3509886e-038
-45.948895 320.04581 -25.257811 2.3509886e-038
-40.814632 318.9227 -25.169176 2.3509886e-038
-35.737038 317.99197 -25.095726 2.3509886e-038
-30.691214 317.08957 -25.024508 2.3509886e-038
-25.628939 315.63828 -24.909973 2.3509886e-038
-20.610218 314.16061 -24.793356 2.3509886e-038
-15.64577 312.84668 -24.689663 9.1476764e-041
-10.718953 311.43622 -24.578348 9.1476764e-041
-5.8431902 310.40002 -24.496574 9.1476764e-041
-1.0044136 310.80945 -24.528883 9.1476764e-041
3.8531191 311.70148 -24.599281 9.1476764e-041
5.7201581 312.02634 -24.624922 9.1476764e-041
-142.60172 322.22601 -30.454376 2.3509886e-038
-141.40309 321.48819 -30.384645 2.3509886e-038
-135.6281 319.69211 -30.214891 2.3418052e-038
-131.36333 321.45459 -30.381468 2.3418052e-038
-127.89792 325.39053 -30.753464 2.3418052e-038
-124.61368 330.13162 -31.201555 2.3418052e-038
-123.55346 333.50522 -31.520401 2.3418052e-038
-110.07288 336.35968 -31.790186 2.3418052e-038
-103.50262 328.48163 -31.045609 2.3418052e-038
-96.897324 323.52924 -30.577547 2.3509886e-038
-91.53112 322.39722 -30.47056 2.3509886e-038
-86.591644 322.72412 -30.501455 2.3509886e-038
-81.722572 323.36996 -30.562492 2.3509886e-038
-76.781021 323.79498 -30.602663 2.3509886e-038
-71.697983 323.64124 -30.588133 2.3509886e-038
-66.519951 323.00296 -30.527807 2.3509886e-038
-61.383583 322.47894 -30.478281 2.3509886e-038
-56.284847 322.07681 -30.440277 2.3509886e-038
-51.149467 321.36563 -30.373058 2.3509886e-038
-46.023521 320.56561 -30.297447 2.3509886e-038
-40.942356 319.92072 -30.236498 2.3509886e-038
-35.870861 319.18271 -30.166746 2.3509886e-038
-30.798071 318.19354 -30.073259 2.3509886e-038
-25.730043 316.88345 -29.949438 2.3509886e-038
-20.699211 315.51709 -29.820301 9.1476764e-041
-15.717751 314.28595 -29.703943 9.1476764e-041
-10.777638 313.1413 -29.595757 9.1476764e-041
-5.8815069 312.43552 -29.529053 9.1476764e-041
-1.0125662 313.33224 -29.613802 9.1476764e-041
-0.45701015 313.54526 -29.633938 9.1476764e-041
-140.82968 324.85794 -35.768696 2.3509886e-038
-137.04988 323.0434 -35.568905 2.3509886e-038
-131.82635 322.58762 -35.518719 2.3418052e-038
-127.53019 324.45496 -35.724323 2.3418052e-038
-123.65164 327.58295 -36.068733 2.3418052e-038
-120.62525 333.33539 -36.70211 2.3418052e-038
-117.1886 338.42114 -37.262077 2.3418052e-038
-110.92416 335.43524 -36.933315 2.3418052e-038
-103.19437 327.50333 -36.059963 2.3418052e-038
-96.793198 323.18158 -35.584114 2.3509886e-038
-91.469841 322.1814 -35.473991 2.3509886e-038
-86.580147 322.68127 -35.529034 2.3509886e-038
-81.77108 323.56192 -35.625996 2.3509886e-038
-76.874573 324.18954 -35.695099 2.3509886e-038
-71.815117 324.16998 -35.692947 2.3509886e-038
-66.640701 323.58932 -35.629013 2.3509886e-038
-61.484627 323.0098 -35.565201 2.3509886e-038
-56.357655 322.49344 -35.50835 2.3509886e-038
-51.212559 321.76202 -35.427814 2.3509886e-038
-46.108784 321.15948 -35.361473 2.3509886e-038
-41.060646 320.84503 -35.326851 2.3509886e-038
-35.994507 320.28296 -35.264965 2.3509886e-038
-30.897533 319.22116 -35.148056 2.3509886e-038
-25.832748 318.14832 -35.029926 9.1476764e-041
-20.812075 317.23749 -34.929642 9.1476764e-041
-15.811985 316.17026 -34.81213 9.1476764e-041
-10.846685 315.14746 -34.699516 9.1476764e-041
-6.493844 315.45337 -34.7332 9.1476764e-041
-139.21605 328.05801 -41.236481 2.3509886e-038
-139.16165 328.02112 -41.231842 2.3509886e-038
-132.89484 325.20227 -40.877518 2.3418052e-038
-127.61224 324.6637 -40.809822 2.3418052e-038
-122.94596 325.71347 -40.941772 2.3418052e-038
-118.88794 328.53452 -41.296379 2.3418052e-038
-114.77158 331.44119 -41.661743 2.3418052e-038
-109.27493 330.44797 -41.536892 2.3418052e-038
-102.85258 326.41861 -41.030411 2.3418052e-038
-96.8974 323.52951 -40.667255 2.3509886e-038
-91.575264 322.55273 -40.544476 2.3509886e-038
-86.642944 322.91531 -40.59005 2.3509886e-038
-81.840286 323.83572 -40.705746 2.3509886e-038
-76.978798 324.62903 -40.805462 2.3509886e-038
-71.965446 324.8486 -40.833061 2.3509886e-038
-66.831093 324.51376 -40.79097 2.3509886e-038
-61.674282 324.00613 -40.727165 2.3509886e-038
-56.498375 323.29868 -40.638233 2.3509886e-038
-51.304882 322.34207 -40.517994 2.3509886e-038
-46.172375 321.60242 -40.425018 2.3509886e-038
-41.111992 321.24625 -40.380249 2.3509886e-038
-36.044487 320.72766 -40.315067 2.3509886e-038
-30.954351 319.8082 -40.19949 2.3509886e-038
-25.928555 319.32825 -40.13916 9.1476764e-041
-20.94986 319.33774 -40.140354 9.1476764e-041
-15.930723 318.54449 -40.040646 9.1476764e-041
-12.471966 318.20816 -39.998367 9.1476764e-041
-137.54924 330.27643 -46.665371 2.3509886e-038
-134.10777 328.17038 -46.367802 2.3509886e-038
-127.86581 325.30884 -45.96349 2.3509886e-038
-122.46139 324.42969 -45.839272 2.3509886e-038
-117.79434 325.51248 -45.992264 2.3418052e-038
-113.2505 327.04858 -46.209297 2.3418052e-038
-108.15462 327.06015 -46.210938 2.3418052e-038
-102.58652 325.57422 -46.000988 2.3418052e-038
-97.060043 324.07254 -45.788811 2.3509886e-038
-91.778511 323.26862 -45.675224 2.3509886e-038
-86.752975 323.32541 -45.683247 2.3509886e-038
-81.900688 324.07471 -45.78912 2.3509886e-038
-77.071487 325.01993 -45.922672 2.3509886e-038
-72.126625 325.57614 -46.001259 2.3509886e-038
-67.040268 325.52945 -45.994663 2.3509886e-038
-61.878532 325.07916 -45.931042 2.3509886e-038
-56.644032 324.13214 -45.797234 2.3509886e-038
-51.411251 323.01038 -45.638737 2.3509886e-038
-46.256954 322.19153 -45.523041 2.3509886e-038
-41.164566 321.65707 -45.447525 2.3509886e-038
-36.077705 321.02325 -45.357971 2.3509886e-038
-31.015545 320.4404 -45.27562 2.3509886e-038
-26.038538 320.68277 -45.309864 9.1476764e-041
-21.104733 321.69846 -45.453373 9.1476764e-041
-17.442322 322.34592 -45.544853 9.1476764e-041
-135.97481 331.78397 -52.051941 2.3509886e-038
-135.38858 331.3046 -51.976734 2.3509886e-038
-128.25708 326.30429 -51.192257 2.3509886e-038
-122.27272 323.92987 -50.819748 2.3509886e-038
-117.30153 324.15067 -50.854385 2.3509886e-038
-112.56029 325.05536 -50.996319 2.3509886e-038
-107.52856 325.16693 -51.013824 2.3509886e-038
-102.2849 324.61697 -50.927544 2.3509886e-038
-97.056519 324.06076 -50.840282 2.3509886e-038
-91.853607 323.53311 -50.7575 2.3509886e-038
-86.76078 323.35452 -50.729485 2.3509886e-038
-81.900368 324.07346 -50.842274 2.3509886e-038
-77.149475 325.34879 -51.042355 2.3509886e-038
-72.290565 326.31616 -51.194115 2.3509886e-038
-67.241776 326.50793 -51.224205 2.3509886e-038
-62.058903 326.02673 -51.148712 2.3509886e-038
-56.786011 324.94461 -50.978943 2.3509886e-038
-51.551136 323.88925 -50.813374 2.3509886e-038
-46.394627 323.15045 -50.697468 2.3509886e-038
-41.26355 322.43051 -50.584522 2.3509886e-038
-36.146084 321.63174 -50.459202 2.3509886e-038
-31.113802 321.45557 -50.431564 2.3509886e-038
-26.172318 322.33035 -50.56881 2.3509886e-038
-21.278288 324.34396 -50.884708 9.1476764e-041
-20.731958 324.76978 -50.951515 9.1476764e-041
-134.46397 333.13782 -57.458984 2.3509886e-038
-129.20102 328.70581 -56.694565 2.3509886e-038
-122.59511 324.78397 -56.018124 2.3509886e-038
-117.15374 323.74225 -55.838455 2.3509886e-038
-112.07081 323.64182 -55.821133 2.3509886e-038
-106.93196 323.36282 -55.773014 2.3509886e-038
-101.8176 323.13394 -55.733536 2.3509886e-038
-96.778534 323.13263 -55.733311 2.3509886e-038
-91.659714 322.85019 -55.684597 2.3509886e-038
-86.568123 322.63647 -55.647736 2.3509886e-038
-81.784988 323.61691 -55.816841 2.3509886e-038
-77.161743 325.40057 -56.124477 2.3509886e-038
-72.394806 326.78668 -56.363556 2.3509886e-038
-67.379333 327.17587 -56.430683 2.3509886e-038
-62.188457 326.70737 -56.349873 2.3509886e-038
-56.930679 325.77243 -56.188618 2.3509886e-038
-51.719566 324.94748 -56.046329 2.3509886e-038
-46.548897 324.22498 -55.921715 2.3509886e-038
-41.372181 323.27936 -55.758617 2.3509886e-038
-36.234596 322.41928 -55.610271 2.3509886e-038
-31.235456 322.71246 -55.660839 2.3509886e-038
-26.336617 324.35379 -55.943932 2.3509886e-038
-22.881166 326.25027 -56.271038 2.3509886e-038
-133.33896 335.78854 -63.152164 2.3509886e-038
-131.1814 333.74417 -62.767677 2.3509886e-038
-123.59285 327.42722 -61.579639 2.3509886e-038
-117.27104 324.06641 -60.947567 2.3509886e-038
-111.67921 322.51093 -60.655029 2.3509886e-038
-106.37417 321.67606 -60.498009 2.3509886e-038
-101.25081 321.33514 -60.433899 2.3509886e-038
-96.259712 321.40033 -60.446163 2.3509886e-038
-91.246529 321.39484 -60.445122 2.3509886e-038
-86.255989 321.47314 -60.459854 2.3509886e-038
-81.58609 322.8299 -60.715019 2.3509886e-038
-77.083191 325.06931 -61.136185 2.3509886e-038
-72.40509 326.83313 -61.467911 2.3509886e-038
-67.427055 327.40762 -61.575958 2.3509886e-038
-62.253845 327.05087 -61.508862 2.3509886e-038
-57.042717 326.41354 -61.389 2.3509886e-038
-51.850876 325.77249 -61.268433 2.3509886e-038
-46.648197 324.91663 -61.107471 2.3509886e-038
-41.435299 323.77255 -60.892303 2.3509886e-038
-36.302681 323.02515 -60.751736 2.3509886e-038
-31.347803 323.8732 -60.911232 2.3509886e-038
-26.536345 326.81357 -61.464233 2.3509886e-038
-24.61869 328.59641 -61.799534 2.3509886e-038
-132.22493 339.19254 -69.081451 2.3509886e-038
-125.08427 331.37833 -67.489975 2.3509886e-038
-117.52015 324.75476 -66.140984 2.3509886e-038
-111.34404 321.54303 -65.48687 2.3509886e-038
-105.88676 320.20212 -65.213768 2.3509886e-038
-100.70531 319.60391 -65.091942 2.3509886e-038
-95.702507 319.53989 -65.078896 2.3509886e-038
-90.811127 319.86124 -65.144348 2.3509886e-038
-85.99263 320.49161 -65.272736 2.3509886e-038
-81.424423 322.19019 -65.618675 2.3509886e-038
-76.998253 324.71112 -66.132095 2.3509886e-038
-72.408401 326.84805 -66.567314 2.3509886e-038
-67.488594 327.70645 -66.742142 2.3509886e-038
-62.337639 327.49109 -66.698273 2.3509886e-038
-57.138046 326.95905 -66.58992 2.3509886e-038
-51.919815 326.2056 -66.43647 2.3509886e-038
-46.670616 325.07278 -66.205757 2.3509886e-038
-41.447803 323.87024 -65.960838 2.3509886e-038
-36.350727 323.45264 -65.875793 2.3509886e-038
-31.437819 324.80316 -66.150841 2.3509886e-038
-26.738529 329.30365 -67.067429 2.3509886e-038
-26.208792 330.16266 -67.242378 2.3509886e-038
-129.25984 338.6489 -74.251312 2.3509886e-038
-126.60211 335.39948 -73.538857 2.3509886e-038
-118.01903 326.13336 -71.507187 2.3509886e-038
-111.22733 321.20599 -70.426826 2.3509886e-038
-105.56252 319.22162 -69.991737 2.3509886e-038
-100.34907 318.4733 -69.82766 2.3509886e-038
-95.347534 318.35468 -69.801651 2.3509886e-038
-90.561775 318.98297 -69.939407 2.3509886e-038
-85.903679 320.16013 -70.19751 2.3509886e-038
-81.41626 322.1579 -70.635536 2.3509886e-038
-77.04612 324.91293 -71.239601 2.3509886e-038
-72.515106 327.32971 -71.769501 2.3509886e-038
-67.604004 328.26682 -71.97496 2.3509886e-038
-62.436165 328.00867 -71.918365 2.3509886e-038
-57.223541 327.44824 -71.795486 2.3509886e-038
-51.96386 326.48233 -71.583702 2.3509886e-038
-46.683979 325.16586 -71.295052 2.3509886e-038
-41.490761 324.2059 -71.084572 2.3509886e-038
-36.449528 324.33179 -71.112175 2.3509886e-038
-31.542583 325.88556 -71.452858 2.3509886e-038
-27.753166 329.33887 -72.210022 2.3509886e-038
-125.19002 336.22986 -78.963783 2.3509886e-038
-119.28068 329.61981 -77.411415 2.3509886e-038
-111.83089 322.94901 -75.844765 2.3509886e-038
-105.71766 319.69077 -75.079567 2.3509886e-038
-100.35538 318.49338 -74.798363 2.3509886e-038
-95.308846 318.22549 -74.735451 2.3509886e-038
-90.544106 318.92072 -74.89872 2.3509886e-038
-85.967789 320.39905 -75.245911 2.3509886e-038
-81.540665 322.65018 -75.77459 2.3509886e-038
-77.196114 325.5455 -76.454552 2.3509886e-038
-72.662308 327.9942 -77.029633 2.3509886e-038
-67.720871 328.83429 -77.226929 2.3509886e-038
-62.526367 328.48257 -77.144325 2.3509886e-038
-57.304482 327.91144 -77.010201 2.3509886e-038
-52.043041 326.97983 -76.791405 2.3509886e-038
-46.804497 326.00531 -76.562546 2.3509886e-038
-41.693893 325.79318 -76.512726 2.3509886e-038
-36.700714 326.56683 -76.69442 2.3509886e-038
-31.749866 328.02713 -77.037369 2.3509886e-038
-29.636681 329.18124 -77.308418 2.3509886e-038
-121.78111 336.86853 -84.366631 2.3509886e-038
-113.69508 328.33246 -82.228821 2.3509886e-038
-106.62833 322.44464 -80.754257 2.3509886e-038
-100.75299 319.75522 -80.080711 2.3509886e-038
-95.540428 318.99872 -79.891251 2.3509886e-038
-90.692184 319.44226 -80.002327 2.3509886e-038
-86.095451 320.87485 -80.361115 2.3509886e-038
-81.68856 323.23535 -80.952286 2.3509886e-038
-77.328339 326.10309 -81.670494 2.3509886e-038
-72.744949 328.36725 -82.237534 2.3509886e-038
-67.786438 329.15271 -82.43425 2.3509886e-038
-62.612907 328.93719 -82.38028 2.3509886e-038
-57.411224 328.52225 -82.276352 2.3509886e-038
-52.187286 327.88611 -82.117035 2.3509886e-038
-47.030739 327.58115 -82.040657 2.3509886e-038
-42.024265 328.37469 -82.239395 2.3509886e-038
-37.090885 330.03864 -82.65612 2.3509886e-038
-32.125996 331.91315 -83.125587 2.3509886e-038
-32.058231 331.94702 -83.134071 2.3509886e-038
-118.55247 339.18912 -90.236824 2.3509886e-038
-116.61494 336.76453 -89.591789 2.3509886e-038
-108.23693 327.30905 -87.076286 2.3509886e-038
-101.54176 322.25854 -85.732658 2.3509886e-038
-95.992645 320.50864 -85.26712 2.3509886e-038
-90.991592 320.49689 -85.264 2.3509886e-038
-86.309296 321.67184 -85.576576 2.3509886e-038
-81.854561 323.89221 -86.167274 2.3509886e-038
-77.446617 326.6019 -86.888153 2.3509886e-038
-72.826813 328.73672 -87.4561 2.3509886e-038
-67.883858 329.62573 -87.692604 2.3509886e-038
-62.759445 329.70703 -87.714233 2.3509886e-038
-57.589169 329.5405 -87.66993 2.3509886e-038
-52.4048 329.25272 -87.593369 2.3509886e-038
-47.303104 329.47824 -87.653366 2.3509886e-038
-42.359352 330.99301 -88.056358 2.3509886e-038
-37.493301 333.61935 -88.755058 2.3509886e-038
-34.733616 335.36392 -89.219177 2.3509886e-038
-113.38767 337.17319 -94.958084 2.3509886e-038
-110.3484 333.69412 -93.978271 2.3509886e-038
-103.01539 326.9353 -92.074783 2.3509886e-038
-96.880569 323.4733 -91.099785 2.3509886e-038
-91.598518 322.63464 -90.863586 2.3509886e-038
-86.780434 323.42776 -91.086952 2.3509886e-038
-82.201477 325.26495 -91.60437 2.3509886e-038
-77.725677 327.77872 -92.312317 2.3509886e-038
-73.120651 330.06314 -92.955673 2.3509886e-038
-68.206306 331.19141 -93.27343 2.3509886e-038
-63.072594 331.35217 -93.31871 2.3509886e-038
-57.880436 331.20718 -93.27787 2.3509886e-038
-52.720898 331.23871 -93.286751 2.3509886e-038
-47.657955 331.94986 -93.48703 2.3509886e-038
-42.714161 333.76547 -93.998367 2.3509886e-038
-37.858124 336.86563 -94.87146 2.3509886e-038
-37.429714 337.2103 -94.968529 2.3509886e-038
-108.34213 338.02737 -100.46957 2.3509886e-038
-105.73061 335.55249 -99.733963 2.3509886e-038
-98.712242 329.58908 -97.961502 2.3509886e-038
-92.877731 327.14035 -97.233688 2.3509886e-038
-87.741867 327.01096 -97.195229 2.3509886e-038
-82.936821 328.17465 -97.5411 2.3509886e-038
-78.357933 330.44504 -98.215919 2.3509886e-038
-73.767479 332.98288 -98.970222 2.3509886e-038
-68.868607 334.40741 -99.393631 2.3509886e-038
-63.665173 334.4653 -99.410835 2.3509886e-038
-58.378937 334.05975 -99.290291 2.3509886e-038
-53.205627 334.28421 -99.35701 2.3509886e-038
-48.173763 335.5426 -99.731026 2.3509886e-038
-43.204082 337.59372 -100.34067 2.3509886e-038
-40.653088 339.23233 -100.8277 2.3509886e-038
-100.02946 338.25967 -105.81313 2.3509886e-038
-95.463264 336.24728 -105.18362 2.3509886e-038
-89.837708 334.82208 -104.73779 2.3509886e-038
-84.530876 334.48218 -104.63147 2.3509886e-038
-79.675423 336.00104 -105.10659 2.3509886e-038
-75.027573 338.67087 -105.94176 2.3509886e-038
-70.132866 340.5463 -106.52843 2.3509886e-038
-64.832855 340.5997 -106.54513 2.3509886e-038
-59.382137 339.80032 -106.29507 2.3509886e-038
-54.067394 339.69858 -106.26324 2.3509886e-038
-48.919254 340.73514 -106.58749 2.3509886e-038
-45.521656 342.00446 -106.98456 2.3509886e-038
-89.183319 345.13342 -113.34507 2.3509886e-038
-87.047348 344.43967 -113.11723 2.3509886e-038
-81.813812 345.01889 -113.30746 2.3509886e-038
-77.133392 348.17645 -114.34444 2.3509886e-038
-72.264946 350.89914 -115.23859 2.3509886e-038
-66.839714 351.14279 -115.3186 2.3509886e-038
-61.203979 350.2254 -115.01733 2.3509886e-038
-55.873936 349.39005 -114.743 2.3509886e-038
-144.26337 316.76141 -6.0907493 2.3418052e-038
-146.24615 321.11502 -21.874031 2.3418052e-038
-139.12968 316.31949 -4.9371643 2.3418052e-038
-141.99954 322.84427 -32.065792 2.3509886e-038
-134.99506 318.19995 -7.0539684 2.3418052e-038
-139.19324 328.09558 -41.310333 2.3509886e-038
-130.88135 320.27512 -12.46966 2.3418052e-038
-135.68095 332.02008 -53.068615 2.3509886e-038
-128.20528 326.17249 -20.821852 2.3418052e-038
-132.8416 337.96799 -66.561638 2.3509886e-038
-125.1702 331.60599 -28.898706 2.3418052e-038
-127.35501 337.39407 -76.455139 2.3509886e-038
-121.70927 336.33099 -33.974159 2.3418052e-038
-121.87447 336.78751 -84.182907 2.3509886e-038
-117.85725 340.35211 -35.97649 2.3418052e-038
-117.38447 338.98679 -91.51506 2.3509886e-038
-105.51965 319.09198 62.637642 2.3418409e-038
-105.98425 320.49692 28.484043 2.3418409e-038
-111.84081 338.20718 -33.499763 2.3418052e-038
-111.34293 336.7016 -96.834221 2.3509886e-038
-100.36347 318.51901 64.80957 2.3418409e-038
-106.686 338.58456 -102.08448 2.3509886e-038
-95.143585 317.67371 57.84293 2.3418409e-038
-101.22739 337.98685 -105.08652 2.3509886e-038
-93.866798 330.62411 35.683197 2.3418409e-038
-96.782898 340.89542 -108.53375 2.3509886e-038
-88.176216 328.62976 16.976961 2.3418409e-038
-92.343803 344.16223 -111.8469 2.3509886e-038
-82.568489 326.71716 4.7592721 2.3509886e-038
-87.34433 345.61481 -114.05687 2.3509886e-038
-77.354813 326.21472 1.2812808 2.3509886e-038
-82.576073 348.23346 -115.97707 2.3509886e-038
-72.062988 325.28888 3.2099779 2.3509886e-038
-78.104271 352.55893 -117.82826 2.3509886e-038
-66.141052 321.16315 20.375059 3.5733111e-043
-73.266777 355.76373 -118.961 2.3509886e-038
-60.361938 317.11172 41.761566 3.5733111e-043
-67.697983 355.65164 -118.75108 2.3509886e-038
-55.822109 319.42889 64.47345 3.5733111e-043
-61.751915 353.36081 -117.36218 2.3509886e-038
-50.928806 319.97922 69.762833 3.5733111e-043
-50.939087 320.04382 12.633521 2.3509886e-038
-51.077877 320.91583 -1.6900069 2.3509886e-038
-55.570068 349.13968 -114.56316 2.3509886e-038
-46.410503 323.26105 68.587646 3.5733111e-043
-46.42326 323.34988 51.426601 3.5733111e-043
-45.861916 319.43997 1.2903112 2.3509886e-038
-49.448689 344.42279 -110.43745 2.3509886e-038
-39.867462 311.52155 11.637399 2.3509528e-038
-43.615467 340.80823 -104.84712 2.3509886e-038
-35.124084 312.53784 21.259396 2.3509528e-038
-37.930561 337.51013 -95.969055 2.3509886e-038
-30.487736 314.9873 32.595455 2.3509528e-038
-31.009199 320.37485 -6.1220217 2.3509886e-038
-30.717676 317.36298 -20.704948 2.3509886e-038
-32.140545 332.06351 -83.324203 2.3509886e-038
-25.256325 311.04926 44.496899 2.3509528e-038
-25.482452 313.83417 4.510035 2.3509528e-038
-25.615089 315.46768 -23.256563 2.3509886e-038
-26.79925 330.05145 -69.216805 2.3509886e-038
-20.32299 309.78238 51.260349 2.3509528e-038
-20.942183 319.22073 21.309395 2.3509528e-038
-20.593996 313.91333 -23.189932 2.3509886e-038
-21.329216 325.12027 -52.298401 2.3509886e-038
-15.513238 310.19659 50.95882 2.3509528e-038
-15.984207 319.61392 36.10144 2.3509528e-038
-15.622573 312.38284 -21.630535 2.3509886e-038
-16.058905 321.10757 -43.838264 9.1476764e-041
-10.687727 310.52893 -19.186117 9.1476764e-041
-10.916125 317.16498 -38.522892 9.1476764e-041
-5.8171396 309.0162 -16.475142 9.1476764e-041
-5.9340057 315.22433 -34.254791 9.1476764e-041
-0.99666685 308.41223 -13.837108 9.1476764e-041
-1.0134631 313.60974 -30.088955 9.1476764e-041
3.8082678 308.07318 -10.751539 9.1476764e-041
3.8652897 312.68604 -26.136187 9.1476764e-041
8.6060772 307.85828 -7.0896358 9.1476764e-041
8.7035389 311.34476 -22.201185 9.1476764e-041
13.322527 305.92902 -4.0633521 9.1476764e-041
13.607318 312.46875 -18.167049 9.1476764e-041
18.022486 304.73785 -2.7622397 9.1476764e-041
18.236345 308.35397 -12.859754 9.1476764e-041
