# .PCD v0.7 - Point Cloud Data file format
VERSION 0.7
FIELDS x y z rgb
SIZE 4 4 4 4
TYPE F F F F
COUNT 1 1 1 1
WIDTH 556
HEIGHT 1
VIEWPOINT 0 0 0 1 0 0 0
POINTS 556
DATA ascii
-136.98798 309.42816 -8.7439127 2.3418052e-038
0 0 0 2.3418409e-038
-70.571144 299.68323 56.456921 3.5733111e-043
0 0 0 2.3418409e-038
0 0 0 2.3418409e-038
-71.142082 302.3382 64.147469 3.5733111e-043
-70.762794 302.34723 64.149384 3.5733111e-043
-68.76754 302.38095 64.15654 3.5733111e-043
-77.787636 301.30923 59.240356 3.5733111e-043
-75.025795 300.5766 59.096313 3.5733111e-043
-70.217834 300.0188 58.986641 3.5733111e-043
-65.87365 300.52365 59.085903 3.5733111e-043
-80.273628 301.5903 54.602432 3.5733111e-043
-79.934044 301.44714 54.576519 3.5733111e-043
-74.76503 299.53189 54.229763 3.5733111e-043
-69.797981 298.22485 53.99313 3.5733111e-043
-65.413315 299.39722 54.205383 3.5733111e-043
-65.362694 299.48691 54.221619 3.5733111e-043
-82.229584 302.62573 50.080605 3.5733111e-043
-79.958702 301.54013 49.900951 3.5733111e-043
-74.562408 298.72012 49.434277 3.5733111e-043
-68.865555 294.24094 48.693027 3.5733111e-043
-63.294956 289.70151 47.941814 3.5733111e-043
-63.287987 289.69965 47.941505 3.5733111e-043
-83.630974 303.33151 45.477127 2.3509886e-038
-79.877441 301.2337 45.162609 3.5733111e-043
-73.67392 295.16055 44.25209 3.5733111e-043
-66.351807 283.50046 42.503944 3.5733111e-043
-58.412663 267.35522 40.083363 2.3509886e-038
-57.194267 264.84009 39.70628 2.3509886e-038
-84.856926 303.98212 40.844265 2.3509886e-038
-79.28788 299.01035 40.176235 3.5733111e-043
-71.256447 285.4754 38.357628 3.5733111e-043
-62.353119 266.41531 35.796638 2.3509886e-038
-54.395939 248.97066 33.452705 2.3509886e-038
-50.41637 241.48648 32.447098 2.3509886e-038
-86.425156 305.79901 36.329723 2.3509886e-038
-85.660263 305.13498 36.250835 2.3509886e-038
-78.70591 296.81561 35.262474 3.5733111e-043
-69.408875 278.07346 33.035854 3.5733111e-043
-60.381237 257.99008 30.649899 2.3509886e-038
-53.509846 244.91499 29.096544 2.3509886e-038
-48.471577 238.86815 28.378162 2.3509886e-038
-47.75211 238.38892 28.321226 2.3509886e-038
-88.065948 307.65594 31.762749 2.3509886e-038
-85.718803 305.34351 31.524014 2.3509886e-038
-78.501289 296.04398 30.563917 3.5733111e-043
-69.273422 277.53082 28.652599 3.5733111e-043
-60.838287 259.94293 26.836805 2.3509886e-038
-54.655052 250.15662 25.826456 2.3509886e-038
-49.885361 245.8353 25.380318 2.3509886e-038
-47.607903 244.50787 25.243273 2.3509886e-038
-89.551079 309.24185 27.114243 2.3509886e-038
-85.727158 305.37326 26.775043 2.3509886e-038
-78.680603 296.72018 26.016346 2.3509886e-038
-70.170219 281.12363 24.648846 3.5733111e-043
-62.287003 266.13284 23.334455 2.3509886e-038
-56.269474 257.54584 22.581549 2.3509886e-038
-51.452164 253.55649 22.231766 2.3509886e-038
-48.39996 251.60045 22.060259 2.3509886e-038
-90.798943 310.91272 22.422495 2.3509886e-038
-85.968491 306.23294 22.084993 2.3509886e-038
-79.15818 298.52121 21.528839 2.3509886e-038
-71.211624 285.29584 20.575048 3.5733111e-043
-63.713886 272.22946 19.632723 3.5733111e-043
-57.695404 264.07233 19.044443 2.3509886e-038
-52.722721 259.81781 18.737616 2.3509886e-038
-49.380482 257.7085 18.585495 2.3509886e-038
-91.492035 311.84076 17.63673 2.3509886e-038
-86.345543 307.57605 17.395531 2.3509886e-038
-79.834213 301.07068 17.027607 2.3509886e-038
-72.250626 289.45844 16.370853 3.5733111e-043
-64.926758 277.41168 15.689528 3.5733111e-043
-58.8372 269.29834 15.230663 2.3509886e-038
-53.729057 264.77704 14.974953 2.3509886e-038
-50.264587 262.65765 14.855086 2.3509886e-038
-92.141853 312.715 12.819885 2.3509886e-038
-86.698021 308.83163 12.660686 2.3509886e-038
-80.481697 303.51248 12.442625 2.3509886e-038
-73.191139 293.22638 12.020942 2.3509886e-038
-66.024345 282.10132 11.564866 3.5733111e-043
-59.959049 274.43304 11.250501 2.3509886e-038
-54.853519 270.31839 11.081819 2.3509886e-038
-51.324661 268.6825 11.014755 2.3509886e-038
-93.444542 314.57114 8.0007868 2.3509886e-038
-93.13385 314.33286 7.9947252 2.3509886e-038
-87.10215 310.27121 7.8914223 2.3509886e-038
-81.144058 306.01038 7.7830515 2.3509886e-038
-74.323944 297.76477 7.5733342 2.3509886e-038
-67.500702 288.40936 7.3353887 2.3509886e-038
-61.581005 281.85675 7.1687298 2.3509886e-038
-56.514507 278.50375 7.0834498 2.3509886e-038
-52.819679 277.34412 7.0539556 2.3509886e-038
-95.380379 316.59119 3.1255586 2.3509886e-038
-93.352478 315.07071 3.110548 2.3509886e-038
-87.456261 311.53262 3.0756178 2.3509886e-038
-81.780464 308.41037 3.0447934 2.3509886e-038
-75.530243 302.5976 2.9874065 2.3509886e-038
-69.066231 295.09836 2.9133701 2.3509886e-038
-63.173481 289.14554 2.8546004 2.3509886e-038
-57.998474 285.81674 2.8217368 2.3509886e-038
-54.102676 284.63174 2.8100381 2.3509886e-038
-141.03949 310.42542 -1.7659813 2.3418052e-038
-140.3833 310.64786 -1.7672467 2.3418052e-038
-138.45126 311.53674 -1.7723035 2.3418052e-038
-97.792404 318.7103 -1.8131132 2.3509886e-038
-93.433159 315.34302 -1.7939572 2.3509886e-038
-87.710442 312.43802 -1.7774309 2.3509886e-038
-82.304787 310.38766 -1.7657666 2.3509886e-038
-76.548721 306.67792 -1.7446622 2.3509886e-038
-70.356346 300.6106 -1.7101457 2.3509886e-038
-64.392387 294.72446 -1.6766602 2.3509886e-038
-59.049263 290.99503 -1.6554437 2.3509886e-038
-55.162457 289.73129 -1.6482545 2.3509886e-038
-143.91566 307.75668 -6.539938 2.3418052e-038
-143.86246 307.7493 -6.5397811 2.3418052e-038
-139.27177 308.1882 -6.549108 2.3418052e-038
-135.85063 311.33875 -6.6160583 2.3418052e-038
-133.4687 317.19199 -6.7404413 2.3418052e-038
-133.43086 317.3457 -6.7437081 2.3418052e-038
-100.66564 322.22256 -6.847343 2.3509886e-038
-100.38833 321.91019 -6.8407044 2.3509886e-038
-93.612381 315.94791 -6.7140045 2.3509886e-038
-87.960655 313.32932 -6.6583581 2.3509886e-038
-82.750488 312.06854 -6.6315665 2.3509886e-038
-77.346207 309.87289 -6.5849085 2.3509886e-038
-71.423363 305.16962 -6.4849615 2.3509886e-038
-65.505409 299.81879 -6.3712544 2.3509886e-038
-60.108383 296.21439 -6.2946596 2.3509886e-038
-56.224709 295.28641 -6.2749405 2.3509886e-038
-143.97839 307.92935 -11.335432 2.3418052e-038
-143.94258 307.92068 -11.335114 2.3418052e-038
-139.1351 307.88577 -11.333829 2.3418052e-038
-135.58595 310.73215 -11.43861 2.3418052e-038
-132.81927 315.64862 -11.619593 2.3418052e-038
-130.59566 320.25394 -11.789124 2.3418052e-038
-103.70652 326.46576 -12.017792 2.3509886e-038
-100.71435 322.9556 -11.888577 2.3509886e-038
-93.845963 316.73627 -11.659633 2.3509886e-038
-88.263641 314.4086 -11.573946 2.3509886e-038
-83.217163 313.82846 -11.552591 2.3509886e-038
-78.045685 312.67523 -11.510139 2.3509886e-038
-72.421867 309.43591 -11.390892 2.3509886e-038
-66.670616 305.15195 -11.233191 2.3509886e-038
-61.266003 301.91913 -11.114186 2.3509886e-038
-56.769928 300.82059 -11.073747 2.3509886e-038
-143.49641 309.63123 -16.216393 2.3418052e-038
-139.63583 308.9938 -16.18301 2.3418052e-038
-135.48747 310.50644 -16.26223 2.3418052e-038
-132.18062 314.1308 -16.452049 2.3418052e-038
-129.10201 318.5968 -16.685949 2.3418052e-038
-127.77196 321.27896 -16.826422 2.3418052e-038
-106.18601 329.16425 -17.239399 2.3509886e-038
-100.75325 323.08035 -16.920767 2.3509886e-038
-94.019951 317.32349 -16.619259 2.3509886e-038
-88.55616 315.45062 -16.521173 2.3509886e-038
-83.644539 315.44019 -16.520624 2.3509886e-038
-78.647697 315.08704 -16.502131 2.3509886e-038
-73.29229 313.155 -16.400942 2.3509886e-038
-67.704483 309.88394 -16.229628 2.3509886e-038
-62.229404 306.66678 -16.061134 2.3509886e-038
-56.670399 302.46716 -15.841187 2.3509886e-038
-55.079086 300.47391 -15.736794 2.3509886e-038
-142.97722 312.73334 -21.245432 2.3418052e-038
-140.99805 312.00821 -21.196169 2.3418052e-038
-136.02924 311.74805 -21.178497 2.3418052e-038
-132.14391 314.04355 -21.33444 2.3418052e-038
-128.90829 318.11877 -21.61129 2.3418052e-038
-126.06995 323.53903 -21.979511 2.3418052e-038
-125.88577 324.08246 -22.01643 2.3418052e-038
-107.90412 329.58563 -22.390287 2.3418052e-038
-100.44272 322.08456 -21.880705 2.3509886e-038
-94.06929 317.49002 -21.568575 2.3509886e-038
-88.796707 316.30746 -21.488237 2.3509886e-038
-83.983185 316.71725 -21.516079 2.3509886e-038
-79.1138 316.95441 -21.532187 2.3509886e-038
-73.93412 315.89731 -21.460375 2.3509886e-038
-68.468338 313.38013 -21.289371 2.3509886e-038
-62.940739 310.17224 -21.071444 2.3509886e-038
-56.749329 302.88846 -20.576622 2.3509886e-038
-48.576424 282.7514 -19.20862 2.3509886e-038
-44.265614 269.06482 -18.278826 2.3509886e-038
-141.96333 316.03848 -26.387993 2.3509886e-038
-137.11826 314.24384 -26.238146 2.3418052e-038
-132.54651 315.0004 -26.301315 2.3418052e-038
-128.92897 318.1698 -26.56595 2.3418052e-038
-125.67246 322.51895 -26.929087 2.3418052e-038
-123.63169 326.92917 -27.297323 2.3418052e-038
-110.34361 330.61725 -27.605263 2.3418052e-038
-107.20364 327.42593 -27.3388 2.3418052e-038
-100.0159 320.71594 -26.778542 2.3509886e-038
-94.013321 317.30109 -26.493416 2.3509886e-038
-88.957405 316.87991 -26.458248 2.3509886e-038
-84.206787 317.56052 -26.515078 2.3509886e-038
-79.409073 318.13739 -26.563242 2.3509886e-038
-74.351479 317.68057 -26.525101 2.3509886e-038
-69.038498 315.98975 -26.383923 2.3509886e-038
-63.622505 313.53195 -26.178709 2.3509886e-038
-57.367905 306.18997 -25.565681 2.3509886e-038
-49.005898 285.25125 -23.817379 2.3509886e-038
-40.102421 256.67587 -21.431444 2.3509886e-038
-33.489998 238.06445 -19.877462 2.3509886e-038
-29.148495 232.97417 -19.452444 2.3509886e-038
-28.680943 233.09447 -19.462488 2.3509886e-038
-139.79395 317.69827 -31.470411 2.3509886e-038
-138.32579 317.01126 -31.402357 2.3509886e-038
-133.10472 316.327 -31.334579 2.3418052e-038
-128.92918 318.17035 -31.517174 2.3418052e-038
-125.24242 321.41531 -31.838612 2.3418052e-038
-122.02695 326.19006 -32.311588 2.3418052e-038
-118.97676 331.84024 -32.871281 2.3418052e-038
-118.23296 332.31516 -32.918324 2.3418052e-038
-117.1684 332.56564 -32.943138 2.3418052e-038
-113.69625 331.50024 -32.837601 2.3418052e-038
-106.60126 325.58612 -32.251759 2.3418052e-038
-99.692871 319.68008 -31.666725 2.3418052e-038
-93.959534 317.11957 -31.413086 2.3509886e-038
-89.022339 317.11121 -31.412258 2.3509886e-038
-84.314537 317.96689 -31.497021 2.3509886e-038
-79.579674 318.82086 -31.581614 2.3509886e-038
-74.634796 318.89108 -31.58857 2.3509886e-038
-69.495255 318.08032 -31.508259 2.3509886e-038
-64.298241 316.86203 -31.387575 2.3509886e-038
-58.519772 312.33786 -30.939421 2.3509886e-038
-51.120781 297.56149 -29.475712 2.3509886e-038
-42.918049 274.6973 -27.21084 2.3509886e-038
-36.401524 258.76111 -25.63224 2.3509886e-038
-31.946432 255.33714 -25.293072 2.3509886e-038
-29.0709 265.35855 -26.285767 2.3509886e-038
-28.907135 266.90454 -26.43891 2.3509886e-038
-137.74104 319.76489 -36.651115 2.3509886e-038
-134.04895 318.57098 -36.514271 2.3509886e-038
-129.2003 318.83939 -36.545036 2.3418052e-038
-124.91533 320.5759 -36.744072 2.3418052e-038
-120.9025 323.18427 -37.043041 2.3418052e-038
-116.85884 325.93311 -37.358112 2.3418052e-038
-111.89702 326.25427 -37.394924 2.3418052e-038
-105.76384 323.02838 -37.025177 2.3418052e-038
-99.549316 319.21976 -36.588634 2.3418052e-038
-94.023918 317.33688 -36.372822 2.3509886e-038
-89.067917 317.27356 -36.365566 2.3509886e-038
-84.375656 318.19736 -36.471447 2.3509886e-038
-79.710632 319.34549 -36.60305 2.3509886e-038
-74.858917 319.84869 -36.660725 2.3509886e-038
-69.831482 319.61923 -36.634422 2.3509886e-038
-64.7724 319.19867 -36.586216 2.3509886e-038
-59.501949 317.58002 -36.400692 2.3509886e-038
-53.420464 310.94739 -35.640469 2.3509886e-038
-46.527714 297.80099 -34.13364 2.3509886e-038
-40.418629 287.31677 -32.93195 2.3509886e-038
-35.817684 286.27875 -32.812973 2.3509886e-038
-32.247444 294.35394 -33.738541 2.3509886e-038
-28.871555 305.59055 -35.02647 2.3509886e-038
-136.41031 322.74637 -42.015263 2.3509886e-038
-135.61848 322.30099 -41.957287 2.3509886e-038
-129.87334 320.50031 -41.72287 2.3509886e-038
-124.83355 320.366 -41.705383 2.3418052e-038
-120.15531 321.18695 -41.812256 2.3418052e-038
-115.52489 322.21259 -41.945774 2.3418052e-038
-110.63059 322.5618 -41.991234 2.3418052e-038
-105.18605 321.2637 -41.822247 2.3418052e-038
-99.577888 319.31137 -41.568092 2.3418052e-038
-94.238487 318.0611 -41.405331 2.3509886e-038
-89.250229 317.92297 -41.387352 2.3509886e-038
-84.507996 318.69644 -41.488041 2.3509886e-038
-79.836235 319.84872 -41.638042 2.3509886e-038
-75.044426 320.64127 -41.741222 2.3509886e-038
-70.082916 320.77008 -41.757988 2.3509886e-038
-65.052322 320.57813 -41.733002 2.3509886e-038
-59.932629 319.87869 -41.641949 2.3509886e-038
-54.449699 316.93832 -41.259167 2.3509886e-038
-48.577568 310.92111 -40.475845 2.3509886e-038
-43.014393 305.76883 -39.805119 2.3509886e-038
-38.110386 304.60358 -39.653423 2.3509886e-038
-33.504345 305.8269 -39.812679 2.3509886e-038
-28.706181 305.4115 -39.758602 2.3509886e-038
-25.64702 304.17517 -39.597656 2.3509886e-038
-135.00145 324.41068 -47.280212 2.3509886e-038
-130.54086 322.14761 -46.95039 2.3509886e-038
-124.86487 320.44638 -46.70245 2.3509886e-038
-119.75768 320.12405 -46.655472 2.3418052e-038
-114.94562 320.59689 -46.724388 2.3418052e-038
-110.08787 320.9794 -46.780128 2.3418052e-038
-104.95353 320.5535 -46.71806 2.3418052e-038
-99.702911 319.71228 -46.595459 2.3509886e-038
-94.542046 319.0856 -46.504124 2.3509886e-038
-89.539345 318.95285 -46.484779 2.3509886e-038
-84.704887 319.43896 -46.555626 2.3509886e-038
-79.984428 320.44241 -46.70187 2.3509886e-038
-75.236855 321.4635 -46.850685 2.3509886e-038
-70.355621 322.01825 -46.931534 2.3509886e-038
-65.358643 322.08768 -46.941654 2.3509886e-038
-60.248135 321.56262 -46.865131 2.3509886e-038
-54.908798 319.6106 -46.580639 2.3509886e-038
-49.394569 316.15033 -46.076336 2.3509886e-038
-44.027744 312.97229 -45.613159 2.3509886e-038
-38.812996 310.2193 -45.211933 2.3509886e-038
-33.406868 304.93716 -44.442104 2.3509886e-038
-27.786728 295.62924 -43.085552 2.3509886e-038
-23.020483 288.08575 -41.986153 2.3509886e-038
-133.29376 324.92413 -52.411343 2.3509886e-038
-131.12816 323.59695 -52.197266 2.3509886e-038
-124.98625 320.7579 -51.739315 2.3509886e-038
-119.55736 319.58856 -51.550701 2.3509886e-038
-114.6342 319.7283 -51.573238 2.3418052e-038
-109.76957 320.05133 -51.625343 2.3418052e-038
-104.75608 319.95047 -51.609074 2.3509886e-038
-99.704247 319.71658 -51.571346 2.3509886e-038
-94.690598 319.58698 -51.550442 2.3509886e-038
-89.710258 319.56168 -51.546364 2.3509886e-038
-84.833954 319.92569 -51.60508 2.3509886e-038
-80.115067 320.96579 -51.77285 2.3509886e-038
-75.418732 322.2406 -51.978481 2.3509886e-038
-70.598663 323.13065 -52.122044 2.3509886e-038
-65.620522 323.3782 -52.16198 2.3509886e-038
-60.513042 322.97653 -52.097191 2.3509886e-038
-55.285763 321.80481 -51.908188 2.3509886e-038
-49.98756 319.94577 -51.608322 2.3509886e-038
-44.727741 317.94821 -51.286106 2.3509886e-038
-39.218914 313.46365 -50.562733 2.3509886e-038
-33.126335 302.37643 -48.774326 2.3509886e-038
-26.92588 286.47046 -46.208637 2.3509886e-038
-21.682734 276.45825 -44.593636 2.3509886e-038
-21.362894 276.07581 -44.531944 2.3509886e-038
-131.17294 325.23685 -57.522934 2.3509886e-038
-125.43796 321.91711 -56.935787 2.3509886e-038
-119.61011 319.72955 -56.548885 2.3509886e-038
-114.4082 319.09796 -56.43718 2.3509886e-038
-109.42796 319.05536 -56.429642 2.3509886e-038
-104.43326 318.96448 -56.41357 2.3509886e-038
-99.455803 318.91989 -56.405685 2.3509886e-038
-94.539101 319.07565 -56.433231 2.3509886e-038
-89.659691 319.38156 -56.487335 2.3509886e-038
-84.851097 319.99033 -56.595009 2.3509886e-038
-80.205284 321.32724 -56.831459 2.3509886e-038
-75.572105 322.89587 -57.108898 2.3509886e-038
-70.784622 323.98175 -57.300953 2.3509886e-038
-65.796211 324.24402 -57.347336 2.3509886e-038
-60.686218 323.90082 -57.286636 2.3509886e-038
-55.569641 323.45721 -57.208176 2.3509886e-038
-50.457634 322.95447 -57.119263 2.3509886e-038
-45.30986 322.08621 -56.965698 2.3509886e-038
-39.736309 317.599 -56.172066 2.3509886e-038
-33.394928 304.82816 -53.913353 2.3509886e-038
-26.951344 286.74136 -50.714439 2.3509886e-038
-21.734762 277.12164 -49.013046 2.3509886e-038
-21.429588 276.84491 -48.964104 2.3509886e-038
-128.66095 326.12216 -62.754429 2.3509886e-038
-126.48514 324.60455 -62.462402 2.3509886e-038
-120.00349 320.7811 -61.726673 2.3509886e-038
-114.30463 318.80911 -61.34721 2.3509886e-038
-109.11077 318.13052 -61.216629 2.3509886e-038
-104.04647 317.78314 -61.149788 2.3509886e-038
-99.040825 317.5892 -61.112465 2.3509886e-038
-94.171288 317.83426 -61.159622 2.3509886e-038
-89.434982 318.58112 -61.303333 2.3509886e-038
-84.782181 319.73047 -61.524498 2.3509886e-038
-80.261948 321.55423 -61.875443 2.3509886e-038
-75.707092 323.47269 -62.244602 2.3509886e-038
-70.9496 324.73688 -62.487862 2.3509886e-038
-65.95192 325.01138 -62.540688 2.3509886e-038
-60.826836 324.65134 -62.471405 2.3509886e-038
-55.727879 324.37827 -62.418858 2.3509886e-038
-50.634254 324.08493 -62.362415 2.3509886e-038
-45.507576 323.4917 -62.24826 2.3509886e-038
-40.13081 320.75211 -61.721092 2.3509886e-038
-34.206615 312.23721 -60.0826 2.3509886e-038
-28.072437 298.66895 -57.471714 2.3509886e-038
-24.035624 291.32938 -56.059391 2.3509886e-038
-126.3648 327.13913 -68.040901 2.3509886e-038
-120.69332 322.62509 -67.102028 2.3509886e-038
-114.3756 319.00705 -66.349518 2.3509886e-038
-108.89922 317.51367 -66.038925 2.3509886e-038
-103.72128 316.78992 -65.88839 2.3509886e-038
-98.67643 316.42075 -65.8116 2.3509886e-038
-93.839272 316.71368 -65.872536 2.3509886e-038
-89.214722 317.79651 -66.09774 2.3509886e-038
-84.725388 319.51627 -66.455429 2.3509886e-038
-80.335976 321.85083 -66.940994 2.3509886e-038
-75.866486 324.15369 -67.41996 2.3509886e-038
-71.140106 325.60883 -67.72261 2.3509886e-038
-66.131927 325.89844 -67.782852 2.3509886e-038
-60.984852 325.49475 -67.698883 2.3509886e-038
-55.852127 325.1015 -67.617088 2.3509886e-038
-50.697308 324.48853 -67.489601 2.3509886e-038
-45.538963 323.71478 -67.328674 2.3509886e-038
-40.352821 322.52661 -67.081551 2.3509886e-038
-35.027287 319.72827 -66.499535 2.3509886e-038
-29.559582 314.49103 -65.410248 2.3509886e-038
-28.065933 312.84433 -65.067757 2.3509886e-038
-124.19141 328.04224 -73.333527 2.3509886e-038
-121.94521 325.97153 -72.870621 2.3509886e-038
-114.86096 320.36078 -71.616341 2.3509886e-038
-108.91788 317.56808 -70.992043 2.3509886e-038
-103.58445 316.37204 -70.724663 2.3509886e-038
-98.544121 315.99646 -70.640709 2.3509886e-038
-93.770432 316.48135 -70.749107 2.3509886e-038
-89.24437 317.90213 -71.066711 2.3509886e-038
-84.853775 320.00043 -71.535789 2.3509886e-038
-80.517143 322.57663 -72.111694 2.3509886e-038
-76.100098 325.15186 -72.687386 2.3509886e-038
-71.380447 326.70886 -73.035446 2.3509886e-038
-66.317253 326.81171 -73.058441 2.3509886e-038
-61.117664 326.20358 -72.922501 2.3509886e-038
-55.961472 325.73795 -72.818405 2.3509886e-038
-50.779846 325.01678 -72.657188 2.3509886e-038
-45.622932 324.31171 -72.499565 2.3509886e-038
-40.528606 323.93158 -72.414589 2.3509886e-038
-35.45467 323.62939 -72.347046 2.3509886e-038
-31.291746 323.56888 -72.333511 2.3509886e-038
-122.89486 331.51611 -79.26899 2.3509886e-038
-116.30972 324.40152 -77.567825 2.3509886e-038
-109.43684 319.08121 -76.295685 2.3509886e-038
-103.75958 316.90689 -75.77578 2.3509886e-038
-98.669815 316.39951 -75.654457 2.3509886e-038
-93.917885 316.97903 -75.793022 2.3509886e-038
-89.430191 318.56403 -76.17202 2.3509886e-038
-85.080864 320.85684 -76.720245 2.3509886e-038
-80.767723 323.58054 -77.371513 2.3509886e-038
-76.362122 326.27139 -78.014923 2.3509886e-038
-71.625435 327.83017 -78.38765 2.3509886e-038
-66.51226 327.77271 -78.373909 2.3509886e-038
-61.262482 326.9765 -78.183525 2.3509886e-038
-56.092636 326.50143 -78.069931 2.3509886e-038
-50.937855 326.02814 -77.956757 2.3509886e-038
-45.848705 325.91663 -77.930092 2.3509886e-038
-40.819035 326.25287 -78.010498 2.3509886e-038
-35.772278 326.52856 -78.076416 2.3509886e-038
-33.712551 326.83417 -78.14949 2.3509886e-038
-120.58949 332.92719 -84.787209 2.3509886e-038
-118.40914 330.25708 -84.107216 2.3509886e-038
-110.58888 322.44022 -82.11647 2.3509886e-038
-104.36749 318.76361 -81.180145 2.3509886e-038
-99.036087 317.57404 -80.87719 2.3509886e-038
-94.204346 317.94583 -80.971878 2.3509886e-038
-89.674835 319.43552 -81.351257 2.3509886e-038
-85.304741 321.70114 -81.928253 2.3509886e-038
-81.007195 324.53995 -82.651222 2.3509886e-038
-76.595856 327.27008 -83.346512 2.3509886e-038
-71.83506 328.78964 -83.733498 2.3509886e-038
-66.714485 328.76929 -83.728317 2.3509886e-038
-61.468479 328.07599 -83.551743 2.3509886e-038
-56.294205 327.67471 -83.449547 2.3509886e-038
-51.178112 327.56592 -83.421844 2.3509886e-038
-46.170341 328.20297 -83.584084 2.3509886e-038
-41.211433 329.38919 -83.886177 2.3509886e-038
-36.185368 330.29922 -84.117943 2.3509886e-038
-36.164684 330.3035 -84.119026 2.3509886e-038
-116.07439 330.76361 -89.383347 2.3509886e-038
-112.13057 326.93524 -88.348801 2.3509886e-038
-105.44893 322.06662 -87.033127 2.3509886e-038
-99.73143 319.80374 -86.421631 2.3509886e-038
-94.690346 319.58612 -86.362823 2.3509886e-038
-90.059479 320.80566 -86.692383 2.3509886e-038
-85.637405 322.95566 -87.273392 2.3509886e-038
-81.303085 325.72537 -88.021851 2.3509886e-038
-76.83989 328.31274 -88.721054 2.3509886e-038
-72.062134 329.82898 -89.130783 2.3509886e-038
-66.983864 330.09677 -89.203156 2.3509886e-038
-61.781052 329.74429 -89.107895 2.3509886e-038
-56.608875 329.50635 -89.043594 2.3509886e-038
-51.523766 329.77829 -89.117088 2.3509886e-038
-46.578667 331.10556 -89.475761 2.3509886e-038
-41.691772 333.22839 -90.049416 2.3509886e-038
-38.977821 334.70361 -90.448074 2.3509886e-038
-110.41114 329.28436 -94.107773 2.3509886e-038
-107.03842 326.9213 -93.432411 2.3509886e-038
-101.00977 323.90289 -92.569778 2.3509886e-038
-95.659264 322.85626 -92.270653 2.3509886e-038
-90.80513 323.46176 -92.443695 2.3509886e-038
-86.25396 325.28082 -92.963577 2.3509886e-038
-81.814636 327.77481 -93.676353 2.3509886e-038
-77.280945 330.19724 -94.368668 2.3509886e-038
-72.508194 331.87057 -94.846893 2.3509886e-038
-67.4655 332.47028 -95.01828 2.3509886e-038
-62.258472 332.29242 -94.967445 2.3509886e-038
-57.072018 332.20218 -94.941658 2.3509886e-038
-52.016945 332.93484 -95.151062 2.3509886e-038
-47.126202 334.99771 -95.740616 2.3509886e-038
-42.33157 338.34207 -96.696411 2.3509886e-038
-42.172668 338.50208 -96.742149 2.3509886e-038
-103.6721 331.09918 -99.778801 2.3509886e-038
-103.18587 330.88092 -99.71302 2.3509886e-038
-97.518234 329.13043 -99.185501 2.3509886e-038
-92.278763 328.71109 -99.059135 2.3509886e-038
-87.359863 329.45139 -99.282227 2.3509886e-038
-82.747391 331.51172 -99.903114 2.3509886e-038
-78.232162 334.26151 -100.73178 2.3509886e-038
-73.500214 336.4111 -101.37957 2.3509886e-038
-68.394829 337.05005 -101.57214 2.3509886e-038
-63.051136 336.5231 -101.41334 2.3509886e-038
-57.763222 336.22552 -101.32365 2.3509886e-038
-52.688961 337.23611 -101.6282 2.3509886e-038
-47.826561 339.97626 -102.45396 2.3509886e-038
-46.364681 341.22736 -102.83099 2.3509886e-038
-93.684456 337.85486 -107.07219 2.3509886e-038
-89.268845 336.65051 -106.69051 2.3509886e-038
-84.299393 337.72952 -107.03246 2.3509886e-038
-79.914566 341.44986 -108.21151 2.3509886e-038
-75.282295 344.56769 -109.19961 2.3509886e-038
-70.025818 345.08752 -109.36435 2.3509886e-038
-64.444885 343.96198 -109.00765 2.3509886e-038
-58.894474 342.81024 -108.64264 2.3509886e-038
-54.234657 342.98648 -108.69849 2.3509886e-038
-143.88393 307.79523 -6.3054934 2.3418052e-038
-143.96402 307.96658 -11.523808 2.3418052e-038
-140.43329 310.75845 -1.6217765 2.3418052e-038
-142.3802 315.06671 -24.725937 2.3418052e-038
-136.35704 312.49933 -2.7129936 2.3418052e-038
-138.86482 318.24658 -33.463699 2.3509886e-038
-133.47945 317.21753 -6.6339765 2.3418052e-038
-136.04443 323.31329 -43.396534 2.3509886e-038
-129.83922 320.41611 -12.959143 2.3418052e-038
-131.75558 325.14532 -56.270004 2.3509886e-038
-126.12624 323.6835 -21.340427 2.3418052e-038
-127.34771 326.81821 -65.781754 2.3509886e-038
-122.75668 328.14069 -29.039011 2.3418052e-038
-123.41885 329.91071 -76.68129 2.3509886e-038
-119.04731 332.03699 -32.716248 2.3418052e-038
-119.16962 332.37814 -86.5168 2.3509886e-038
-114.06405 332.5726 -31.681276 2.3418052e-038
-113.061 329.64807 -91.879501 2.3509886e-038
-107.91093 329.58612 -22.409811 2.3418052e-038
-107.8911 329.52557 -96.251907 2.3509886e-038
-100.35651 321.80817 -6.3267913 2.3509886e-038
-103.3171 331.30173 -100.08788 2.3509886e-038
-93.041351 314.02066 9.2102976 2.3509886e-038
-99.042839 334.27609 -103.54607 2.3509886e-038
-85.533043 304.68179 38.749306 2.3509886e-038
-94.724335 337.42258 -106.53925 2.3509886e-038
-79.945038 301.48862 55.246353 3.5733111e-043
-89.737793 338.41904 -108.34038 2.3509886e-038
-75.325516 301.7774 62.502697 3.5733111e-043
-84.912178 340.18454 -109.64661 2.3509886e-038
-70.775139 302.39996 64.241478 3.5733111e-043
-80.707626 344.83838 -111.39471 2.3509886e-038
-65.598297 300.24393 56.990459 3.5733111e-043
-76.293793 349.19733 -113.11706 2.3509886e-038
-48.220242 237.62956 29.426041 2.3509886e-038
-71.126144 350.50998 -113.87291 2.3509886e-038
-56.550571 301.82761 -12.806977 2.3509886e-038
-65.443359 349.29114 -113.43668 2.3509886e-038
-48.75095 283.76727 -18.362057 2.3509886e-038
-59.417301 345.85349 -111.36439 2.3509886e-038
-39.420818 252.31326 -17.663517 2.3509886e-038
-53.542183 342.69714 -108.26817 2.3509886e-038
-32.694427 232.40913 -16.977163 2.3509886e-038
-48.042694 341.51263 -104.4054 2.3509886e-038
-28.956842 231.44235 -18.892397 2.3509886e-038
-42.378223 338.71497 -97.126389 2.3509886e-038
-28.764633 262.56293 -25.644876 2.3509886e-038
-36.190182 330.3432 -84.178185 2.3509886e-038
-28.777372 306.16891 -35.263371 2.3509886e-038
-30.156792 320.84485 -69.734642 2.3509886e-038
-21.991194 280.39114 -43.178226 2.3509886e-038
-21.902197 279.25644 -50.47665 2.3509886e-038
