# .PCD v0.7 - Point Cloud Data file format
VERSION 0.7
FIELDS x y z rgb
SIZE 4 4 4 4
TYPE F F F F
COUNT 1 1 1 1
WIDTH 723
HEIGHT 1
VIEWPOINT 0 0 0 1 0 0 0
POINTS 723
DATA ascii
-135.00421 315.00046 -13.352065 2.3418052e-038
8.6033163 304.45276 -0 9.1476764e-041
-61.839291 305.35236 63.277409 3.5733111e-043
-27.342005 305.5498 47.48875 2.3509528e-038
-102.158 285.40662 44.358082 2.3418409e-038
-65.507187 303.08676 65.972198 3.5733111e-043
-63.663841 304.21384 66.217537 3.5733111e-043
-59.509453 307.44992 66.921921 3.5733111e-043
-57.501869 308.68579 67.190933 3.5733111e-043
-67.595589 304.10318 61.414433 3.5733111e-043
-63.826599 304.99158 61.593849 3.5733111e-043
-59.592945 307.88126 62.177425 3.5733111e-043
-56.739864 310.07431 62.620319 3.5733111e-043
-69.072266 307.9617 57.354027 3.5733111e-043
-64.34137 307.45135 57.258984 3.5733111e-043
-59.866241 309.29324 57.602009 3.5733111e-043
-56.734325 311.50076 58.01313 3.5733111e-043
-106.46965 286.36649 48.831902 2.3418409e-038
-105.09703 286.81781 48.908863 2.3418409e-038
-101.47399 289.33936 49.338844 2.3418409e-038
-100.94572 289.8782 49.430733 2.3418409e-038
-69.340744 308.36282 52.582771 3.5733111e-043
-64.501228 308.21524 52.557602 3.5733111e-043
-59.998245 309.97522 52.857719 3.5733111e-043
-56.793491 311.99918 53.20285 3.5733111e-043
-29.850634 304.00491 51.839649 2.3509528e-038
-25.423992 304.28769 51.887871 2.3509528e-038
-23.948692 304.94278 51.999577 2.3509528e-038
-106.83267 283.4183 43.875225 2.3418409e-038
-104.08102 284.04504 43.972252 2.3418409e-038
-100.45585 286.43625 44.34243 2.3418409e-038
-97.707558 289.95667 44.887413 2.3418409e-038
-69.061378 306.7803 47.491837 3.5733111e-043
-69.023224 306.78568 47.492664 3.5733111e-043
-64.425537 307.85355 47.657982 3.5733111e-043
-59.976723 309.86401 47.969215 3.5733111e-043
-56.719025 311.61249 48.239891 3.5733111e-043
-33.119545 306.70612 47.480347 2.3509528e-038
-30.326948 305.5072 47.29475 2.3509528e-038
-25.510235 305.31992 47.265755 2.3509528e-038
-22.98559 306.32535 47.421402 2.3509528e-038
-106.61825 283.49399 39.431808 2.3418409e-038
-104.13831 284.20139 39.530201 2.3418409e-038
-100.74915 287.27255 39.957378 2.3418409e-038
-98.142792 292.96866 40.74966 2.3418409e-038
-97.574913 295.20996 41.061413 2.3418409e-038
-68.928352 305.43448 42.483559 3.5733111e-043
-68.739098 305.5228 42.495846 3.5733111e-043
-64.359772 307.53928 42.776325 3.5733111e-043
-60.007732 310.02423 43.12196 3.5733111e-043
-56.772778 311.90851 43.384048 3.5733111e-043
-35.094433 306.53232 42.636261 2.3509528e-038
-30.408541 306.32916 42.608006 2.3509528e-038
-25.626879 306.71597 42.661804 2.3509528e-038
-23.533335 307.328 42.746937 2.3509528e-038
-105.72047 283.73239 35.006077 2.3418409e-038
-104.24072 284.48087 35.098423 2.3418409e-038
-101.33865 288.95346 35.650238 2.3418409e-038
-99.354912 296.58698 36.592041 2.3418409e-038
-98.248001 302.548 37.327492 2.3509886e-038
-69.116241 304.61179 37.582115 3.5733111e-043
-68.60585 304.93057 37.621445 3.5733111e-043
-64.361343 307.54678 37.944229 3.5733111e-043
-60.229221 311.16852 38.391068 3.5733111e-043
-57.175377 314.12039 38.75526 3.5733111e-043
-36.425678 302.86093 37.366104 2.3509528e-038
-34.918018 303.68073 37.467243 2.3509528e-038
-30.425924 306.50427 37.815609 2.3509528e-038
-25.765308 308.37277 38.046135 2.3509528e-038
-24.484413 308.8364 38.10334 2.3509528e-038
-104.57818 284.26437 30.604473 2.3418409e-038
-104.21201 284.40253 30.619343 2.3418409e-038
-101.35535 289.00107 31.114435 2.3418409e-038
-99.660728 297.49991 32.029434 2.3418409e-038
-97.863541 306.51413 32.999924 2.3509886e-038
-97.672295 307.28027 33.082405 2.3509886e-038
-69.700653 304.64032 32.798187 3.5733111e-043
-68.678268 305.25247 32.86409 3.5733111e-043
-64.482903 308.12772 33.173641 3.5733111e-043
-60.569355 312.92578 33.690216 3.5733111e-043
-57.729866 317.16669 34.146801 2.3509886e-038
-37.723328 300.61569 32.364887 2.3509528e-038
-34.728073 302.02878 32.517025 2.3509528e-038
-30.409952 306.34338 32.981541 2.3509528e-038
-25.898983 309.97266 33.372276 2.3509528e-038
-25.558332 310.26651 33.403915 2.3509528e-038
-103.47647 285.26581 26.229309 2.3418409e-038
-100.86643 287.60699 26.444572 2.3418409e-038
-98.921837 295.29419 27.151386 2.3418409e-038
-97.267441 304.64713 28.011362 2.3509886e-038
-96.078178 309.92572 28.49671 2.3509886e-038
-70.634857 305.92307 28.128679 3.5733111e-043
-69.003265 306.69699 28.199839 3.5733111e-043
-64.739655 309.35455 28.444193 3.5733111e-043
-60.800362 314.11929 28.882298 3.5733111e-043
-57.987598 318.58252 29.292679 2.3509886e-038
-39.295124 301.3779 27.710766 2.3509528e-038
-34.650833 301.35699 27.708843 2.3509528e-038
-30.341471 305.6535 28.103895 2.3509528e-038
-26.466871 310.16223 28.518457 2.3509528e-038
-102.27911 286.09344 21.809412 2.3418409e-038
-100.71282 287.16898 21.891401 2.3418409e-038
-98.37191 293.65259 22.385658 2.3418409e-038
-96.674416 302.7897 23.082199 2.3418409e-038
-94.450264 311.13794 23.718599 2.3509886e-038
-94.305946 311.55508 23.750399 2.3509886e-038
-71.544609 307.80429 23.464468 3.5733111e-043
-69.421745 308.55698 23.521847 3.5733111e-043
-65.015472 310.67252 23.683117 3.5733111e-043
-60.825836 314.25089 23.955904 3.5733111e-043
-57.841682 317.77673 24.224686 2.3509886e-038
-41.231354 304.47324 23.210535 2.3509528e-038
-39.632763 303.23975 23.116505 2.3509528e-038
-34.732052 302.06339 23.026827 2.3509528e-038
-30.335596 305.59433 23.295998 2.3509528e-038
-27.198196 309.72568 23.610939 2.3509528e-038
-101.26666 287.47388 17.396957 2.3418409e-038
-100.93578 287.80469 17.416977 2.3418409e-038
-98.338593 293.55313 17.764853 2.3418409e-038
-96.266426 301.51187 18.24649 2.3418409e-038
-93.818054 309.05533 18.702993 2.3418409e-038
-92.490318 311.77518 18.86759 2.3509886e-038
-72.4076 310.40067 18.784409 3.5733111e-043
-69.898155 310.6745 18.80098 3.5733111e-043
-65.314034 312.09918 18.887197 3.5733111e-043
-60.917919 314.72662 19.0462 3.5733111e-043
-57.752621 317.22064 19.19713 2.3509886e-038
-43.262268 308.20425 18.651489 2.3509528e-038
-39.970673 305.82516 18.507517 2.3509528e-038
-34.992214 304.32599 18.41679 2.3509528e-038
-30.491417 307.16403 18.588539 2.3509528e-038
-28.087576 310.2627 18.776058 2.3509528e-038
-100.72192 290.25452 13.003854 2.3418409e-038
-98.691841 294.60764 13.198881 2.3418409e-038
-96.223083 301.37613 13.502121 2.3418409e-038
-93.575638 308.25674 13.810383 2.3418409e-038
-91.389565 313.30624 14.036608 2.3509886e-038
-73.214363 313.40161 14.040881 3.5733111e-043
-70.403282 312.91959 14.019285 3.5733111e-043
-65.612373 313.52478 14.046399 3.5733111e-043
-61.091087 315.62128 14.140326 2.3509886e-038
-57.814659 317.16489 14.209482 2.3509886e-038
-45.067089 310.53699 13.91254 2.3509528e-038
-40.278484 308.1803 13.806958 2.3509528e-038
-35.343716 307.38297 13.771236 2.3509528e-038
-30.774546 310.0162 13.889211 2.3509528e-038
-29.288416 311.72186 13.965626 2.3509528e-038
-101.26212 296.34579 8.6196518 2.3418409e-038
-99.908669 298.24002 8.6747484 2.3418409e-038
-96.703636 302.88123 8.8097448 2.3418409e-038
-93.693771 308.6459 8.9774179 2.3418409e-038
-90.96254 316.00797 9.191555 2.3509886e-038
-90.752029 316.68155 9.2111464 2.3509886e-038
-74.235985 317.10208 9.2233782 2.3509886e-038
-71.065453 315.86273 9.1873302 2.3509886e-038
-66.04689 315.6011 9.1797209 2.3509886e-038
-61.400784 317.22128 9.2268457 2.3509886e-038
-58.099617 318.19623 9.2552032 2.3509886e-038
-46.956886 312.90579 9.1013231 2.3509528e-038
-45.710556 312.20316 9.0808868 2.3509528e-038
-40.599552 310.63687 9.0353289 2.3509528e-038
-35.742336 310.84976 9.0415211 2.3509528e-038
-31.143875 313.73676 9.125493 2.3509528e-038
-30.759037 314.15573 9.1376801 2.3509528e-038
-102.22169 304.08105 4.0659704 2.3418409e-038
-101.88145 304.129 4.0666118 2.3418409e-038
-97.489571 305.34286 4.0828424 2.3418409e-038
-93.908348 309.35275 4.1364598 2.3418409e-038
-91.140274 316.62546 4.233706 2.3509886e-038
-89.663376 320.78745 4.2893577 2.3509886e-038
-75.758255 320.31958 4.2831011 2.3509886e-038
-71.639099 318.41238 4.2575994 2.3509886e-038
-66.512337 317.8252 4.2497478 2.3509886e-038
-61.744305 318.99606 4.2654037 2.3509886e-038
-58.221478 319.70755 4.2749171 2.3509886e-038
-49.480789 316.51453 4.2322221 2.3509886e-038
-46.056374 314.56512 4.2061563 2.3509528e-038
-40.931412 313.17599 4.187582 2.3509528e-038
-36.101765 313.97571 4.1982751 2.3509528e-038
-32.390514 316.82465 4.2363691 2.3509528e-038
7.0330553 303.1409 4.0533996 9.1476764e-041
8.0274868 303.45908 4.0576539 9.1476764e-041
12.910729 306.17068 4.0939116 9.1476764e-041
15.25453 307.72049 4.1146345 9.1476764e-041
-101.99767 308.72055 -0.7235654 2.3418409e-038
-98.24958 307.72324 -0.72122788 2.3418409e-038
-94.181046 310.2511 -0.72715265 2.3509886e-038
-91.263069 317.05203 -0.74309236 2.3509886e-038
-88.033424 323.49326 -0.75818896 2.3509886e-038
-86.211563 324.81195 -0.7612797 2.3509886e-038
-79.464066 322.64709 -0.7562058 2.3509886e-038
-77.393204 321.52917 -0.7535857 2.3509886e-038
-71.872856 319.45132 -0.7487157 2.3509886e-038
-66.797768 319.18912 -0.74810123 2.3509886e-038
-61.925652 319.93295 -0.74984455 2.3509886e-038
-56.940853 320.17462 -0.75041097 2.3509886e-038
-56.4491 320.12036 -0.75028378 2.3509886e-038
-53.626514 319.46683 -0.74875206 2.3509886e-038
-51.670097 318.69946 -0.74695349 2.3509886e-038
-46.316597 316.34244 -0.74142927 2.3509886e-038
-41.19799 315.21564 -0.73878837 2.3509528e-038
-36.364002 316.25641 -0.74122757 2.3509528e-038
-33.917984 318.07159 -0.74548197 2.3509528e-038
1.3672237 303.74884 -0.71191293 9.1476764e-041
3.2587547 303.47458 -0.71127015 9.1476764e-041
8.045929 304.15625 -0.7128678 9.1476764e-041
12.942081 306.91418 -0.71933174 9.1476764e-041
14.90449 308.57266 -0.7232188 9.1476764e-041
-101.36993 311.59424 -5.6270328 2.3509886e-038
-99.196236 310.6882 -5.610671 2.3509886e-038
-94.742256 312.09982 -5.6361632 2.3509886e-038
-91.399139 317.52475 -5.7341313 2.3509886e-038
-87.678581 322.1893 -5.8183675 2.3509886e-038
-82.811386 322.95386 -5.8321743 2.3509886e-038
-77.339195 321.30481 -5.8023944 2.3509886e-038
-72.068367 320.32034 -5.7846165 2.3509886e-038
-67.018814 320.24539 -5.7832627 2.3509886e-038
-62.008877 320.36295 -5.7853856 2.3509886e-038
-56.90456 319.97058 -5.7783003 2.3509886e-038
-51.683998 318.78522 -5.7568936 2.3509886e-038
-46.468971 317.38318 -5.7315741 2.3509886e-038
-41.424896 316.95178 -5.723784 2.3509886e-038
-36.622921 318.50821 -5.7518911 2.3509528e-038
-35.117374 319.58646 -5.7713633 2.3509528e-038
-4.7952595 305.69568 -5.5205121 9.1476764e-041
-1.5176471 304.93771 -5.5068235 9.1476764e-041
3.2757308 305.05551 -5.5089507 9.1476764e-041
8.0844984 305.61426 -5.5190415 9.1476764e-041
12.151296 306.87122 -5.5417404 9.1476764e-041
-142.2121 315.31238 -10.649353 2.3418052e-038
-140.06149 314.745 -10.63019 2.3418052e-038
-135.46758 315.56573 -10.65791 2.3418052e-038
-132.09579 319.40396 -10.787543 2.3418052e-038
-130.85706 321.61536 -10.86223 2.3418052e-038
-101.93807 316.76556 -10.698433 2.3509886e-038
-100.88593 315.98044 -10.671916 2.3509886e-038
-95.592316 314.90009 -10.635428 2.3509886e-038
-91.585434 318.17194 -10.745933 2.3509886e-038
-87.419823 321.23846 -10.8495 2.3509886e-038
-82.594215 322.1069 -10.878831 2.3509886e-038
-77.464783 321.82654 -10.869363 2.3509886e-038
-72.392509 321.76105 -10.86715 2.3509886e-038
-67.349236 321.82425 -10.869285 2.3509886e-038
-62.227104 321.49042 -10.858009 2.3509886e-038
-57.042896 320.74841 -10.83295 2.3509886e-038
-51.835579 319.72015 -10.798222 2.3509886e-038
-46.65733 318.66965 -10.762742 2.3509886e-038
-41.631229 318.53046 -10.75804 2.3509886e-038
-36.893139 320.85828 -10.83666 2.3509886e-038
-35.563446 322.13705 -10.87985 2.3509886e-038
-11.836473 307.88046 -10.398348 9.1476764e-041
-11.200897 307.6564 -10.39078 9.1476764e-041
-6.3397141 306.38425 -10.347815 9.1476764e-041
-1.5245876 306.33228 -10.346059 9.1476764e-041
3.3004558 307.35803 -10.380703 9.1476764e-041
8.1536961 308.2301 -10.410156 9.1476764e-041
8.3014584 308.26114 -10.411203 9.1476764e-041
-143.17169 317.98618 -15.73685 2.3418052e-038
-140.896 316.62027 -15.669252 2.3418052e-038
-135.31618 315.21304 -15.599611 2.3418052e-038
-131.50941 317.98611 -15.736846 2.3418052e-038
-129.01889 324.28656 -16.048651 2.3418052e-038
-128.74763 325.39001 -16.10326 2.3418052e-038
-103.06219 321.83591 -15.927371 2.3509886e-038
-102.62042 321.41296 -15.906438 2.3509886e-038
-96.61293 318.26218 -15.75051 2.3509886e-038
-92.04776 319.77808 -15.82553 2.3509886e-038
-87.616943 321.9628 -15.93365 2.3509886e-038
-82.859482 323.14139 -15.991979 2.3509886e-038
-77.8871 323.58109 -16.013739 2.3509886e-038
-72.83374 323.7222 -16.020721 2.3509886e-038
-67.716507 323.57928 -16.013649 2.3509886e-038
-62.511436 322.95938 -15.98297 2.3509886e-038
-57.283981 322.10403 -15.94064 2.3509886e-038
-52.041573 320.99072 -15.885543 2.3509886e-038
-46.804363 319.67389 -15.820374 2.3509886e-038
-41.703541 319.08374 -15.791168 2.3509886e-038
-36.859753 320.56793 -15.86462 2.3509886e-038
-33.86002 322.38495 -15.954543 2.3509886e-038
-19.548971 313.37247 -15.508522 9.1476764e-041
-16.19046 310.62491 -15.372547 9.1476764e-041
-11.230682 308.47452 -15.266127 9.1476764e-041
-6.3679652 307.74954 -15.230248 9.1476764e-041
-1.5336069 308.14447 -15.249794 9.1476764e-041
3.3287256 309.99066 -15.341161 9.1476764e-041
3.7973597 310.27161 -15.355064 9.1476764e-041
-141.99696 318.604 -20.774305 2.3418052e-038
-141.6824 318.38748 -20.760187 2.3418052e-038
-135.56853 315.8009 -20.591534 2.3418052e-038
-131.55345 318.09262 -20.740961 2.3418052e-038
-129.02188 324.2941 -21.145323 2.3418052e-038
-127.32229 328.33957 -21.409105 2.3509886e-038
-104.62069 326.46115 -21.286623 2.3509886e-038
-104.03915 325.85651 -21.247198 2.3509886e-038
-97.640282 321.64651 -20.972689 2.3509886e-038
-92.674103 321.95404 -20.992743 2.3509886e-038
-88.051262 323.55878 -21.097378 2.3509886e-038
-83.283966 324.79684 -21.178106 2.3509886e-038
-78.304939 325.31699 -21.212021 2.3509886e-038
-73.178085 325.25269 -21.207829 2.3509886e-038
-67.973038 324.80508 -21.178642 2.3509886e-038
-62.722691 324.05078 -21.129459 2.3509886e-038
-57.460709 323.09778 -21.067318 2.3509886e-038
-52.171581 321.7926 -20.982216 2.3509886e-038
-46.890865 320.26471 -20.882589 2.3509886e-038
-41.728081 319.27151 -20.817829 2.3509886e-038
-36.72324 319.38068 -20.824949 2.3509886e-038
-31.731922 319.66064 -20.843203 2.3509886e-038
-26.583103 318.16055 -20.745392 9.1476764e-041
-21.383034 315.21033 -20.553024 9.1476764e-041
-16.286024 312.4584 -20.373587 9.1476764e-041
-11.315243 310.79712 -20.265265 9.1476764e-041
-6.4194207 310.23627 -20.228695 9.1476764e-041
-1.5464926 310.73355 -20.26112 9.1476764e-041
-1.0180682 310.92078 -20.273327 9.1476764e-041
-140.44916 319.61328 -25.862879 2.3418052e-038
-136.40831 317.75714 -25.712681 2.3418052e-038
-131.94514 319.03973 -25.816469 2.3418052e-038
-128.83875 323.8338 -26.204399 2.3418052e-038
-124.96048 327.00229 -26.460793 2.3509886e-038
-124.48307 327.23682 -26.479769 2.3509886e-038
-106.82349 331.3533 -26.812874 2.3509886e-038
-105.22948 329.58469 -26.669758 2.3509886e-038
-98.517548 324.53638 -26.261253 2.3509886e-038
-93.239471 323.91815 -26.211226 2.3509886e-038
-88.409912 324.87674 -26.288792 2.3509886e-038
-83.52552 325.73889 -26.358559 2.3509886e-038
-78.47702 326.03189 -26.382269 2.3509886e-038
-73.302559 325.80594 -26.363983 2.3509886e-038
-68.060913 325.22498 -26.316973 2.3509886e-038
-62.820442 324.55585 -26.262827 2.3509886e-038
-57.555904 323.63303 -26.188154 2.3509886e-038
-52.257984 322.32553 -26.082352 2.3509886e-038
-46.991833 320.95428 -25.971392 2.3509886e-038
-41.825909 320.02002 -25.895794 2.3509886e-038
-36.742283 319.54626 -25.857456 2.3509886e-038
-31.661718 318.9534 -25.809483 2.3509886e-038
-26.541126 317.65814 -25.704672 9.1476764e-041
-21.428509 315.88068 -25.560841 9.1476764e-041
-16.382774 314.31458 -25.434113 9.1476764e-041
-11.411778 313.4487 -25.364044 9.1476764e-041
-6.4873543 313.51935 -25.369762 9.1476764e-041
-5.9086852 313.61105 -25.377184 9.1476764e-041
-139.25702 322.0824 -31.124245 2.3418052e-038
-137.98106 321.42078 -31.06031 2.3418052e-038
-132.70219 320.87021 -31.007107 2.3418052e-038
-128.69878 323.48196 -31.259493 2.3418052e-038
-124.25694 325.16125 -31.42177 2.3418052e-038
-121.02888 326.31363 -31.533125 2.3509886e-038
-109.86112 336.03232 -32.47229 2.3509886e-038
-105.86948 331.58923 -32.042931 2.3509886e-038
-98.990364 326.09393 -31.5119 2.3509886e-038
-93.549568 324.99542 -31.405743 2.3509886e-038
-88.575066 325.48358 -31.452917 2.3509886e-038
-83.584236 325.96783 -31.499714 2.3509886e-038
-78.507133 326.15701 -31.517994 2.3509886e-038
-73.335342 325.95163 -31.498146 2.3509886e-038
-68.093262 325.37955 -31.442862 2.3509886e-038
-62.881252 324.87 -31.393621 2.3509886e-038
-57.642376 324.11923 -31.321075 2.3509886e-038
-52.37056 323.0199 -31.214838 2.3509886e-038
-47.138367 321.95511 -31.111944 2.3509886e-038
-41.986217 321.24655 -31.043476 2.3509886e-038
-36.874794 320.6987 -30.990534 2.3509886e-038
-31.753141 319.87439 -30.910873 9.1476764e-041
-26.630177 318.72394 -30.799704 9.1476764e-041
-21.546188 317.61542 -30.692581 9.1476764e-041
-16.514204 316.83615 -30.617277 9.1476764e-041
-11.540282 316.97833 -30.631018 9.1476764e-041
-10.726053 317.2182 -30.654198 9.1476764e-041
-138.63354 326.39612 -36.670433 2.3418052e-038
-134.18471 324.4549 -36.452339 2.3418052e-038
-128.98087 324.19098 -36.422684 2.3418052e-038
-124.11963 324.80191 -36.491322 2.3418052e-038
-119.86378 327.1174 -36.751469 2.3509886e-038
-116.78983 333.01038 -37.41354 2.3509886e-038
-116.52708 333.63242 -37.483425 2.3509886e-038
-115.32578 335.62897 -37.707733 2.3509886e-038
-112.56769 336.02878 -37.752659 2.3509886e-038
-105.4743 330.35147 -37.114815 2.3509886e-038
-98.931885 325.90131 -36.614838 2.3509886e-038
-93.51899 324.88922 -36.501133 2.3509886e-038
-88.535706 325.33896 -36.551662 2.3509886e-038
-83.583351 325.96439 -36.621929 2.3509886e-038
-78.575508 326.44104 -36.67548 2.3509886e-038
-73.450302 326.46259 -36.677902 2.3509886e-038
-68.223801 326.00336 -36.626305 2.3509886e-038
-62.994831 325.45679 -36.564903 2.3509886e-038
-57.742702 324.68341 -36.478008 2.3509886e-038
-52.483669 323.71756 -36.369499 2.3509886e-038
-47.278172 322.91 -36.27877 2.3509886e-038
-42.137451 322.40369 -36.221886 2.3509886e-038
-37.007271 321.85089 -36.159779 2.3509886e-038
-31.863548 320.9866 -36.062675 2.3509886e-038
-26.770912 320.40836 -35.997707 9.1476764e-041
-21.753653 320.67368 -36.027515 9.1476764e-041
-16.758295 321.5192 -36.122513 9.1476764e-041
-15.211351 322.07968 -36.185486 9.1476764e-041
-138.15416 331.35861 -42.435307 2.3418052e-038
-136.53625 330.1409 -42.279362 2.3418052e-038
-129.76578 326.16385 -41.770046 2.3418052e-038
-124.13898 324.85254 -41.602108 2.3418052e-038
-119.51859 326.17532 -41.771511 2.3509886e-038
-115.48264 329.28311 -42.16951 2.3509886e-038
-110.77655 330.68204 -42.348663 2.3509886e-038
-104.78368 328.18842 -42.02932 2.3509886e-038
-98.857849 325.65741 -41.705185 2.3509886e-038
-93.479416 324.75174 -41.589199 2.3509886e-038
-88.445686 325.00815 -41.62204 2.3509886e-038
-83.544052 325.81116 -41.724876 2.3509886e-038
-78.63372 326.68289 -41.836514 2.3509886e-038
-73.588921 327.07874 -41.887207 2.3509886e-038
-68.392838 326.81104 -41.852924 2.3509886e-038
-63.145325 326.23431 -41.779068 2.3509886e-038
-57.866882 325.38162 -41.669872 2.3509886e-038
-52.597717 324.42099 -41.546844 2.3509886e-038
-47.395382 323.71054 -41.45586 2.3509886e-038
-42.254196 323.29694 -41.402897 2.3509886e-038
-37.108875 322.73453 -41.330872 2.3509886e-038
-31.961023 321.96857 -41.232777 2.3509886e-038
-26.916477 322.15054 -41.256084 9.1476764e-041
-21.98567 324.09387 -41.504951 9.1476764e-041
-18.966505 326.63705 -41.830643 9.1476764e-041
-136.75175 333.92413 -48.011524 2.3418052e-038
-130.69279 328.4939 -47.230762 2.3418052e-038
-124.14532 324.86914 -46.709595 2.3418052e-038
-119.05279 324.90414 -46.71463 2.3509886e-038
-114.50178 326.48633 -46.942116 2.3509886e-038
-109.65555 327.33572 -47.064236 2.3509886e-038
-104.35088 326.83286 -46.99194 2.3509886e-038
-98.907593 325.82126 -46.846489 2.3509886e-038
-93.555351 325.01553 -46.730644 2.3509886e-038
-88.422653 324.92355 -46.717415 2.3509886e-038
-83.508362 325.67197 -46.825024 2.3509886e-038
-78.665611 326.8154 -46.989426 2.3509886e-038
-73.714821 327.63831 -47.107746 2.3509886e-038
-68.597321 327.78818 -47.129292 2.3509886e-038
-63.361973 327.35361 -47.066811 2.3509886e-038
-58.034615 326.3248 -46.918888 2.3509886e-038
-52.724571 325.20343 -46.757656 2.3509886e-038
-47.511063 324.50064 -46.656616 2.3509886e-038
-42.352669 324.05038 -46.591877 2.3509886e-038
-37.182728 323.3768 -46.495029 2.3509886e-038
-32.040051 322.76468 -46.407013 2.3509886e-038
-27.014626 323.32526 -46.487614 2.3509886e-038
-22.113235 325.97433 -46.868504 2.3509886e-038
-21.726683 326.43472 -46.934692 2.3509886e-038
-134.06975 333.16086 -53.137417 2.3418052e-038
-131.51117 330.55084 -52.721138 2.3418052e-038
-124.22046 325.06577 -51.846294 2.3418052e-038
-118.72903 324.0206 -51.679596 2.3509886e-038
-113.9142 324.81091 -51.805649 2.3509886e-038
-108.99979 325.37817 -51.896126 2.3509886e-038
-103.95407 325.59003 -51.929909 2.3509886e-038
-98.796844 325.45645 -51.908604 2.3509886e-038
-93.537346 324.953 -51.828308 2.3509886e-038
-88.358688 324.68848 -51.786118 2.3509886e-038
-83.432549 325.37631 -51.895824 2.3509886e-038
-78.66539 326.81448 -52.125206 2.3509886e-038
-73.81292 328.07431 -52.326141 2.3509886e-038
-68.772949 328.62741 -52.414356 2.3509886e-038
-63.544655 328.29736 -52.361721 2.3509886e-038
-58.192501 327.21259 -52.188698 2.3509886e-038
-52.874794 326.12997 -52.016029 2.3509886e-038
-47.643967 325.40836 -51.90094 2.3509886e-038
-42.429493 324.63818 -51.778099 2.3509886e-038
-37.227142 323.76306 -51.638523 2.3509886e-038
-32.124191 323.61227 -51.614471 2.3509886e-038
-27.136122 324.77936 -51.800617 2.3509886e-038
-23.866613 326.29062 -52.041649 2.3509886e-038
-130.86858 331.24515 -58.037434 2.3418052e-038
-124.64892 326.18698 -57.151192 2.3509886e-038
-118.69733 323.93408 -56.756458 2.3509886e-038
-113.46668 323.53488 -56.686516 2.3509886e-038
-108.34179 323.41397 -56.665333 2.3509886e-038
-103.32443 323.61795 -56.701077 2.3509886e-038
-98.31958 323.88425 -56.74773 2.3509886e-038
-93.216095 323.83691 -56.739437 2.3509886e-038
-88.10405 323.75275 -56.724693 2.3509886e-038
-83.229866 324.58588 -56.870667 2.3509886e-038
-78.561348 326.38226 -57.185406 2.3509886e-038
-73.807983 328.05237 -57.478027 2.3509886e-038
-68.829697 328.89859 -57.626293 2.3509886e-038
-63.621773 328.69583 -57.590767 2.3509886e-038
-58.310436 327.87573 -57.447075 2.3509886e-038
-53.035297 327.11996 -57.314659 2.3509886e-038
-47.783222 326.35947 -57.181416 2.3509886e-038
-42.493927 325.1312 -56.966209 2.3509886e-038
-37.262291 324.06876 -56.78006 2.3509886e-038
-32.222542 324.60306 -56.873672 2.3509886e-038
-27.317516 326.95041 -57.28495 2.3509886e-038
-25.462778 328.2009 -57.504051 2.3509886e-038
-128.07899 330.83588 -63.164852 2.3509886e-038
-125.66416 328.84372 -62.7845 2.3509886e-038
-119.01435 324.79922 -62.01231 2.3509886e-038
-113.14537 322.61871 -61.595997 2.3509886e-038
-107.70358 321.50882 -61.384087 2.3509886e-038
-102.5771 321.27728 -61.339882 2.3509886e-038
-97.604027 321.52707 -61.387569 2.3509886e-038
-92.64035 321.83676 -61.446701 2.3509886e-038
-87.681999 322.20187 -61.516407 2.3509886e-038
-82.922142 323.38574 -61.742439 2.3509886e-038
-78.344795 325.48254 -62.142769 2.3509886e-038
-73.681213 327.48892 -62.525837 2.3509886e-038
-68.779984 328.66101 -62.749626 2.3509886e-038
-63.643486 328.80801 -62.777683 2.3509886e-038
-58.402153 328.39142 -62.698147 2.3509886e-038
-53.150494 327.83051 -62.591053 2.3509886e-038
-47.865337 326.92032 -62.417278 2.3509886e-038
-42.536453 325.45657 -62.13781 2.3509886e-038
-37.303478 324.42697 -61.941235 2.3509886e-038
-32.313293 325.51724 -62.149395 2.3509886e-038
-27.485624 328.96237 -62.807159 2.3509886e-038
-26.56778 329.89597 -62.985405 2.3509886e-038
-125.61751 331.43747 -68.488274 2.3509886e-038
-119.61551 326.43985 -67.455559 2.3509886e-038
-112.98598 322.16425 -66.572044 2.3509886e-038
-107.22588 320.08282 -66.141937 2.3509886e-038
-101.99203 319.44476 -66.010094 2.3509886e-038
-96.980888 319.4743 -66.016205 2.3509886e-038
-92.102539 319.96841 -66.118301 2.3509886e-038
-87.311798 320.84149 -66.298714 2.3509886e-038
-82.679565 322.43973 -66.628975 2.3509886e-038
-78.174355 324.77448 -67.111427 2.3509886e-038
-73.587578 327.07278 -67.586349 2.3509886e-038
-68.753227 328.53317 -67.888123 2.3509886e-038
-63.67535 328.97263 -67.978935 2.3509886e-038
-58.459927 328.71628 -67.925957 2.3509886e-038
-53.172016 327.96323 -67.770355 2.3509886e-038
-47.843399 326.77051 -67.523888 2.3509886e-038
-42.536469 325.45667 -67.252396 2.3509886e-038
-37.363716 324.95084 -67.147873 2.3509886e-038
-32.420353 326.59573 -67.48777 2.3509886e-038
-27.637297 330.70688 -68.337296 2.3509886e-038
-123.07755 331.51236 -73.713509 2.3509886e-038
-120.51959 328.90717 -73.134232 2.3509886e-038
-113.13453 322.5878 -71.72908 2.3509886e-038
-107.06306 319.59677 -71.064011 2.3509886e-038
-101.76441 318.73187 -70.871704 2.3509886e-038
-96.71669 318.604 -70.843262 2.3509886e-038
-91.898628 319.26001 -70.989136 2.3509886e-038
-87.214317 320.48331 -71.261139 2.3509886e-038
-82.638268 322.27872 -71.660355 2.3509886e-038
-78.178085 324.78998 -72.218742 2.3509886e-038
-73.667717 327.42892 -72.805542 2.3509886e-038
-68.835426 328.92596 -73.138405 2.3509886e-038
-63.719032 329.1983 -73.198967 2.3509886e-038
-58.478565 328.82111 -73.115089 2.3509886e-038
-53.162327 327.90347 -72.911057 2.3509886e-038
-47.830952 326.68546 -72.640221 2.3509886e-038
-42.603474 325.96936 -72.480995 2.3509886e-038
-37.551689 326.58566 -72.618027 2.3509886e-038
-32.689472 329.30676 -73.223076 2.3509886e-038
-28.929642 333.03036 -74.051048 2.3509886e-038
-119.96201 330.61035 -78.708527 2.3509886e-038
-113.97263 324.97751 -77.367516 2.3509886e-038
-107.47775 320.83469 -76.381226 2.3509886e-038
-101.91788 319.21255 -75.995041 2.3509886e-038
-96.762405 318.75458 -75.886017 2.3509886e-038
-91.939636 319.40247 -76.040253 2.3509886e-038
-87.292397 320.7702 -76.365875 2.3509886e-038
-82.744415 322.69266 -76.823555 2.3509886e-038
-78.303307 325.31021 -77.446716 2.3509886e-038
-73.812408 328.07205 -78.104225 2.3509886e-038
-68.964157 329.54105 -78.453957 2.3509886e-038
-63.799187 329.61243 -78.470947 2.3509886e-038
-58.53022 329.11154 -78.3517 2.3509886e-038
-53.232452 328.33603 -78.167076 2.3509886e-038
-47.970921 327.64145 -78.001717 2.3509886e-038
-42.868851 327.99982 -78.087036 2.3509886e-038
-37.969322 330.21777 -78.615059 2.3509886e-038
-33.197556 334.42511 -79.616707 2.3509886e-038
-30.604153 337.5416 -80.358658 2.3509886e-038
-117.35767 332.49011 -84.381142 2.3509886e-038
-116.19045 331.30136 -84.079453 2.3509886e-038
-108.7766 324.71194 -82.407158 2.3509886e-038
-102.48151 320.97787 -81.459503 2.3509886e-038
-97.018082 319.59686 -81.109016 2.3509886e-038
-92.100975 319.96298 -81.201935 2.3509886e-038
-87.416481 321.22617 -81.522514 2.3509886e-038
-82.863503 323.15707 -82.01255 2.3509886e-038
-78.417168 325.78323 -82.679024 2.3509886e-038
-73.900337 328.46283 -83.35907 2.3509886e-038
-69.064102 330.01868 -83.753922 2.3509886e-038
-63.922749 330.25076 -83.812828 2.3509886e-038
-58.671349 329.90509 -83.725098 2.3509886e-038
-53.428619 329.54596 -83.633957 2.3509886e-038
-48.266258 329.65863 -83.662544 2.3509886e-038
-43.28944 331.21786 -84.058258 2.3509886e-038
-38.536003 335.14621 -85.055214 2.3509886e-038
-33.839466 340.8916 -86.513313 2.3509886e-038
-32.823509 342.35803 -86.885468 2.3509886e-038
-113.70198 333.67795 -89.926392 2.3509886e-038
-110.74934 330.6008 -89.097099 2.3509886e-038
-103.58667 324.43933 -87.436577 2.3509886e-038
-97.642296 321.65314 -86.685692 2.3509886e-038
-92.515755 321.40393 -86.618538 2.3509886e-038
-87.714699 322.32205 -86.865967 2.3509886e-038
-83.089111 324.03693 -87.328125 2.3509886e-038
-78.598366 326.53604 -88.00164 2.3509886e-038
-74.054214 329.14676 -88.705231 2.3509886e-038
-69.246384 330.88968 -89.17495 2.3509886e-038
-64.143456 331.39105 -89.310074 2.3509886e-038
-58.920742 331.3074 -89.287537 2.3509886e-038
-53.743061 331.48541 -89.335503 2.3509886e-038
-48.675266 332.45215 -89.596039 2.3509886e-038
-43.7785 334.95975 -90.271835 2.3509886e-038
-39.092812 339.98877 -91.627159 2.3509886e-038
-35.391289 345.47803 -93.106522 2.3509886e-038
-107.49854 331.76495 -94.624573 2.3509886e-038
-105.33248 329.90726 -94.094727 2.3509886e-038
-98.917824 325.85498 -92.93895 2.3509886e-038
-93.470139 324.71951 -92.615097 2.3509886e-038
-88.448845 325.01978 -92.700737 2.3509886e-038
-83.662117 326.27158 -93.05777 2.3509886e-038
-79.086731 328.56491 -93.711861 2.3509886e-038
-74.530434 331.26343 -94.481522 2.3509886e-038
-69.730316 333.20215 -95.034477 2.3509886e-038
-64.581825 333.65582 -95.163872 2.3509886e-038
-59.316139 333.53073 -95.128197 2.3509886e-038
-54.173164 334.13831 -95.301476 2.3509886e-038
-49.199223 336.03079 -95.841248 2.3509886e-038
-44.363422 339.43515 -96.812225 2.3509886e-038
-39.66095 344.92981 -98.379387 2.3509886e-038
-38.14159 347.12839 -99.006462 2.3509886e-038
-99.750397 331.97321 -99.90094 2.3509886e-038
-95.262978 330.94791 -99.592392 2.3509886e-038
-89.964401 330.58893 -99.484367 2.3509886e-038
-84.881615 331.02744 -99.616333 2.3509886e-038
-80.143547 332.95547 -100.19654 2.3509886e-038
-75.538933 335.74588 -101.03625 2.3509886e-038
-70.693939 337.80673 -101.65643 2.3509886e-038
-65.444664 338.11362 -101.74878 2.3509886e-038
-60.067734 337.7569 -101.64143 2.3509886e-038
-54.868462 338.42685 -101.84304 2.3509886e-038
-49.927872 341.00745 -102.61962 2.3509886e-038
-45.162991 345.55283 -103.98747 2.3509886e-038
-41.971706 349.77689 -105.25862 2.3509886e-038
-92.994255 341.28482 -108.06642 2.3509886e-038
-92.864639 341.24634 -108.05424 2.3509886e-038
-87.222298 340.15585 -107.70894 2.3509886e-038
-82.122978 341.17899 -108.03291 2.3509886e-038
-77.301987 343.58206 -108.79384 2.3509886e-038
-72.268402 345.33023 -109.34739 2.3509886e-038
-66.969627 345.99222 -109.557 2.3509886e-038
-61.554829 346.11871 -109.59705 2.3509886e-038
-56.204929 346.67017 -109.77167 2.3509886e-038
-51.075756 348.8475 -110.46111 2.3509886e-038
-48.563171 350.99872 -111.1423 2.3509886e-038
-139.41132 313.28394 -7.1596813 2.3418052e-038
-141.79892 318.64932 -21.360355 2.3418052e-038
-135.66684 316.02991 -6.1375957 2.3418052e-038
-138.9261 323.62222 -33.363106 2.3418052e-038
-132.5415 320.48172 -8.7834854 2.3418052e-038
-137.69183 332.93506 -44.965359 2.3418052e-038
-129.0462 324.35522 -14.841999 2.3418052e-038
-132.03333 331.86325 -56.20462 2.3418052e-038
-125.22533 327.69537 -25.346859 2.3509886e-038
-126.55962 331.18698 -66.397987 2.3509886e-038
-105.6762 288.39841 50.494801 2.3418409e-038
-104.27554 284.57587 29.351023 2.3418409e-038
-119.87757 327.15503 -33.361622 2.3509886e-038
-121.24912 330.8981 -76.653564 2.3509886e-038
-101.71606 290.02957 49.988621 2.3418409e-038
-101.04788 288.12436 16.093477 2.3418409e-038
-116.80932 333.06595 -37.325073 2.3509886e-038
-116.79015 333.01129 -85.558411 2.3509886e-038
-97.447784 290.89398 43.831951 2.3418409e-038
-102.2901 305.34891 3.1156528 2.3418409e-038
-112.95638 337.18912 -36.638344 2.3509886e-038
-111.60693 333.16083 -91.821701 2.3509886e-038
-97.913834 306.67166 33.944763 2.3509886e-038
-105.83315 331.47537 -95.751175 2.3509886e-038
-94.53952 311.43198 24.354105 2.3509886e-038
-100.67058 331.62888 -99.190971 2.3509886e-038
-90.910767 315.82816 10.316673 2.3509886e-038
-96.503563 335.25778 -103.29932 2.3509886e-038
-88.094116 323.71625 1.0251859 2.3509886e-038
-92.908073 341.40594 -108.16902 2.3509886e-038
-83.170547 324.35452 -1.5513471 2.3509886e-038
-88.756683 346.13974 -112.3115 2.3509886e-038
-77.406532 321.58456 1.2079414 2.3509886e-038
-84.536125 351.20441 -115.78532 2.3509886e-038
-69.218079 307.65173 50.031307 3.5733111e-043
-79.762482 354.51819 -117.53079 2.3509886e-038
-63.825466 304.98615 68.554695 3.5733111e-043
-74.170746 354.42044 -117.26486 2.3509886e-038
-59.66407 308.24872 70.174332 3.5733111e-043
-68.673218 354.79364 -117.08911 2.3509886e-038
-56.942509 320.18393 -0.15655923 2.3509886e-038
-63.158833 355.13791 -116.7571 2.3509886e-038
-51.639988 318.51376 1.1446301 2.3509886e-038
-57.360703 353.79892 -115.36511 2.3509886e-038
-45.5378 311.02322 12.610209 2.3509528e-038
-51.46656 351.51669 -112.7661 2.3509886e-038
-39.408016 301.52017 27.422977 2.3509528e-038
-45.851597 350.82153 -109.24041 2.3509886e-038
-35.216858 306.27972 42.205837 2.3509528e-038
-40.078476 348.561 -102.48916 2.3509886e-038
-30.191965 304.14743 51.46236 2.3509528e-038
-31.277992 315.08783 7.5681424 2.3509528e-038
-31.934238 321.69873 -17.603302 2.3509886e-038
-34.181751 344.33969 -90.271233 2.3509886e-038
-25.427711 304.33221 53.319122 2.3509528e-038
-25.933464 310.38535 31.549908 2.3509528e-038
-26.675579 319.26733 -18.273022 2.3509886e-038
-27.630789 330.6998 -68.306511 2.3509886e-038
-21.3773 315.12582 -16.475786 9.1476764e-041
-22.129381 326.21234 -47.791733 2.3509886e-038
-16.168737 310.20816 -13.396541 9.1476764e-041
-16.904768 324.32938 -38.58614 9.1476764e-041
-11.203615 307.73102 -9.9522734 9.1476764e-041
-11.576199 317.96484 -31.639154 9.1476764e-041
-6.3380909 306.30579 -6.5838389 9.1476764e-041
-6.4982996 314.04831 -26.013239 9.1476764e-041
-1.5157061 304.5477 -3.1303051 9.1476764e-041
-1.548542 311.14536 -20.820015 9.1476764e-041
3.2557933 303.19879 0.99596488 9.1476764e-041
3.3321691 310.31134 -15.834548 9.1476764e-041
8.0275974 303.46326 4.7443857 9.1476764e-041
8.1570368 308.35641 -10.580023 9.1476764e-041
12.897529 305.85764 6.0621743 9.1476764e-041
12.953885 307.19409 -4.3745213 9.1476764e-041
