# .PCD v0.7 - Point Cloud Data file format
VERSION 0.7
FIELDS x y z rgb
SIZE 4 4 4 4
TYPE F F F F
COUNT 1 1 1 1
WIDTH 715
HEIGHT 1
VIEWPOINT 0 0 0 1 0 0 0
POINTS 715
DATA ascii
-117.73314 242.6983 -34.291203 2.3418052e-038
-85.612663 263.44754 58.315872 9.1476764e-041
-47.163734 263.52988 74.469055 3.5733111e-043
31.172806 254.57033 31.172806 2.3509528e-038
-15.906738 259.80231 68.521332 2.3418409e-038
-50.965771 261.62598 77.103645 3.5733111e-043
-48.885445 262.40936 77.334518 3.5733111e-043
-44.502064 265.11026 78.130501 3.5733111e-043
-43.925232 265.5318 78.25473 3.5733111e-043
-52.556988 262.53574 72.532669 3.5733111e-043
-49.0784 263.4451 72.783905 3.5733111e-043
-44.657764 266.03778 73.500198 3.5733111e-043
-42.121372 268.2663 74.115891 3.5733111e-043
-19.00359 259.60284 71.722374 2.3418409e-038
-14.842801 259.17419 71.603943 2.3418409e-038
-12.829091 259.34021 71.649811 2.3418409e-038
-53.048695 263.48386 67.938034 3.5733111e-043
-49.187405 264.03021 68.078911 3.5733111e-043
-44.673752 266.13303 68.621117 3.5733111e-043
-41.083923 268.14209 69.139145 3.5733111e-043
-20.579206 260.33075 67.125023 2.3418409e-038
-19.691759 260.1228 67.071411 2.3418409e-038
-14.900148 260.17557 67.085007 2.3418409e-038
-11.191541 260.86118 67.261795 2.3418409e-038
-87.743774 261.56177 62.621296 9.1476764e-041
-87.329659 261.66055 62.644936 9.1476764e-041
-83.092941 263.51978 63.090057 9.1476764e-041
-82.591354 263.80325 63.157932 9.1476764e-041
-53.429832 265.11264 63.471413 3.5733111e-043
-49.296597 264.61633 63.352592 3.5733111e-043
-44.635254 265.90372 63.660809 3.5733111e-043
-40.515316 267.54889 64.05468 3.5733111e-043
-21.092762 260.67856 62.409836 2.3418409e-038
-19.716358 260.44775 62.354576 2.3418409e-038
-14.952785 261.09467 62.509457 2.3418409e-038
-10.720716 262.49243 62.844097 2.3418409e-038
-90.00946 262.14624 57.929306 9.1476764e-041
-87.610207 262.50116 58.007736 9.1476764e-041
-83.265778 264.0679 58.353958 9.1476764e-041
-79.957962 265.93359 58.766243 9.1476764e-041
-53.786312 266.8519 58.96917 3.5733111e-043
-49.418037 265.26822 58.619202 3.5733111e-043
-44.648979 265.98547 58.777702 3.5733111e-043
-40.254955 268.09183 59.243168 3.5733111e-043
-21.630745 261.42566 57.770069 2.3418409e-038
-19.743832 260.81067 57.634171 2.3418409e-038
-14.970201 261.39877 57.76413 2.3418409e-038
-10.646864 263.75327 58.284428 2.3418409e-038
-90.197235 262.85034 53.240005 9.1476764e-041
-87.830482 263.16116 53.302963 9.1476764e-041
-83.284813 264.12823 53.49884 9.1476764e-041
-79.006912 266.11737 53.901737 9.1476764e-041
-78.451416 266.73248 54.026329 9.1476764e-041
-54.124825 268.53354 54.391129 3.5733111e-043
-49.595413 266.22034 53.922592 3.5733111e-043
-44.762562 266.66211 54.012077 3.5733111e-043
-40.229622 269.22 54.53017 3.5733111e-043
-39.886799 269.504 54.5877 3.5733111e-043
-22.37789 261.22247 52.910286 2.3418409e-038
-19.697243 260.19525 52.702221 2.3418409e-038
-14.949839 261.04321 52.873978 2.3418409e-038
-10.660599 264.65561 53.605663 2.3418409e-038
-89.848534 264.09033 48.623409 9.1476764e-041
-88.063873 263.86044 48.581081 9.1476764e-041
-83.098083 263.53607 48.521362 9.1476764e-041
-78.616585 264.80264 48.754559 9.1476764e-041
-76.918983 266.56976 49.079914 9.1476764e-041
-54.463196 270.24719 49.756989 3.5733111e-043
-49.802612 267.33255 49.220356 3.5733111e-043
-44.877075 267.3443 49.222519 3.5733111e-043
-40.280243 269.55875 49.630241 3.5733111e-043
-39.230949 270.2663 49.760509 3.5733111e-043
-23.385191 260.81943 48.021183 2.3418409e-038
-19.628864 259.29196 47.739952 2.3418409e-038
-14.923461 260.58261 47.977585 2.3418409e-038
-10.666819 264.83218 48.760002 2.3418409e-038
-89.433464 265.90958 44.057083 9.1476764e-041
-88.595375 265.45294 43.981426 9.1476764e-041
-82.965691 263.11618 43.594261 9.1476764e-041
-78.194199 263.37994 43.637959 9.1476764e-041
-75.041275 266.40088 44.138481 9.1476764e-041
-54.346817 270.06882 44.746204 3.5733111e-043
-49.872169 267.70593 44.35471 3.5733111e-043
-44.922668 267.61591 44.339794 3.5733111e-043
-40.260391 269.4259 44.639679 3.5733111e-043
-38.616959 270.43695 44.807198 3.5733111e-043
-24.682775 262.72571 43.529564 2.3418409e-038
-19.623554 259.22183 42.949024 2.3418409e-038
-14.902822 260.22226 43.11478 2.3418409e-038
-10.62722 263.82886 43.712337 2.3418409e-038
-88.41806 266.3522 39.220974 9.1476764e-041
-82.867775 262.80563 38.698734 9.1476764e-041
-77.897247 262.37973 38.636017 9.1476764e-041
-73.787582 264.98898 39.020237 9.1476764e-041
-72.855179 265.98282 39.166576 9.1476764e-041
-54.046341 269.95963 39.752174 2.3509886e-038
-49.94944 268.1207 39.481388 3.5733111e-043
-44.964203 267.86334 39.443489 3.5733111e-043
-40.201332 269.0307 39.615387 3.5733111e-043
-38.208359 270.02722 39.762127 3.5733111e-043
-25.850492 265.08768 39.034763 2.3418409e-038
-24.82785 263.7504 38.837849 2.3418409e-038
-19.650885 259.58286 38.224167 2.3418409e-038
-14.903664 260.23694 38.320484 2.3418409e-038
-10.625615 263.24139 38.762897 2.3418409e-038
-86.653191 264.68335 34.096554 9.1476764e-041
-82.65741 262.13852 33.768734 9.1476764e-041
-77.727989 261.80963 33.72636 9.1476764e-041
-73.519348 264.0257 34.011837 9.1476764e-041
-70.782997 266.27905 34.302116 9.1476764e-041
-53.671463 271.05511 34.917366 3.5733111e-043
-50.132187 269.10165 34.665722 3.5733111e-043
-44.995483 268.04968 34.530209 3.5733111e-043
-40.177475 268.87103 34.636017 3.5733111e-043
-38.081505 269.99216 34.780434 3.5733111e-043
-26.590755 266.71704 34.35854 2.3418409e-038
-24.903576 264.55484 34.080002 2.3418409e-038
-19.702826 260.26898 33.527901 2.3418409e-038
-14.928612 260.67258 33.579887 2.3418409e-038
-10.774759 263.55505 33.951206 2.3418409e-038
27.111343 254.25542 32.753227 2.3509528e-038
27.606888 254.16112 32.741081 2.3509528e-038
32.401226 255.02371 32.852203 2.3509528e-038
35.518204 256.84137 33.086353 2.3509528e-038
-84.903969 263.15674 29.049356 9.1476764e-041
-82.614746 262.0032 28.922022 9.1476764e-041
-77.81913 262.11661 28.934538 9.1476764e-041
-73.618782 264.38278 29.184698 9.1476764e-041
-69.53611 267.42273 29.520271 9.1476764e-041
-69.051445 268.05435 29.589996 2.3509886e-038
-53.206482 272.75095 30.108442 2.3509886e-038
-50.455551 270.83743 29.897213 3.5733111e-043
-45.076115 268.53 29.642502 3.5733111e-043
-40.239647 269.28708 29.726072 3.5733111e-043
-38.056347 270.81384 29.894611 3.5733111e-043
-27.144773 268.48874 29.637945 2.3418409e-038
-25.027956 265.87613 29.349546 2.3418409e-038
-19.81439 261.74274 28.893269 2.3418409e-038
-14.989804 261.74106 28.893084 2.3418409e-038
-11.188758 264.63919 29.213001 2.3418409e-038
23.254196 255.86203 28.244108 2.3509528e-038
27.640821 254.47354 28.090836 2.3509528e-038
32.546398 256.16635 28.2777 2.3509528e-038
35.420994 258.2113 28.503441 2.3509528e-038
-83.619812 263.40643 24.221773 9.1476764e-041
-82.977249 263.15283 24.198454 9.1476764e-041
-78.107323 263.08731 24.192429 9.1476764e-041
-73.726196 264.76855 24.347027 9.1476764e-041
-69.588074 267.62259 24.609474 9.1476764e-041
-67.722549 271.14539 24.933414 9.1476764e-041
-53.317783 276.38452 25.415186 2.3509886e-038
-51.039894 273.97409 25.193533 2.3509886e-038
-45.264729 269.65366 24.796242 3.5733111e-043
-40.330425 269.89456 24.818396 3.5733111e-043
-37.65591 271.77457 24.991272 3.5733111e-043
-27.869516 269.96747 24.8251 2.3418409e-038
-25.123714 266.8934 24.542423 2.3418409e-038
-19.923876 263.189 24.201778 2.3418409e-038
-15.05902 262.94968 24.179771 2.3418409e-038
-11.895145 265.23575 24.38999 2.3418409e-038
19.458908 256.84964 23.618837 2.3509528e-038
23.07515 255.85747 23.527601 2.3509528e-038
27.866283 256.54922 23.591215 2.3509528e-038
33.090763 260.45093 23.949997 2.3509528e-038
34.284737 261.73584 24.068153 2.3509528e-038
-82.658669 265.40253 19.513395 9.1476764e-041
-78.57885 264.67557 19.459946 9.1476764e-041
-73.82048 265.10712 19.491676 9.1476764e-041
-69.495461 267.26642 19.650436 9.1476764e-041
-66.137054 272.9621 20.069204 9.1476764e-041
-53.766777 279.50693 20.550404 2.3509886e-038
-51.523335 276.56912 20.334406 2.3509886e-038
-45.475246 270.90775 19.918161 2.3509886e-038
-40.365185 270.1272 19.860773 3.5733111e-043
-36.144772 272.23462 20.015717 3.5733111e-043
-29.688375 272.10989 20.006546 2.3418409e-038
-25.214821 267.86124 19.69417 2.3418409e-038
-20.028034 264.56491 19.451811 2.3418409e-038
-15.152362 264.57953 19.452887 2.3418409e-038
-12.669792 266.34622 19.582781 2.3418409e-038
15.198154 256.95071 18.891987 2.3509528e-038
18.337584 255.55707 18.78952 2.3509528e-038
23.075647 255.86298 18.812012 2.3509528e-038
28.085503 258.56744 19.010855 2.3509528e-038
31.790998 262.79803 19.321903 2.3509528e-038
-81.548622 267.97528 14.763185 9.1476764e-041
-79.284973 267.05396 14.712429 9.1476764e-041
-74.055626 265.9516 14.651698 9.1476764e-041
-69.469978 267.16843 14.718735 9.1476764e-041
-65.486946 271.06531 14.933419 9.1476764e-041
-63.746334 274.46552 15.120742 2.3509886e-038
-54.593636 281.0592 15.483999 2.3509886e-038
-51.693398 277.48199 15.286925 2.3509886e-038
-45.631908 271.84103 14.976155 2.3509886e-038
-40.343178 269.97992 14.873624 2.3509886e-038
-35.497005 270.97327 14.928349 2.3509886e-038
-30.591766 271.76721 14.972088 2.3509886e-038
-25.255228 268.2905 14.78055 2.3418409e-038
-20.128105 265.88681 14.648129 2.3418409e-038
-15.263844 266.52615 14.683351 2.3418409e-038
-12.981125 268.38239 14.785614 2.3418409e-038
10.71174 259.59186 14.301329 2.3509528e-038
13.730123 257.48862 14.185457 2.3509528e-038
18.37018 256.01132 14.104073 2.3509528e-038
23.167234 256.87851 14.151846 2.3509528e-038
28.315889 260.80807 14.368333 2.3509528e-038
-80.190002 270.30298 9.9091682 9.1476764e-041
-74.434814 267.31335 9.7995701 9.1476764e-041
-69.577492 267.58188 9.809413 9.1476764e-041
-65.176971 269.78226 9.8900776 9.1476764e-041
-61.034927 273.50433 10.026527 2.3509886e-038
-56.719063 277.04764 10.156423 2.3509886e-038
-51.285553 275.29276 10.09209 2.3509886e-038
-45.717087 272.34845 9.9841547 2.3509886e-038
-40.445435 270.66425 9.922411 2.3509886e-038
-35.429588 270.45865 9.9148741 2.3509886e-038
-30.45306 270.53497 9.9176722 2.3509886e-038
-25.275589 268.50681 9.8433208 2.3509886e-038
-20.216267 267.05139 9.7899656 2.3418409e-038
-15.308131 267.29947 9.7990608 2.3418409e-038
-12.103862 268.66656 9.8491774 2.3509528e-038
5.69736 261.51697 9.5870762 2.3509528e-038
9.0606413 259.68341 9.5198593 2.3509528e-038
13.775258 258.33505 9.4704294 2.3509528e-038
18.512318 257.99222 9.4578609 2.3509528e-038
23.397795 259.43494 9.5107508 2.3509528e-038
24.930132 260.38242 9.5454845 2.3509528e-038
-78.564651 271.11874 4.9417715 9.1476764e-041
-74.862679 268.84991 4.9004169 9.1476764e-041
-69.734116 268.18423 4.8882837 9.1476764e-041
-65.088058 269.41422 4.9107027 2.3509886e-038
-60.427132 270.78073 4.9356112 2.3509886e-038
-55.726639 272.2001 4.961482 2.3509886e-038
-50.826714 272.82977 4.972959 2.3509886e-038
-45.739727 272.48331 4.9666443 2.3509886e-038
-40.597015 271.67862 4.9519768 2.3509886e-038
-35.515629 271.11545 4.9417119 2.3509886e-038
-30.472982 270.71194 4.9343572 2.3509886e-038
-25.349485 269.29178 4.9084716 2.3509886e-038
-20.284664 267.95493 4.8841033 2.3509886e-038
-15.289552 266.97504 4.8662429 2.3509528e-038
-10.353601 266.58786 4.8591857 2.3509528e-038
-8.2692728 266.79895 4.8630333 2.3509528e-038
-1.210072 265.16898 4.833323 2.3509528e-038
-0.52245814 264.77902 4.8262157 2.3509528e-038
4.3202882 262.48904 4.7844753 2.3509528e-038
9.1136913 261.20383 4.7610493 2.3509528e-038
13.888635 260.46127 4.7475142 2.3509528e-038
18.696028 260.55243 4.749176 2.3509528e-038
21.634817 261.75699 4.771132 2.3509528e-038
-77.543526 271.88953 -0.05568679 9.1476764e-041
-75.278419 270.34293 -0.055370018 9.1476764e-041
-69.936989 268.96445 -0.055087686 2.3509886e-038
-65.16011 269.71246 -0.055240888 2.3509886e-038
-60.338158 270.38205 -0.055378035 2.3509886e-038
-55.512989 271.15652 -0.055536658 2.3509886e-038
-50.683739 272.06232 -0.055722173 2.3509886e-038
-45.699444 272.24335 -0.055759255 2.3509886e-038
-40.624039 271.85947 -0.055680629 2.3509886e-038
-35.599178 271.75327 -0.055658873 2.3509886e-038
-30.562698 271.50897 -0.055608843 2.3509886e-038
-25.446478 270.32217 -0.055365771 2.3509886e-038
-20.350079 268.819 -0.055057898 2.3509886e-038
-15.296864 267.10272 -0.05470638 2.3509528e-038
-10.326996 265.90283 -0.054460622 2.3509528e-038
-5.4141569 265.33002 -0.054343306 2.3509528e-038
-0.52260494 264.85345 -0.054245699 2.3509528e-038
4.3528175 264.46545 -0.054166231 2.3509528e-038
9.2143307 264.08823 -0.054088965 2.3509528e-038
14.058919 263.65472 -0.054000176 2.3509528e-038
18.341566 263.95844 -0.054062385 2.3509886e-038
-77.235558 272.92551 -5.0864916 2.3509886e-038
-75.671936 271.75613 -5.0646987 2.3509886e-038
-70.232513 270.10095 -5.0338511 2.3509886e-038
-65.354385 270.5166 -5.0415978 2.3509886e-038
-60.463772 270.94492 -5.0495801 2.3509886e-038
-55.626926 271.71304 -5.0638957 2.3509886e-038
-50.767456 272.51169 -5.0787802 2.3509886e-038
-45.743816 272.50769 -5.0787053 2.3509886e-038
-40.674736 272.19873 -5.0729475 2.3509886e-038
-35.677273 272.3494 -5.0757551 2.3509886e-038
-30.633471 272.13766 -5.0718093 2.3509886e-038
-25.536797 271.28162 -5.0558553 2.3509886e-038
-20.449331 270.13013 -5.0343952 2.3509886e-038
-15.3898 268.72552 -5.0082173 2.3509886e-038
-10.398817 267.75211 -4.9900761 2.3509528e-038
-5.4502788 267.10025 -4.9779272 2.3509528e-038
-0.52632517 266.73883 -4.9711919 2.3509528e-038
4.3936286 266.94504 -4.9750342 2.3509528e-038
9.3320904 267.46326 -4.9846926 2.3509528e-038
14.314424 268.44632 -5.0030141 2.3509886e-038
15.386042 268.84204 -5.0103889 2.3509886e-038
-77.439255 274.3284 -10.1691 2.3509886e-038
-76.111923 273.33624 -10.132321 2.3509886e-038
-70.621559 271.59717 -10.067856 2.3509886e-038
-65.643585 271.71368 -10.072174 2.3509886e-038
-60.700447 272.00549 -10.082992 2.3509886e-038
-55.837936 272.74374 -10.110358 2.3509886e-038
-50.91787 273.31909 -10.131686 2.3509886e-038
-45.878387 273.30939 -10.131326 2.3509886e-038
-40.797527 273.02048 -10.120616 2.3509886e-038
-35.738132 272.81396 -10.112962 2.3509886e-038
-30.67375 272.49551 -10.101156 2.3509886e-038
-25.624113 272.20923 -10.090544 2.3509886e-038
-20.565874 271.66962 -10.070542 2.3509886e-038
-15.51717 270.94955 -10.043849 2.3509886e-038
-10.504889 270.48325 -10.026564 2.3509886e-038
-5.5046296 269.76379 -9.9998941 2.3509886e-038
-0.53018707 268.69604 -9.9603138 2.3509528e-038
4.4237571 268.77554 -9.9632607 2.3509886e-038
9.4369411 270.46835 -10.026011 2.3509886e-038
12.772149 272.6893 -10.10834 2.3509886e-038
-77.475723 274.59161 -15.240171 2.3509886e-038
-76.260818 273.87097 -15.200173 2.3509886e-038
-70.838272 272.4306 -15.120232 2.3509886e-038
-65.855858 272.59232 -15.129207 2.3509886e-038
-60.887337 272.84299 -15.143119 2.3509886e-038
-55.939308 273.23889 -15.165092 2.3509886e-038
-50.960289 273.54678 -15.182181 2.3509886e-038
-45.941689 273.68646 -15.189934 2.3509886e-038
-40.866844 273.48434 -15.178716 2.3509886e-038
-35.77269 273.07776 -15.156149 2.3509886e-038
-30.720663 272.91226 -15.146964 2.3509886e-038
-25.688025 272.88815 -15.145626 2.3509886e-038
-20.622007 272.41113 -15.119151 2.3509886e-038
-15.584972 272.13348 -15.103741 2.3509886e-038
-10.565207 272.03638 -15.098351 2.3509886e-038
-5.5317168 271.09122 -15.045895 2.3509886e-038
-0.53201187 269.62082 -14.964284 2.3509886e-038
4.440299 269.78061 -14.973153 2.3509886e-038
9.5051956 272.42459 -15.119897 2.3509886e-038
10.699807 273.40762 -15.174457 2.3509886e-038
-77.564339 275.10635 -20.339529 2.3509886e-038
-76.398415 274.36511 -20.284729 2.3509886e-038
-70.828972 272.39484 -20.139059 2.3509886e-038
-65.843094 272.53946 -20.14975 2.3509886e-038
-60.895882 272.88126 -20.17502 2.3509886e-038
-55.895767 273.02621 -20.18574 2.3509886e-038
-50.917416 273.31665 -20.207211 2.3509886e-038
-45.95348 273.75671 -20.239746 2.3509886e-038
-40.929451 273.90332 -20.250586 2.3509886e-038
-35.866951 273.7973 -20.242746 2.3509886e-038
-30.828487 273.87015 -20.248133 2.3509886e-038
-25.772425 273.78476 -20.241819 2.3509886e-038
-20.67683 273.13535 -20.193806 2.3509886e-038
-15.623645 272.80872 -20.169659 2.3509886e-038
-10.594899 272.80087 -20.169077 2.3509886e-038
-5.5452085 271.75241 -20.091562 2.3509886e-038
-0.53382772 270.54108 -20.002005 2.3509886e-038
4.4640207 271.22186 -20.052338 2.3509886e-038
9.3820581 274.63107 -20.304392 2.3509886e-038
-77.542641 275.17575 -25.41675 2.3509886e-038
-76.379356 274.29666 -25.335554 2.3509886e-038
-70.576439 271.42365 -25.070185 2.3509886e-038
-65.516273 271.18668 -25.048298 2.3509886e-038
-60.630398 271.69159 -25.094934 2.3509886e-038
-55.75935 272.35986 -25.156662 2.3509886e-038
-50.930359 273.38611 -25.25145 2.3509886e-038
-46.068874 274.44412 -25.349174 2.3509886e-038
-41.08593 274.95047 -25.395943 2.3509886e-038
-36.031815 275.05585 -25.405678 2.3509886e-038
-30.970419 275.13101 -25.412619 2.3509886e-038
-25.878506 274.91168 -25.392359 2.3509886e-038
-20.757097 274.19565 -25.326221 2.3509886e-038
-15.678328 273.76358 -25.286314 2.3509886e-038
-10.631446 273.74191 -25.284313 2.3509886e-038
-5.570488 272.9913 -25.214983 2.3509886e-038
-0.5373807 272.34171 -25.154982 2.3509886e-038
4.4955907 273.13995 -25.228712 2.3509886e-038
8.7011967 275.86435 -25.480354 2.3509886e-038
-77.87899 274.78766 -30.445822 2.3509886e-038
-76.146957 273.4621 -30.29895 2.3509886e-038
-70.323555 270.45111 -29.965342 2.3509886e-038
-65.200966 269.88156 -29.902239 2.3509886e-038
-60.345016 270.41278 -29.961094 2.3509886e-038
-55.620899 271.68359 -30.101898 2.3509886e-038
-50.931103 273.39011 -30.290976 2.3509886e-038
-46.134521 274.83524 -30.451092 2.3509886e-038
-41.193035 275.66721 -30.543276 2.3509886e-038
-36.156155 276.00504 -30.580704 2.3509886e-038
-31.083363 276.13437 -30.595034 2.3509886e-038
-25.976765 275.95551 -30.575214 2.3509886e-038
-20.848509 275.40314 -30.514015 2.3509886e-038
-15.766589 275.30475 -30.503111 2.3509886e-038
-10.689804 275.24454 -30.496441 2.3509886e-038
-5.5984349 274.36087 -30.398533 2.3509886e-038
-0.54005152 273.69525 -30.324785 2.3509886e-038
4.5157356 274.36389 -30.39887 2.3509886e-038
8.4443436 276.68408 -30.655939 2.3509886e-038
-126.22497 247.35876 -31.966127 2.3418052e-038
-122.91643 246.00951 -31.791761 2.3418052e-038
-117.99796 245.21155 -31.688643 2.3418052e-038
-113.83775 245.98851 -31.789049 2.3418052e-038
-110.29904 248.22864 -32.078541 2.3418052e-038
-107.22791 251.76048 -32.534962 2.3418052e-038
-104.96442 255.481 -33.015762 2.3509886e-038
-79.493797 274.68649 -35.497684 2.3509886e-038
-75.817253 272.27802 -35.186436 2.3509886e-038
-70.181122 269.90332 -34.879559 2.3509886e-038
-65.077812 269.3718 -34.810867 2.3509886e-038
-60.23048 269.89951 -34.879066 2.3509886e-038
-55.517792 271.17996 -35.044537 2.3509886e-038
-50.88694 273.15308 -35.299522 2.3509886e-038
-46.142647 274.88364 -35.523163 2.3509886e-038
-41.231964 275.92776 -35.658092 2.3509886e-038
-36.247849 276.70499 -35.758537 2.3509886e-038
-31.202318 277.19113 -35.821358 2.3509886e-038
-26.087105 277.12766 -35.813156 2.3509886e-038
-20.948652 276.72601 -35.761253 2.3509886e-038
-15.859053 276.91925 -35.786224 2.3509886e-038
-10.738276 276.49261 -35.731091 2.3509886e-038
-5.6119428 275.02283 -35.541149 2.3509886e-038
-0.54108649 274.21979 -35.43737 2.3509886e-038
4.5259156 274.98242 -35.535927 2.3509886e-038
8.4035463 277.24969 -35.828926 2.3509886e-038
-125.05315 242.80313 -35.852779 2.3418052e-038
-120.19273 240.55818 -35.521282 2.3418052e-038
-116.02058 241.10233 -35.601635 2.3418052e-038
-112.44855 242.98665 -35.879875 2.3418052e-038
-108.95041 245.19353 -36.205746 2.3418052e-038
-105.85215 248.53033 -36.698467 2.3418052e-038
-102.97178 252.70369 -37.314713 2.3418052e-038
-99.833595 256.60986 -37.891506 2.3418052e-038
-96.266861 259.74826 -38.354927 2.3509886e-038
-95.068535 260.81555 -38.512527 2.3509886e-038
-83.117622 271.88974 -40.147762 2.3509886e-038
-80.576187 271.40314 -40.075909 2.3509886e-038
-75.139153 269.84277 -39.845505 2.3509886e-038
-69.912987 268.87213 -39.702179 2.3509886e-038
-65.003265 269.06323 -39.730396 2.3509886e-038
-60.271526 270.08347 -39.881042 2.3509886e-038
-55.557121 271.37207 -40.071323 2.3509886e-038
-50.901173 273.22946 -40.345589 2.3509886e-038
-46.155849 274.96228 -40.60146 2.3509886e-038
-41.263256 276.13718 -40.774944 2.3509886e-038
-36.320911 277.26273 -40.941147 2.3509886e-038
-31.299713 278.05637 -41.058334 2.3509886e-038
-26.192047 278.24246 -41.085815 2.3509886e-038
-21.041592 277.9537 -41.043182 2.3509886e-038
-15.912955 277.86047 -41.029411 2.3509886e-038
-10.7614 277.08801 -40.915352 2.3509886e-038
-5.621614 275.4968 -40.680389 2.3509886e-038
-0.54239911 274.88504 -40.59005 2.3509886e-038
4.5421133 275.96655 -40.749752 2.3509886e-038
8.4261112 278.23624 -41.0849 2.3509886e-038
-119.58425 238.88217 -39.676903 2.3418052e-038
-119.33994 238.85136 -39.671787 2.3418052e-038
-115.55893 240.14299 -39.886318 2.3418052e-038
-111.98847 241.99246 -40.193504 2.3418052e-038
-108.32999 243.79727 -40.493271 2.3418052e-038
-105.0695 246.69273 -40.974194 2.3418052e-038
-101.88247 250.03043 -41.528564 2.3418052e-038
-98.439537 253.02661 -42.026211 2.3418052e-038
-94.805656 255.80565 -42.487793 2.3418052e-038
-91.210625 258.98581 -43.015999 2.3418052e-038
-87.659203 262.64795 -43.62426 2.3418052e-038
-83.757858 265.62845 -44.119301 2.3418052e-038
-79.156853 266.62244 -44.284397 2.3509886e-038
-74.30938 266.86285 -44.324329 2.3509886e-038
-69.508942 267.31824 -44.399967 2.3509886e-038
-64.836739 268.37393 -44.57531 2.3509886e-038
-60.236313 269.92566 -44.833042 2.3509886e-038
-55.569546 271.43277 -45.083363 2.3509886e-038
-50.877663 273.10327 -45.360821 2.3509886e-038
-46.111366 274.6973 -45.625584 2.3509886e-038
-41.281929 276.26212 -45.885487 2.3509886e-038
-36.393925 277.82007 -46.144257 2.3509886e-038
-31.398535 278.93423 -46.329311 2.3509886e-038
-26.317385 279.57394 -46.435566 2.3509886e-038
-21.140087 279.25482 -46.382561 2.3509886e-038
-15.94257 278.37756 -46.236855 2.3509886e-038
-10.775861 277.46033 -46.084507 2.3509886e-038
-5.6376472 276.28256 -45.888882 2.3509886e-038
-0.54462582 276.01349 -45.844193 2.3509886e-038
4.5702348 277.67511 -46.120182 2.3509886e-038
8.4896326 280.37903 -46.569283 2.3509886e-038
-111.93368 243.0957 -44.857529 2.3418052e-038
-108.61474 244.4381 -45.105236 2.3418052e-038
-105.1788 246.94937 -45.568634 2.3418052e-038
-101.58657 249.30426 -46.003174 2.3418052e-038
-97.799583 251.3817 -46.386513 2.3418052e-038
-94.135773 253.99815 -46.86932 2.3418052e-038
-90.413673 256.72293 -47.372108 2.3418052e-038
-86.511093 259.20795 -47.830662 2.3418052e-038
-82.468735 261.54013 -48.261013 2.3418052e-038
-78.061104 262.93164 -48.517784 2.3418052e-038
-73.530731 264.06659 -48.727207 2.3509886e-038
-68.982986 265.29553 -48.953983 2.3509886e-038
-64.436005 266.71521 -49.215946 2.3509886e-038
-59.908249 268.45557 -49.537094 2.3509886e-038
-55.34214 270.32199 -49.881496 2.3509886e-038
-50.708839 272.19705 -50.227489 2.3509886e-038
-45.988403 273.96475 -50.553684 2.3509886e-038
-41.273144 276.20334 -50.966759 2.3509886e-038
-36.47327 278.42578 -51.376858 2.3509886e-038
-31.52136 280.02539 -51.672028 2.3509886e-038
-26.437529 280.85025 -51.824238 2.3509886e-038
-21.227499 280.40952 -51.742908 2.3509886e-038
-15.984516 279.11002 -51.503113 2.3509886e-038
-10.800766 278.10159 -51.317036 2.3509886e-038
-5.6593676 277.34695 -51.177788 2.3509886e-038
-0.54767174 277.55716 -51.216572 2.3509886e-038
4.6099405 280.08755 -51.683502 2.3509886e-038
8.5654631 283.73257 -52.356098 2.3509886e-038
-101.75266 251.19034 -50.981171 2.3418052e-038
-98.219467 252.46095 -51.239056 2.3418052e-038
-94.42347 254.77441 -51.708591 2.3418052e-038
-90.346977 256.53354 -52.065617 2.3418052e-038
-86.041359 257.80051 -52.322765 2.3418052e-038
-81.681198 259.04257 -52.574848 2.3418052e-038
-77.157646 259.88852 -52.74654 2.3418052e-038
-72.747116 261.25244 -53.023357 2.3418052e-038
-68.364037 262.91516 -53.360825 2.3509886e-038
-63.899292 264.49365 -53.681187 2.3509886e-038
-59.403542 266.19394 -54.026276 2.3509886e-038
-54.902992 268.17694 -54.428745 2.3509886e-038
-50.366154 270.35754 -54.871319 2.3509886e-038
-45.769928 272.66327 -55.339279 2.3509886e-038
-41.183956 275.60648 -55.93663 2.3509886e-038
-36.480232 278.47891 -56.519615 2.3509886e-038
-31.588011 280.61749 -56.953663 2.3509886e-038
-26.510677 281.62735 -57.158619 2.3509886e-038
-21.299356 281.3587 -57.104095 2.3509886e-038
-16.048283 280.22345 -56.873688 2.3509886e-038
-10.842719 279.18182 -56.662281 2.3509886e-038
-5.6854763 278.62646 -56.549564 2.3509886e-038
-0.55121237 279.3515 -56.696712 2.3509886e-038
4.6536074 282.74066 -57.384571 2.3509886e-038
8.5426903 287.20279 -58.290195 2.3509886e-038
-94.097183 257.9855 -57.115543 2.3418052e-038
-90.768379 257.7301 -57.058998 2.3418052e-038
-86.10685 257.99673 -57.118031 2.3418052e-038
-81.395073 258.13516 -57.148682 2.3418052e-038
-76.665802 258.23187 -57.17009 2.3418052e-038
-72.253868 259.48105 -57.44664 2.3418052e-038
-67.918846 261.20306 -57.827877 2.3509886e-038
-63.477173 262.7464 -58.169559 2.3509886e-038
-58.968277 264.24344 -58.500996 2.3509886e-038
-54.451019 265.96924 -58.883068 2.3509886e-038
-49.961132 268.18347 -59.37328 2.3509886e-038
-45.509876 271.11404 -60.022079 2.3509886e-038
-41.047512 274.69339 -60.814514 2.3509886e-038
-36.432621 278.11548 -61.572132 2.3509886e-038
-31.619944 280.90115 -62.188854 2.3509886e-038
-26.573029 282.2897 -62.496265 2.3509886e-038
-21.375706 282.36728 -62.513439 2.3509886e-038
-16.123285 281.53308 -62.328754 2.3509886e-038
-10.900773 280.67664 -62.139145 2.3509886e-038
-5.718843 280.26169 -62.047279 2.3509886e-038
-0.55527455 281.41022 -62.301556 2.3509886e-038
4.6983709 285.46036 -63.198215 2.3509886e-038
8.158412 289.59305 -64.113152 2.3509886e-038
-88.232841 261.54865 -62.725285 2.3418052e-038
-87.194489 261.25555 -62.654995 2.3418052e-038
-81.909302 259.76596 -62.297752 2.3418052e-038
-76.86747 258.91113 -62.092747 2.3418052e-038
-72.268219 259.53256 -62.241783 2.3418052e-038
-67.765297 260.61252 -62.500774 2.3509886e-038
-63.255966 261.83078 -62.792942 2.3509886e-038
-58.714363 263.10562 -63.098682 2.3509886e-038
-54.163361 264.56415 -63.448475 2.3509886e-038
-49.694263 266.75098 -63.972912 2.3509886e-038
-45.328056 270.03088 -64.759514 2.3509886e-038
-40.95364 274.06519 -65.727036 2.3509886e-038
-36.406197 277.91376 -66.650002 2.3509886e-038
-31.654436 281.20758 -67.439941 2.3509886e-038
-26.632799 282.92465 -67.85173 2.3509886e-038
-21.453997 283.40149 -67.966087 2.3509886e-038
-16.201317 282.89563 -67.844772 2.3509886e-038
-10.965005 282.33047 -67.709236 2.3509886e-038
-5.7616792 282.36093 -67.716537 2.3509886e-038
-0.56063384 284.12628 -68.139908 2.3509886e-038
4.7588806 289.13675 -69.34153 2.3509886e-038
7.2225318 292.41196 -70.127007 2.3509886e-038
-82.070702 264.64688 -68.346313 2.3418052e-038
-78.227562 263.49231 -68.048141 2.3418052e-038
-73.118057 262.58456 -67.813713 2.3509886e-038
-68.093323 261.87405 -67.630219 2.3509886e-038
-63.357479 262.25095 -67.727554 2.3509886e-038
-58.757984 263.30112 -67.998756 2.3509886e-038
-54.190979 264.69907 -68.359795 2.3509886e-038
-49.718109 266.87897 -68.92276 2.3509886e-038
-45.333126 270.0611 -69.74456 2.3509886e-038
-40.96851 274.1647 -70.804337 2.3509886e-038
-36.422718 278.03989 -71.805115 2.3509886e-038
-31.694639 281.56473 -72.715431 2.3509886e-038
-26.725729 283.91187 -73.321579 2.3509886e-038
-21.571342 284.95157 -73.590096 2.3509886e-038
-16.31156 284.82062 -73.556274 2.3509886e-038
-11.048718 284.48596 -73.469849 2.3509886e-038
-5.8199916 285.21866 -73.659073 2.3509886e-038
-0.56869233 288.21027 -74.431664 2.3509886e-038
4.8446398 294.34726 -76.016579 2.3509886e-038
5.6266308 295.46814 -76.306053 2.3509886e-038
-77.208923 273.15704 -75.578979 2.3509886e-038
-75.792274 272.18829 -75.310944 2.3509886e-038
-69.643105 267.83423 -74.106232 2.3509886e-038
-64.167999 265.60587 -73.48967 2.3509886e-038
-59.285252 265.66385 -73.505722 2.3509886e-038
-54.626247 266.82516 -73.827034 2.3509886e-038
-50.06636 268.74832 -74.359146 2.3509886e-038
-45.566395 271.45074 -75.10688 2.3509886e-038
-41.124847 275.21091 -76.147263 2.3509886e-038
-36.508286 278.69308 -77.110741 2.3509886e-038
-31.784031 282.35889 -78.125015 2.3509886e-038
-26.900381 285.76724 -79.068054 2.3509886e-038
-21.768795 287.55991 -79.564064 2.3509886e-038
-16.494165 288.00912 -79.688362 2.3509886e-038
-11.195832 288.2739 -79.761627 2.3509886e-038
-5.9204321 290.1409 -80.278198 2.3509886e-038
-0.5820927 295.0015 -81.623062 2.3509886e-038
3.0629909 300.19095 -83.058914 2.3509886e-038
-69.953865 277.01767 -81.753197 2.3509886e-038
-66.200012 274.01682 -80.867592 2.3509886e-038
-60.700436 272.00543 -80.273987 2.3509886e-038
-55.704025 272.08963 -80.298836 2.3509886e-038
-50.853424 272.97314 -80.55957 2.3509886e-038
-46.163002 275.00488 -81.15918 2.3509886e-038
-41.554779 278.08807 -82.069084 2.3509886e-038
-36.831829 281.1629 -82.976532 2.3509886e-038
-32.082603 285.01129 -84.112267 2.3509886e-038
-27.254261 289.52655 -85.444801 2.3509886e-038
-22.162542 292.76117 -86.399399 2.3509886e-038
-16.872963 294.62341 -86.948975 2.3509886e-038
-11.501959 296.15613 -87.401314 2.3509886e-038
-6.10989 299.4256 -88.366196 2.3509886e-038
-1.2199962 305.03882 -90.022766 2.3509886e-038
-59.931751 282.92148 -88.710358 2.3509886e-038
-57.774803 282.20447 -88.485542 2.3509886e-038
-52.425163 281.41 -88.236435 2.3509886e-038
-47.605648 283.59912 -88.922829 2.3509886e-038
-42.693935 285.71136 -89.585136 2.3509886e-038
-37.681633 287.65005 -90.193001 2.3509886e-038
-32.75 290.94022 -91.224648 2.3509886e-038
-27.899342 296.37936 -92.930092 2.3509886e-038
-22.91914 302.75562 -94.929375 2.3509886e-038
-17.590736 307.15665 -96.309326 2.3509886e-038
-12.021268 309.5275 -97.052704 2.3509886e-038
-9.5191965 311.02707 -97.522896 2.3509886e-038
-124.33638 248.85144 -30.489248 2.3418052e-038
-119.35208 238.87567 -39.824127 2.3418052e-038
-119.83115 249.02107 -29.529308 2.3418052e-038
-116.06267 241.1898 -42.657158 2.3418052e-038
-115.17655 248.88148 -29.481279 2.3418052e-038
-112.41946 242.92377 -44.646778 2.3418052e-038
-111.17807 250.20689 -30.132288 2.3418052e-038
-108.85196 244.97197 -46.424995 2.3418052e-038
-107.65037 252.75237 -31.461794 2.3418052e-038
-105.66571 248.09259 -48.492905 2.3418052e-038
-104.34951 256.08481 -33.409996 2.3509886e-038
-102.24089 250.91002 -50.702744 2.3418052e-038
-100.70349 258.84583 -35.671398 2.3509886e-038
-98.608955 253.46208 -53.00246 2.3418052e-038
-96.497467 260.37048 -37.84679 2.3509886e-038
-95.325447 257.20813 -56.048904 2.3418052e-038
-92.395622 262.35049 -39.767689 2.3509886e-038
-91.241661 259.07391 -59.483547 2.3418052e-038
-87.30938 261.59982 62.988335 9.1476764e-041
-88.941658 266.49048 41.206581 9.1476764e-041
-88.786972 266.02704 -41.111916 2.3509886e-038
-87.471855 262.08664 -63.499264 2.3418052e-038
-83.081612 263.48383 63.478127 9.1476764e-041
-83.255859 264.03641 22.441685 9.1476764e-041
-85.166405 270.09549 -41.092762 2.3509886e-038
-83.210815 263.89359 -67.22364 2.3418052e-038
-79.119621 266.49701 56.283417 9.1476764e-041
-80.238319 270.26511 10.051058 9.1476764e-041
-81.248627 273.66812 -38.33987 2.3509886e-038
-79.601234 268.1192 -71.640877 2.3509886e-038
-74.143364 266.26666 42.046715 9.1476764e-041
-76.386414 274.32199 -76.644112 2.3509886e-038
-69.527428 267.38931 30.976398 2.3509886e-038
-71.928368 276.62292 -80.444389 2.3509886e-038
-65.97187 273.07251 19.64908 9.1476764e-041
-67.14695 277.93643 -83.632721 2.3509886e-038
-61.516228 275.6611 12.277591 2.3509886e-038
-62.657661 280.776 -86.832954 2.3509886e-038
-56.873581 277.8024 10.705905 2.3509886e-038
-58.117588 283.87885 -89.66954 2.3509886e-038
-48.774281 261.81262 79.51844 3.5733111e-043
-53.400089 286.64325 -92.047951 2.3509886e-038
-44.466572 264.8988 78.898834 3.5733111e-043
-49.141495 292.74854 -95.189804 2.3509886e-038
-40.147442 268.67004 57.322479 3.5733111e-043
-44.278446 296.31506 -97.087433 2.3509886e-038
-35.660725 272.22305 19.130083 3.5733111e-043
-38.807789 296.24677 -97.392334 2.3509886e-038
-30.684671 272.59253 18.588415 2.3418409e-038
-33.49955 297.599 -97.901802 2.3509886e-038
-24.74238 262.84241 43.337162 2.3418409e-038
-28.546621 303.25552 -99.601997 2.3509886e-038
-19.679127 259.95593 70.510345 2.3418409e-038
-23.61027 311.88525 -101.91103 2.3509886e-038
-14.821481 258.80194 73.368706 2.3418409e-038
-18.070135 315.52756 -101.94987 2.3509886e-038
-10.393778 267.62234 6.6883655 2.3509528e-038
-12.138271 312.54013 -99.097214 2.3509886e-038
-5.4320817 266.20847 3.9806929 2.3509528e-038
-6.305263 309.00018 -95.177238 2.3509886e-038
-0.52265143 264.87698 5.1311097 2.3509528e-038
-0.60058045 304.37103 -89.13372 2.3509886e-038
4.3167777 262.27579 8.4330845 2.3509528e-038
4.8846807 296.78003 -78.450928 2.3509886e-038
9.0769329 260.1503 12.710514 2.3509528e-038
9.573493 274.38202 -19.351349 2.3509886e-038
13.745912 257.7847 17.382853 2.3509528e-038
14.433228 270.67432 -6.797853 2.3509886e-038
18.415289 256.63998 22.421713 2.3509528e-038
18.89784 263.36496 0.80377525 2.3509528e-038
23.085585 255.97316 28.033579 2.3509528e-038
23.546829 261.08743 7.5121918 2.3509528e-038
27.626095 254.33797 33.281254 2.3509528e-038
28.329645 260.81516 14.387522 2.3509528e-038
32.550854 256.20139 36.395988 2.3509528e-038
33.401684 262.89813 22.043779 2.3509528e-038
