# .PCD v0.7 - Point Cloud Data file format
VERSION 0.7
FIELDS x y z rgb
SIZE 4 4 4 4
TYPE F F F F
COUNT 1 1 1 1
WIDTH 679
HEIGHT 1
VIEWPOINT 0 0 0 1 0 0 0
POINTS 679
DATA ascii
-87.271591 220.59663 -28.051582 2.3418052e-038
-81.012886 232.44899 31.748299 9.1476764e-041
-54.602234 241.53186 65.977699 3.5733111e-043
26.082537 251.7285 29.639248 2.3509528e-038
-24.618288 248.91084 64.476471 2.3418409e-038
-57.88868 239.55849 68.866531 3.5733111e-043
-55.265606 240.2468 69.0644 3.5733111e-043
-51.39547 242.93095 69.836021 3.5733111e-043
-50.872086 243.39212 69.968597 3.5733111e-043
-58.872856 239.44174 64.409836 3.5733111e-043
-55.354713 240.63417 64.730606 3.5733111e-043
-51.695984 244.35138 65.730537 3.5733111e-043
-49.125206 247.1456 66.482178 3.5733111e-043
-28.022631 246.81865 66.394234 2.3418409e-038
-24.935318 247.55074 66.591164 2.3418409e-038
-20.569296 250.06601 67.267769 2.3418409e-038
-20.39205 250.21022 67.306564 2.3418409e-038
-58.940018 241.15533 60.416008 3.5733111e-043
-55.785561 242.50711 60.754665 3.5733111e-043
-52.114525 246.3297 61.712326 3.5733111e-043
-48.298481 250.13264 62.665066 3.5733111e-043
-48.22427 250.20802 62.683956 3.5733111e-043
-29.043606 248.61304 62.284367 2.3418409e-038
-25.074932 248.9368 62.365475 2.3418409e-038
-20.675863 251.36157 62.972946 2.3418409e-038
-18.570631 253.37019 63.476166 2.3418409e-038
-58.831295 244.3031 56.691689 3.5733111e-043
-56.39529 245.15768 56.889996 3.5733111e-043
-52.558815 248.42973 57.649288 3.5733111e-043
-48.711769 252.27303 58.541145 3.5733111e-043
-47.605694 253.53998 58.835144 3.5733111e-043
-29.346478 250.02071 58.018482 2.3418409e-038
-25.241646 250.59187 58.151024 2.3418409e-038
-20.831127 253.24915 58.767654 2.3418409e-038
-17.804501 256.89917 59.614666 2.3418409e-038
-58.698669 248.15266 53.00095 3.5733111e-043
-57.124771 248.32884 53.038582 3.5733111e-043
-53.064323 250.81912 53.570457 3.5733111e-043
-49.223957 254.92558 54.447525 3.5733111e-043
-47.125435 258.00061 55.104298 3.5733111e-043
-29.48702 251.02213 53.613819 2.3418409e-038
-25.371153 251.87758 53.796528 2.3418409e-038
-20.974976 254.99794 54.462982 2.3418409e-038
-17.587679 260.34775 55.605606 2.3418409e-038
-58.406765 251.08319 48.988693 3.5733111e-043
-57.750443 251.04872 48.981964 3.5733111e-043
-53.545364 253.09285 49.380795 3.5733111e-043
-49.800659 257.91229 50.32111 3.5733111e-043
-46.710712 263.81061 51.471928 3.5733111e-043
-29.68478 252.61 49.286587 2.3418409e-038
-25.496071 253.11774 49.385647 2.3418409e-038
-21.098133 256.49521 50.044624 2.3418409e-038
-17.629509 263.21854 51.356407 2.3418409e-038
-58.320774 253.83533 44.836636 2.3509886e-038
-54.022503 255.34814 45.103855 3.5733111e-043
-50.113529 259.53259 45.842987 3.5733111e-043
-46.245747 264.83832 46.78017 3.5733111e-043
-45.484474 265.72021 46.935947 3.5733111e-043
-30.012012 254.65337 44.981133 2.3418409e-038
-25.62064 254.35442 44.928326 2.3418409e-038
-21.170662 257.37698 45.462219 2.3418409e-038
-17.57428 263.78934 46.594879 2.3418409e-038
-85.068924 228.88301 36.201069 9.1476764e-041
-82.091553 228.44746 36.132179 9.1476764e-041
-80.185791 231.24733 36.57502 9.1476764e-041
-58.443432 257.00443 40.648865 2.3509886e-038
-54.510487 257.65469 40.751713 3.5733111e-043
-50.18251 259.88983 41.105232 3.5733111e-043
-45.913082 262.93323 41.58659 3.5733111e-043
-43.724316 263.98547 41.753021 2.3418409e-038
-30.4359 255.85387 40.466885 2.3418409e-038
-25.707542 255.21716 40.366184 2.3418409e-038
-21.23241 258.12766 40.826523 2.3418409e-038
-17.348516 264.39743 41.818176 2.3418409e-038
-87.244987 230.12302 32.146206 9.1476764e-041
-86.803207 229.74866 32.09391 9.1476764e-041
-82.028008 228.27063 31.887445 9.1476764e-041
-79.381966 232.87859 32.531136 9.1476764e-041
-77.337936 239.88184 33.50943 9.1476764e-041
-76.507195 242.66322 33.897961 9.1476764e-041
-58.22562 259.82721 36.295624 2.3509886e-038
-55.002518 259.98038 36.317024 3.5733111e-043
-50.420242 261.12103 36.476364 3.5733111e-043
-45.987438 263.35904 36.788994 3.5733111e-043
-42.748978 264.77527 36.986828 2.3418409e-038
-31.137661 256.72531 35.86232 2.3418409e-038
-30.573528 256.48755 35.829105 2.3418409e-038
-25.804466 256.17938 35.78606 2.3418409e-038
-21.346018 259.50879 36.251148 2.3418409e-038
-17.083345 267.83612 37.414402 2.3509886e-038
-17.058016 267.92175 37.426365 2.3509886e-038
-84.845413 229.74217 27.849051 9.1476764e-041
-82.734459 230.23656 27.908979 9.1476764e-041
-79.949692 234.54408 28.431131 9.1476764e-041
-77.865128 241.51704 29.276384 9.1476764e-041
-75.841438 249.53798 30.248672 9.1476764e-041
-74.788925 253.60889 30.742142 2.3509886e-038
-57.617455 262.32053 31.798155 3.5733111e-043
-55.440434 262.05026 31.765398 3.5733111e-043
-50.715103 262.64807 31.837862 3.5733111e-043
-46.224506 264.71664 32.088612 3.5733111e-043
-42.398785 266.94299 32.358482 2.3418409e-038
-32.054531 258.02127 31.277004 2.3418409e-038
-30.681461 257.39304 31.200851 2.3418409e-038
-25.92808 257.40659 31.202496 2.3418409e-038
-21.498877 261.36716 31.682589 2.3418409e-038
-17.286695 271.02429 32.853214 2.3509886e-038
-17.003851 272.09177 32.982613 2.3509886e-038
20.664572 250.61298 30.378983 2.3509528e-038
21.041603 250.49985 30.365269 2.3509528e-038
25.788116 251.66214 30.506161 2.3509528e-038
30.493902 257.53931 31.218582 2.3509528e-038
-83.608582 234.58124 24.102301 9.1476764e-041
-81.141357 238.04002 24.457678 9.1476764e-041
-78.662735 243.99103 25.069118 9.1476764e-041
-76.297394 251.03819 25.793188 9.1476764e-041
-73.648293 258.00339 26.508835 2.3509886e-038
-72.642166 260.84125 26.800413 2.3509886e-038
-56.85804 264.75208 27.202234 2.3509886e-038
-55.940201 264.41254 27.167349 2.3509886e-038
-50.983356 264.03735 27.128799 3.5733111e-043
-46.403145 265.73969 27.303707 2.3418409e-038
-42.133259 268.40366 27.577421 2.3418409e-038
-32.85453 260.04575 26.718678 2.3418409e-038
-30.863976 258.92419 26.603441 2.3418409e-038
-26.066475 258.78055 26.588684 2.3418409e-038
-21.643551 263.12598 27.03516 2.3418409e-038
-17.414803 273.03278 28.053045 2.3509886e-038
-17.255455 273.60461 28.111797 2.3509886e-038
17.20643 251.64441 25.855474 2.3509528e-038
21.07181 250.85944 25.774822 2.3509528e-038
25.903364 252.78682 25.972853 2.3509528e-038
29.269289 256.57657 26.362234 2.3509528e-038
-83.224899 241.65718 20.365278 9.1476764e-041
-82.624359 242.39063 20.427088 9.1476764e-041
-79.484375 246.53954 20.77673 9.1476764e-041
-76.474945 251.62234 21.205074 9.1476764e-041
-73.454872 257.32581 21.685724 9.1476764e-041
-71.046761 266.11057 22.426048 2.3509886e-038
-70.929306 267.13965 22.512772 2.3509886e-038
-56.4231 267.70398 22.560329 2.3509886e-038
-51.327789 265.82114 22.401655 2.3509886e-038
-46.598015 266.85565 22.488838 2.3418409e-038
-42.048775 269.29114 22.694084 2.3418409e-038
-41.650135 269.34128 22.698311 2.3418409e-038
-33.557972 263.20432 22.181128 2.3418409e-038
-31.169693 261.48892 22.036566 2.3418409e-038
-26.241404 260.51718 21.954674 2.3418409e-038
-21.794043 264.95554 22.328711 2.3418409e-038
-17.739502 274.70709 23.150505 2.3509886e-038
13.866553 253.08424 21.328274 2.3509528e-038
16.510288 251.96609 21.234045 2.3509528e-038
21.16757 251.99947 21.236856 2.3509528e-038
26.080618 254.5166 21.448984 2.3509528e-038
27.187801 255.54666 21.535791 2.3509528e-038
-83.302406 249.155 16.394583 9.1476764e-041
-80.526794 249.77283 16.435238 9.1476764e-041
-76.816727 252.74693 16.630936 9.1476764e-041
-73.456299 257.33081 16.932558 9.1476764e-041
-71.020935 266.01385 17.50391 2.3509886e-038
-70.300026 275.24203 18.11113 2.3509886e-038
-56.158447 270.32883 17.787836 2.3509886e-038
-51.687519 267.68414 17.613815 2.3509886e-038
-46.838291 268.23166 17.649843 2.3418409e-038
-42.225861 270.42523 17.79418 2.3418409e-038
-40.718475 270.63208 17.807793 2.3418409e-038
-34.418354 267.189 17.581234 2.3418409e-038
-31.558756 264.75284 17.420933 2.3418409e-038
-26.457352 262.66107 17.283293 2.3418409e-038
-21.944059 266.77933 17.554277 2.3418409e-038
-18.139696 276.49799 18.193771 2.3509886e-038
10.179306 254.47148 16.744413 2.3509528e-038
11.929209 253.52606 16.682201 2.3509528e-038
16.560051 252.72554 16.629528 2.3509528e-038
21.370518 254.41554 16.740732 2.3509528e-038
24.804014 256.71957 16.892338 2.3509528e-038
-82.374611 252.70721 11.960143 9.1476764e-041
-81.417267 252.53487 11.951986 9.1476764e-041
-77.275726 254.25714 12.033499 9.1476764e-041
-73.56929 257.72665 12.197703 9.1476764e-041
-70.668442 264.69357 12.527434 9.1476764e-041
-68.67263 276.33807 13.078547 2.3509886e-038
-68.425232 277.27005 13.122656 2.3509886e-038
-55.836811 271.81393 12.864428 2.3509886e-038
-52.072193 269.6763 12.763258 2.3509886e-038
-47.127533 269.88809 12.773282 2.3509886e-038
-42.394753 271.50687 12.849895 2.3418409e-038
-38.46452 271.60941 12.854748 2.3418409e-038
-36.479725 270.88721 12.820567 2.3418409e-038
-31.911392 267.71115 12.670252 2.3418409e-038
-26.717718 265.24591 12.553576 2.3418409e-038
-22.073662 268.35495 12.700721 2.3418409e-038
-17.971237 278.47107 13.179498 2.3509886e-038
6.154808 257.0025 12.163431 2.3509528e-038
7.316246 255.98698 12.11537 2.3509528e-038
11.943982 253.84003 12.013758 2.3509528e-038
16.693001 254.75452 12.057038 2.3509528e-038
21.761774 259.07343 12.261445 2.3509528e-038
22.480154 259.96933 12.303845 2.3509528e-038
-80.947601 254.70593 7.349647 9.1476764e-041
-77.793411 255.96046 7.3858466 9.1476764e-041
-73.874878 258.79715 7.4677 9.1476764e-041
-70.332512 263.4353 7.6015363 9.1476764e-041
-67.318672 270.88977 7.816638 2.3509886e-038
-65.143852 275.26089 7.9427686 2.3509886e-038
-56.54982 273.49551 7.8918281 2.3509886e-038
-52.465683 271.71414 7.8404255 2.3509886e-038
-47.38942 271.38785 7.8310099 2.3509886e-038
-42.446636 271.83914 7.8440328 2.3509886e-038
-37.396961 271.63519 7.8381476 2.3509886e-038
-32.15601 269.76331 7.7841344 2.3418409e-038
-26.971781 267.76819 7.726563 2.3509886e-038
-22.156517 269.36224 7.7725606 2.3509886e-038
-17.675804 277.12482 7.9965534 2.3509886e-038
-16.824116 279.41455 8.062624 2.3509886e-038
2.0590324 261.35501 7.5415087 2.3509528e-038
2.6364615 260.83374 7.5264673 2.3509528e-038
7.3518381 257.2323 7.4225464 2.3509528e-038
12.033169 255.73549 7.379355 2.3509528e-038
16.879648 257.60297 7.4332418 2.3509528e-038
19.902431 260.83057 7.5263753 2.3509528e-038
-79.740524 257.81268 2.6768024 9.1476764e-041
-78.492584 258.26089 2.6814563 9.1476764e-041
-74.475067 260.89972 2.7088544 9.1476764e-041
-70.555099 264.26901 2.7438369 9.1476764e-041
-66.806351 268.82819 2.7911735 9.1476764e-041
-62.813206 273.05722 2.8350825 2.3509886e-038
-57.936218 273.84711 2.8432839 2.3509886e-038
-52.713608 272.99814 2.8344691 2.3509886e-038
-47.601799 272.6041 2.8303781 2.3509886e-038
-42.498745 272.17288 2.8259008 2.3509886e-038
-37.421143 271.81082 2.8221416 2.3509886e-038
-32.315224 271.099 2.8147509 2.3509886e-038
-27.132467 269.3634 2.7967308 2.3509886e-038
-22.121689 268.93881 2.7923222 2.3509886e-038
-17.342173 271.89407 2.8230059 2.3509886e-038
-12.96835 272.97556 2.834235 2.3509528e-038
-3.7629495 264.46494 2.7458713 2.3509528e-038
-2.2050502 263.61002 2.7369945 2.3509528e-038
2.6458297 261.76056 2.7177923 2.3509528e-038
7.4303384 259.97894 2.6992943 2.3509528e-038
12.210756 259.50967 2.694422 2.3509528e-038
16.889868 261.79236 2.7181225 2.3509528e-038
-79.199715 262.95471 -2.1272874 9.1476764e-041
-75.419601 264.20862 -2.1374314 9.1476764e-041
-71.154121 266.51273 -2.1560714 9.1476764e-041
-66.949066 269.40247 -2.1794493 9.1476764e-041
-62.531219 271.83136 -2.1990988 2.3509886e-038
-57.763042 273.02856 -2.2087841 2.3509886e-038
-52.820045 273.54935 -2.2129972 2.3509886e-038
-47.795891 273.71561 -2.2143424 2.3509886e-038
-42.682884 273.35214 -2.2114019 2.3509886e-038
-37.598907 273.10208 -2.209379 2.3509886e-038
-32.478485 272.46863 -2.2042542 2.3509886e-038
-27.250822 270.53842 -2.1886389 2.3509886e-038
-22.096561 268.63333 -2.1732271 2.3509886e-038
-17.104017 268.16022 -2.1693997 2.3509528e-038
-12.125436 267.60953 -2.1649446 2.3509528e-038
-7.1439915 266.19473 -2.1534989 2.3509528e-038
-2.2174664 265.0943 -2.1445966 2.3509528e-038
2.672457 264.39487 -2.1389382 2.3509528e-038
7.5481567 264.10126 -2.1365631 2.3509528e-038
12.493715 265.52328 -2.148067 2.3509528e-038
13.77352 266.44452 -2.1555197 2.3509528e-038
-79.254791 268.96674 -7.1444511 9.1476764e-041
-76.626579 268.43686 -7.1303759 9.1476764e-041
-71.813972 268.98419 -7.1449151 9.1476764e-041
-67.283943 270.75003 -7.1918197 9.1476764e-041
-62.667824 272.42523 -7.2363176 2.3509886e-038
-57.904953 273.69931 -7.2701607 2.3509886e-038
-53.028625 274.62958 -7.2948704 2.3509886e-038
-48.021729 275.00894 -7.3049479 2.3509886e-038
-42.957485 275.11075 -7.307652 2.3509886e-038
-37.883907 275.17218 -7.3092837 2.3509886e-038
-32.699501 274.32275 -7.2867208 2.3509886e-038
-27.440414 272.42062 -7.2361951 2.3509886e-038
-22.250166 270.50076 -7.1851983 2.3509886e-038
-17.176289 269.2933 -7.1531258 2.3509886e-038
-12.169717 268.58682 -7.1343594 2.3509528e-038
-7.1905632 267.93005 -7.1169143 2.3509528e-038
-2.2358596 267.29321 -7.099998 2.3509528e-038
2.7015839 267.27649 -7.0995541 2.3509528e-038
7.6724787 268.45114 -7.1307559 2.3509528e-038
10.673955 270.13284 -7.175426 2.3509528e-038
-79.086586 272.36795 -12.266151 9.1476764e-041
-77.542007 271.6438 -12.233539 9.1476764e-041
-72.355499 271.01254 -12.205111 9.1476764e-041
-67.726189 272.5296 -12.273432 2.3509886e-038
-63.10635 274.33154 -12.354583 2.3509886e-038
-58.323975 275.6799 -12.415307 2.3509886e-038
-53.368382 276.38913 -12.447247 2.3509886e-038
-48.301533 276.6113 -12.457252 2.3509886e-038
-43.206638 276.70639 -12.461535 2.3509886e-038
-38.072414 276.54141 -12.454104 2.3509886e-038
-32.872799 275.77661 -12.419662 2.3509886e-038
-27.651329 274.51453 -12.362823 2.3509886e-038
-22.466158 273.12662 -12.300319 2.3509886e-038
-17.354836 272.09262 -12.253752 2.3509886e-038
-12.288119 271.19998 -12.213552 2.3509528e-038
-7.2411704 269.81573 -12.151213 2.3509528e-038
-2.2446275 268.34143 -12.084817 2.3509528e-038
2.71768 268.86896 -12.108574 2.3509528e-038
7.7805166 272.23129 -12.259996 2.3509528e-038
8.2028732 272.70715 -12.281428 2.3509886e-038
-78.526871 273.66501 -17.379902 2.3509886e-038
-78.04686 273.41238 -17.363857 2.3509886e-038
-72.738571 272.44739 -17.302572 2.3509886e-038
-68.126091 274.13879 -17.409992 2.3509886e-038
-63.485317 275.97897 -17.526857 2.3509886e-038
-58.619896 277.07861 -17.596693 2.3509886e-038
-53.590706 277.54053 -17.626028 2.3509886e-038
-48.492599 277.70551 -17.636503 2.3509886e-038
-43.340733 277.56516 -17.627592 2.3509886e-038
-38.139297 277.02722 -17.593428 2.3509886e-038
-32.963398 276.53668 -17.562275 2.3509886e-038
-27.782619 275.81793 -17.51663 2.3509886e-038
-22.593718 274.6774 -17.444197 2.3509886e-038
-17.463314 273.79333 -17.388052 2.3509886e-038
-12.36132 272.81552 -17.325953 2.3509886e-038
-7.2709093 270.92386 -17.205818 2.3509886e-038
-2.2504263 269.03464 -17.085835 2.3509528e-038
2.727253 269.81604 -17.135462 2.3509886e-038
6.5169549 273.05527 -17.341177 2.3509886e-038
-77.649986 274.12903 -22.473259 2.3509886e-038
-72.949142 273.23605 -22.400053 2.3509886e-038
-68.303963 274.85458 -22.53274 2.3509886e-038
-63.605404 276.50101 -22.667713 2.3509886e-038
-58.684917 277.38599 -22.740265 2.3509886e-038
-53.645542 277.82452 -22.776217 2.3509886e-038
-48.571983 278.16013 -22.80373 2.3509886e-038
-43.426117 278.11197 -22.799782 2.3509886e-038
-38.229679 277.68372 -22.764673 2.3509886e-038
-33.073746 277.4624 -22.746529 2.3509886e-038
-27.889603 276.88004 -22.698786 2.3509886e-038
-22.680859 275.73679 -22.605062 2.3509886e-038
-17.529631 274.83307 -22.530977 2.3509886e-038
-12.410899 273.90973 -22.455278 2.3509886e-038
-7.3021555 272.08813 -22.305944 2.3509886e-038
-2.2632532 270.56808 -22.181328 2.3509886e-038
2.7439005 271.46304 -22.254698 2.3509886e-038
5.3879724 273.2746 -22.403212 2.3509886e-038
-76.400528 273.49313 -27.473269 2.3509886e-038
-72.890633 273.01694 -27.425432 2.3509886e-038
-68.177162 274.34433 -27.558773 2.3509886e-038
-63.502483 276.05359 -27.730473 2.3509886e-038
-58.647583 277.20953 -27.846592 2.3509886e-038
-53.68372 278.02222 -27.928232 2.3509886e-038
-48.687557 278.82196 -28.008568 2.3509886e-038
-43.581959 279.11005 -28.037506 2.3509886e-038
-38.384953 278.81155 -28.007521 2.3509886e-038
-33.206585 278.57681 -27.983942 2.3509886e-038
-28.005365 278.0293 -27.92894 2.3509886e-038
-22.789551 277.0582 -27.831388 2.3509886e-038
-17.624771 276.32471 -27.75771 2.3509886e-038
-12.484717 275.53888 -27.67877 2.3509886e-038
-7.3458266 273.71536 -27.495592 2.3509886e-038
-2.2781396 272.34772 -27.358208 2.3509886e-038
2.7625947 273.3125 -27.455124 2.3509886e-038
5.0030241 274.65842 -27.590322 2.3509886e-038
-96.515121 222.78381 -26.494761 2.3418052e-038
-91.051575 219.52655 -26.107386 2.3418052e-038
-87.005516 219.54968 -26.110136 2.3418052e-038
-84.391479 223.36536 -26.563919 2.3418052e-038
-82.140717 228.58426 -27.184582 2.3418052e-038
-80.786896 231.93953 -27.583611 2.3418052e-038
-75.678955 273.45624 -32.521019 2.3509886e-038
-72.896065 273.03726 -32.471191 2.3509886e-038
-67.911827 273.27661 -32.499657 2.3509886e-038
-63.259335 274.99658 -32.704208 2.3509886e-038
-58.525352 276.63177 -32.898674 2.3509886e-038
-53.673939 277.97156 -33.05801 2.3509886e-038
-48.744209 279.14639 -33.197727 2.3509886e-038
-43.680428 279.74066 -33.268398 2.3509886e-038
-38.49881 279.63855 -33.25626 2.3509886e-038
-33.303841 279.39273 -33.227024 2.3509886e-038
-28.085852 278.82834 -33.159904 2.3509886e-038
-22.874468 278.09055 -33.072159 2.3509886e-038
-17.71722 277.77417 -33.034534 2.3509886e-038
-12.557179 277.13815 -32.958897 2.3509886e-038
-7.3813543 275.03918 -32.709274 2.3509886e-038
-2.2869766 273.40417 -32.514828 2.3509886e-038
2.7772956 274.76691 -32.676895 2.3509886e-038
5.3636694 277.02396 -32.945316 2.3509886e-038
-95.895546 221.99939 -30.502403 2.3418052e-038
-90.919518 219.20813 -30.118889 2.3418052e-038
-86.691719 218.75787 -30.057022 2.3418052e-038
-83.574738 221.20361 -30.393064 2.3418052e-038
-80.981049 225.3571 -30.963747 2.3418052e-038
-78.955894 231.62865 -31.825449 2.3418052e-038
-78.076523 242.17273 -33.274193 2.3418052e-038
-78.039284 243.20224 -33.415646 2.3418052e-038
-75.768547 271.13672 -37.253803 2.3509886e-038
-72.624771 272.02112 -37.375317 2.3509886e-038
-67.529793 271.73932 -37.336594 2.3509886e-038
-62.893017 273.40414 -37.565342 2.3509886e-038
-58.305813 275.59406 -37.866234 2.3509886e-038
-53.58683 277.52045 -38.130917 2.3509886e-038
-48.697887 278.88113 -38.317875 2.3509886e-038
-43.65723 279.5921 -38.415558 2.3509886e-038
-38.535809 279.90729 -38.458866 2.3509886e-038
-33.371861 279.96335 -38.466568 2.3509886e-038
-28.149464 279.45987 -38.397392 2.3509886e-038
-22.933126 278.80368 -38.307232 2.3509886e-038
-17.763157 278.49435 -38.264729 2.3509886e-038
-12.580945 277.66266 -38.150455 2.3509886e-038
-7.3938727 275.50565 -37.854084 2.3509886e-038
-2.2922444 274.03394 -37.651875 2.3509886e-038
2.7936649 276.38641 -37.975101 2.3509886e-038
6.0198884 280.37985 -38.523796 2.3509886e-038
-92.557533 222.61375 -34.699078 2.3418052e-038
-92.265793 222.45403 -34.674183 2.3418052e-038
-87.651428 221.1796 -34.475536 2.3418052e-038
-84.035431 222.42297 -34.669342 2.3418052e-038
-80.870995 225.05086 -35.078953 2.3418052e-038
-78.579979 230.52582 -35.932343 2.3418052e-038
-77.220955 239.519 -37.334122 2.3418052e-038
-75.641739 248.88089 -38.793369 2.3418052e-038
-74.341454 260.43164 -40.5938 2.3509886e-038
-71.308891 267.09238 -41.632015 2.3509886e-038
-66.807381 268.83234 -41.903225 2.3509886e-038
-62.311363 270.87564 -42.221718 2.3509886e-038
-57.932373 273.82892 -42.682053 2.3509886e-038
-53.394871 276.52631 -43.102497 2.3509886e-038
-48.585091 278.23517 -43.368858 2.3509886e-038
-43.596989 279.2063 -43.520229 2.3509886e-038
-38.533566 279.89102 -43.626957 2.3509886e-038
-33.401703 280.21368 -43.67725 2.3509886e-038
-28.205009 280.01129 -43.645706 2.3509886e-038
-22.998524 279.59872 -43.581398 2.3509886e-038
-17.787041 278.86884 -43.467625 2.3509886e-038
-12.574092 277.51138 -43.256042 2.3509886e-038
-7.3992443 275.70578 -42.974598 2.3509886e-038
-2.2995017 274.90152 -42.849236 2.3509886e-038
2.8090589 277.90936 -43.318073 2.3509886e-038
6.5566883 282.82568 -44.084385 2.3509886e-038
-89.254616 227.46999 -39.657993 2.3418052e-038
-86.193932 228.13605 -39.77412 2.3418052e-038
-82.492249 229.56253 -40.02282 2.3418052e-038
-79.513016 233.26303 -40.66798 2.3418052e-038
-76.947807 238.67177 -41.610958 2.3418052e-038
-74.378387 244.72414 -42.666153 2.3418052e-038
-72.172882 252.83473 -44.080185 2.3418052e-038
-69.603462 260.70462 -45.452248 2.3418052e-038
-65.744553 264.55548 -46.123627 2.3418052e-038
-61.451561 267.13797 -46.573872 2.3509886e-038
-57.257652 270.63971 -47.184376 2.3509886e-038
-52.926476 274.10056 -47.787746 2.3509886e-038
-48.315853 276.69333 -48.239784 2.3509886e-038
-43.521461 278.7226 -48.593575 2.3509886e-038
-38.559559 280.0798 -48.830196 2.3509886e-038
-33.468616 280.77505 -48.951405 2.3509886e-038
-28.295187 280.90656 -48.974335 2.3509886e-038
-23.08231 280.61734 -48.923908 2.3509886e-038
-17.830576 279.55139 -48.738071 2.3509886e-038
-12.586778 277.79138 -48.431225 2.3509886e-038
-7.4160852 276.33331 -48.177017 2.3509886e-038
-2.3101101 276.16971 -48.148499 2.3509886e-038
2.8256025 279.54608 -48.737144 2.3509886e-038
6.7613573 284.82727 -49.65789 2.3509886e-038
-87.394844 238.05724 -45.901382 2.3418052e-038
-85.707138 238.50905 -45.988499 2.3418052e-038
-81.969917 240.47072 -46.366745 2.3418052e-038
-78.167397 242.45461 -46.749268 2.3418052e-038
-74.454994 244.9762 -47.235474 2.3418052e-038
-71.131485 249.18654 -48.047302 2.3418052e-038
-68.125481 255.1687 -49.20076 2.3418052e-038
-64.428719 259.26059 -49.989742 2.3418052e-038
-60.294415 262.1077 -50.538712 2.3418052e-038
-56.23317 265.7973 -51.250126 2.3509886e-038
-52.123661 269.94284 -52.049458 2.3509886e-038
-47.80051 273.74207 -52.782013 2.3509886e-038
-43.303669 277.32782 -53.4734 2.3509886e-038
-38.545692 279.9791 -53.984615 2.3509886e-038
-33.544624 281.41269 -54.261032 2.3509886e-038
-28.377527 281.724 -54.32106 2.3509886e-038
-23.140997 281.33078 -54.245243 2.3509886e-038
-17.880415 280.33273 -54.052803 2.3509886e-038
-12.622659 278.58328 -53.715477 2.3509886e-038
-7.4435101 277.35519 -53.47868 2.3509886e-038
-2.3233776 277.75586 -53.555935 2.3509886e-038
2.8478596 281.74805 -54.325699 2.3509886e-038
6.6993957 287.52414 -55.439419 2.3509886e-038
-85.061577 249.39523 -52.694527 2.3418052e-038
-85.009827 249.38873 -52.693153 2.3418052e-038
-80.471397 249.60101 -52.738003 2.3418052e-038
-75.806877 249.42427 -52.700661 2.3418052e-038
-71.208038 249.45473 -52.707096 2.3418052e-038
-67.24913 251.88628 -53.220856 2.3418052e-038
-63.266644 254.58443 -53.790951 2.3418052e-038
-59.142193 257.09882 -54.322212 2.3418052e-038
-55.104618 260.46298 -55.03302 2.3418052e-038
-51.088535 264.58203 -55.903336 2.3509886e-038
-46.995972 269.13467 -56.865257 2.3509886e-038
-42.804222 274.12921 -57.920547 2.3509886e-038
-38.336136 278.45697 -58.834953 2.3509886e-038
-33.509384 281.11707 -59.397003 2.3509886e-038
-28.397621 281.92349 -59.567398 2.3509886e-038
-23.170811 281.69324 -59.518749 2.3509886e-038
-17.925369 281.03754 -59.380203 2.3509886e-038
-12.673968 279.7157 -59.10091 2.3509886e-038
-7.483398 278.84146 -58.916195 2.3509886e-038
-2.3398697 279.72745 -59.103401 2.3509886e-038
2.8753159 284.46439 -60.104263 2.3509886e-038
6.3490391 290.48801 -61.376984 2.3509886e-038
-82.251305 258.20508 -59.325687 2.3509886e-038
-77.810806 256.0177 -58.823112 2.3418052e-038
-72.145477 252.73874 -58.069729 2.3418052e-038
-67.259987 251.92696 -57.883213 2.3418052e-038
-62.810341 252.74825 -58.071915 2.3418052e-038
-58.515953 254.3765 -58.446022 2.3418052e-038
-54.358906 256.93823 -59.034607 2.3418052e-038
-50.237411 260.17416 -59.778107 2.3509886e-038
-46.202232 264.58911 -60.792492 2.3509886e-038
-42.205868 270.29721 -62.103992 2.3509886e-038
-37.991543 275.95398 -63.403702 2.3509886e-038
-33.401085 280.2085 -64.381233 2.3509886e-038
-28.416199 282.10794 -64.81765 2.3509886e-038
-23.223452 282.33322 -64.869408 2.3509886e-038
-17.977976 281.8623 -64.761215 2.3509886e-038
-12.725681 280.85699 -64.530228 2.3509886e-038
-7.5260539 280.43088 -64.432327 2.3509886e-038
-2.359344 282.05554 -64.805618 2.3509886e-038
2.9093721 287.83368 -66.133209 2.3509886e-038
5.6135674 293.05801 -67.333557 2.3509886e-038
-78.549187 262.52048 -65.166641 2.3509886e-038
-73.907616 258.91183 -64.270859 2.3418052e-038
-68.215332 255.50526 -63.425228 2.3418052e-038
-63.107803 253.94527 -63.037983 2.3418052e-038
-58.433643 254.01869 -63.05621 2.3418052e-038
-54.059612 255.52356 -63.429771 2.3509886e-038
-49.817261 257.99826 -64.044075 2.3509886e-038
-45.72588 261.86115 -65.002975 2.3509886e-038
-41.778099 267.55765 -66.417046 2.3509886e-038
-37.723747 274.00885 -68.018448 2.3509886e-038
-33.327034 279.58731 -69.403221 2.3509886e-038
-28.465963 282.60199 -70.151566 2.3509886e-038
-23.304771 283.32187 -70.330269 2.3509886e-038
-18.047184 282.94739 -70.237312 2.3509886e-038
-12.785376 282.17447 -70.045448 2.3509886e-038
-7.5780277 282.36749 -70.093361 2.3509886e-038
-2.385963 285.23782 -70.805878 2.3509886e-038
2.9551044 292.35812 -72.57338 2.3509886e-038
4.6613541 295.66254 -73.393646 2.3509886e-038
-75.074524 268.66864 -71.655876 2.3509886e-038
-70.546593 264.23712 -70.473953 2.3509886e-038
-64.440613 259.3085 -69.159447 2.3509886e-038
-59.053951 256.71524 -68.467812 2.3509886e-038
-54.261082 256.47583 -68.403961 2.3509886e-038
-49.887741 258.36328 -68.907356 2.3509886e-038
-45.698975 261.70706 -69.799171 2.3509886e-038
-41.649418 266.73352 -71.139763 2.3509886e-038
-37.584511 272.99747 -72.810402 2.3509886e-038
-33.270584 279.11368 -74.441643 2.3509886e-038
-28.53656 283.30286 -75.558922 2.3509886e-038
-23.418755 284.70758 -75.933578 2.3509886e-038
-18.15094 284.5741 -75.897972 2.3509886e-038
-12.879561 284.25314 -75.812378 2.3509886e-038
-7.6536241 285.18433 -76.06073 2.3509886e-038
-2.4228332 289.64557 -77.25058 2.3509886e-038
3.0279007 299.56009 -79.894852 2.3509886e-038
3.579375 300.86456 -80.24276 2.3509886e-038
-69.918762 274.728 -78.346901 2.3509886e-038
-67.628868 272.13797 -77.608269 2.3509886e-038
-60.923691 264.84326 -75.527969 2.3509886e-038
-55.206627 260.94513 -74.416306 2.3509886e-038
-50.419674 261.11807 -74.465622 2.3509886e-038
-46.04174 263.67001 -75.19339 2.3509886e-038
-41.849052 268.01205 -76.431648 2.3509886e-038
-37.65601 273.51685 -78.001495 2.3509886e-038
-33.306572 279.41562 -79.683716 2.3509886e-038
-28.674589 284.67316 -81.183052 2.3509886e-038
-23.609047 287.021 -81.852615 2.3509886e-038
-18.329567 287.37463 -81.953468 2.3509886e-038
-13.034956 287.68271 -82.041321 2.3509886e-038
-7.7661572 289.37744 -82.524628 2.3509886e-038
-2.4659166 294.79614 -84.069931 2.3509886e-038
1.2534866 301.61935 -86.01577 2.3509886e-038
-61.697933 274.94043 -83.486359 2.3509886e-038
-57.07486 269.77573 -81.918076 2.3509886e-038
-51.53756 266.90747 -81.047134 2.3509886e-038
-46.815567 268.10153 -81.409706 2.3509886e-038
-42.476852 272.03265 -82.603401 2.3509886e-038
-38.14299 277.05405 -84.128159 2.3509886e-038
-33.66523 282.42444 -85.758896 2.3509886e-038
-29.024904 288.151 -87.49778 2.3509886e-038
-24.008535 291.87769 -88.629395 2.3509886e-038
-18.719988 293.49576 -89.12072 2.3509886e-038
-13.359068 294.83591 -89.527664 2.3509886e-038
-7.9732509 297.09406 -90.213356 2.3509886e-038
-3.7167044 300.41635 -91.222183 2.3509886e-038
-52.522572 276.9422 -89.210045 2.3509886e-038
-48.386139 277.09583 -89.259537 2.3509886e-038
-43.790337 280.44452 -90.338242 2.3509886e-038
-39.203022 284.75366 -91.726318 2.3509886e-038
-34.485893 289.30917 -93.193771 2.3509886e-038
-29.723597 295.0874 -95.055077 2.3509886e-038
-24.701002 300.29617 -96.732956 2.3509886e-038
-19.392893 304.04568 -97.940765 2.3509886e-038
-14.34654 307.43704 -99.033203 2.3509886e-038
-41.292114 296.22659 -100.89415 2.3509886e-038
-40.808083 296.41211 -100.95734 2.3509886e-038
-35.662556 299.18042 -101.90022 2.3509886e-038
-31.929293 302.58694 -103.06048 2.3509886e-038
-91.759315 221.23291 -23.83465 2.3418052e-038
-92.356346 222.67236 -34.89909 2.3418052e-038
-87.783859 221.51375 -23.533138 2.3418052e-038
-89.586182 226.06175 -38.749504 2.3418052e-038
-86.887001 229.97044 35.185284 9.1476764e-041
-86.814934 229.77968 31.363323 9.1476764e-041
-85.133858 225.33025 -24.324949 2.3418052e-038
-88.199745 233.44498 -43.207726 2.3418052e-038
-82.162842 228.64584 36.743492 9.1476764e-041
-83.762749 233.09813 24.928614 9.1476764e-041
-82.510818 229.61423 -26.007311 2.3418052e-038
-86.954666 241.98071 -47.994251 2.3418052e-038
-79.472618 233.14452 36.368988 9.1476764e-041
-83.243828 244.2079 19.096848 9.1476764e-041
-79.668015 233.71774 -28.921864 2.3418052e-038
-85.034134 249.46004 -52.743809 2.3418052e-038
-77.324539 239.8403 34.806728 9.1476764e-041
-81.712036 253.44914 9.9162912 9.1476764e-041
-78.122688 242.31595 -33.062439 2.3418052e-038
-82.747292 256.66022 -58.089497 2.3509886e-038
-75.510574 248.44936 32.27961 9.1476764e-041
-79.262444 260.79395 -0.40882522 9.1476764e-041
-76.764534 252.5752 -36.653221 2.3418052e-038
-79.549652 261.73895 -63.769512 2.3509886e-038
-73.744629 258.34088 28.698473 2.3509886e-038
-78.221909 274.0256 -19.512304 2.3509886e-038
-75.956245 266.08856 -38.31876 2.3509886e-038
-76.096115 266.57855 -69.690689 2.3509886e-038
-71.041756 266.09183 23.077917 2.3509886e-038
-72.61039 271.96725 -75.229698 2.3509886e-038
-68.959129 277.49094 14.168944 2.3509886e-038
-68.582542 275.97556 -79.780472 2.3509886e-038
-55.431736 240.96899 71.580879 3.5733111e-043
-58.311493 253.48767 45.307034 2.3509886e-038
-63.251659 274.96323 5.9730377 2.3509886e-038
-63.410454 275.65353 -82.800125 2.3509886e-038
-51.382679 242.8705 70.507797 3.5733111e-043
-56.486088 266.99277 23.629799 2.3509886e-038
-58.04155 274.34497 5.5668812 2.3509886e-038
-58.04628 274.36734 -85.296486 2.3509886e-038
-48.273655 250.00409 62.938652 3.5733111e-043
-53.321861 276.14819 -88.492279 2.3509886e-038
-46.359474 265.48959 49.758575 3.5733111e-043
-49.221054 281.8772 -92.659004 2.3509886e-038
-41.975365 268.82101 25.526653 2.3418409e-038
-45.307392 290.16016 -97.405144 2.3509886e-038
-37.358009 271.35226 12.365855 2.3418409e-038
-40.848518 296.70581 -101.18795 2.3509886e-038
-30.50909 255.94696 39.852718 2.3418409e-038
-35.780285 300.16809 -102.77144 2.3509886e-038
-24.879734 246.99892 69.612984 2.3418409e-038
-30.572062 303.51071 -103.04599 2.3509886e-038
-20.565271 250.01707 67.527946 2.3418409e-038
-25.22798 306.70276 -102.51357 2.3509886e-038
-17.071962 267.65765 37.668331 2.3509886e-038
-17.473892 273.9592 25.611988 2.3509886e-038
-17.795618 279.0033 11.966109 2.3509886e-038
-19.643967 307.98206 -101.04688 2.3509886e-038
-12.323345 271.97739 2.4249172 2.3509528e-038
-13.922635 307.2739 -98.81163 2.3509886e-038
-7.1585422 266.73691 1.4641613 2.3509528e-038
-8.1502781 303.69028 -95.133484 2.3509886e-038
-2.2054527 263.65811 3.6841483 2.3509528e-038
-2.5116081 300.25848 -90.18261 2.3509886e-038
2.6365921 260.84668 8.1805954 2.3509528e-038
3.0483913 301.58731 -82.040344 2.3509886e-038
7.3149233 255.9407 13.471193 2.3509528e-038
7.8020196 272.98364 -13.401425 2.3509886e-038
11.947113 253.90657 18.88122 2.3509528e-038
12.613909 268.07767 -3.9634857 2.3509528e-038
16.50864 251.94096 24.887907 2.3509528e-038
17.14057 261.58493 3.1043966 2.3509528e-038
21.044807 250.53799 30.839602 2.3509528e-038
21.883045 260.51718 11.125972 2.3509528e-038
25.75815 251.36969 34.653912 2.3509528e-038
26.20731 255.75294 19.56403 2.3509528e-038
