# .PCD v0.7 - Point Cloud Data file format
VERSION 0.7
FIELDS x y z rgb
SIZE 4 4 4 4
TYPE F F F F
COUNT 1 1 1 1
WIDTH 647
HEIGHT 1
VIEWPOINT 0 0 0 1 0 0 0
POINTS 647
DATA ascii
0 0 0 2.3418052e-038
-77.514343 245.6476 9.2554436 9.1476764e-041
-57.127628 242.59476 65.125496 3.5733111e-043
26.139656 252.27979 27.327824 2.3509528e-038
-23.70376 251.64742 62.814957 2.3418409e-038
-62.504128 240.86682 67.376427 3.5733111e-043
-61.366833 240.87964 67.380013 3.5733111e-043
-57.069336 241.63181 67.590408 3.5733111e-043
-53.299671 242.68294 67.884438 3.5733111e-043
-63.883877 243.95738 63.708603 3.5733111e-043
-62.050701 243.56398 63.605865 3.5733111e-043
-57.543587 243.63979 63.625664 3.5733111e-043
-53.113033 244.08032 63.740707 3.5733111e-043
-51.369282 244.38179 63.819439 3.5733111e-043
-29.492334 253.71632 66.257118 2.3418409e-038
-26.758696 252.11996 65.84024 2.3418409e-038
-21.9088 250.22495 65.34536 2.3418409e-038
-20.122419 250.05334 65.300545 2.3418409e-038
-64.159042 247.68839 60.081314 3.5733111e-043
-63.024551 247.38658 60.008106 3.5733111e-043
-58.339664 247.01038 59.916851 3.5733111e-043
-53.666576 246.62413 59.823158 3.5733111e-043
-50.247292 246.47401 59.786743 3.5733111e-043
-31.281597 258.15878 62.621094 2.3418409e-038
-26.978123 254.18741 61.657768 2.3418409e-038
-22.010473 251.3862 60.978287 2.3418409e-038
-18.76198 251.14075 60.918743 2.3418409e-038
-64.413696 252.75203 56.613884 3.5733111e-043
-64.387184 252.73526 56.610126 3.5733111e-043
-59.162746 250.49532 56.108402 3.5733111e-043
-54.174511 248.95834 55.764137 3.5733111e-043
-49.493332 248.67722 55.701168 3.5733111e-043
-49.330223 248.80659 55.730145 3.5733111e-043
-31.949188 261.71744 58.622044 2.3418409e-038
-27.19985 256.27652 57.403332 2.3418409e-038
-22.154552 253.03175 56.67654 2.3418409e-038
-18.421642 253.14113 56.701038 2.3418409e-038
-64.278816 256.46664 52.681206 3.5733111e-043
-59.872417 253.50008 52.071831 3.5733111e-043
-54.609486 250.95724 51.549511 3.5733111e-043
-49.844582 250.44206 51.44368 3.5733111e-043
-48.432671 251.17039 51.593288 2.3509886e-038
-31.945683 262.65854 53.953087 2.3418409e-038
-27.288086 257.10788 52.81292 2.3418409e-038
-22.251127 254.13475 52.202202 2.3418409e-038
-18.434664 255.16814 52.414474 2.3418409e-038
-64.03492 259.01245 48.392113 3.5733111e-043
-60.530674 256.28714 47.882931 3.5733111e-043
-55.060165 253.02837 47.274082 3.5733111e-043
-50.221355 252.33513 47.144566 2.3509886e-038
-47.448193 253.05029 47.278179 2.3509886e-038
-31.935539 263.13251 49.161873 2.3418409e-038
-27.331734 257.51913 48.113106 2.3418409e-038
-22.286608 254.53996 47.556499 2.3418409e-038
-18.478565 256.19528 47.865768 2.3418409e-038
-64.074425 261.69479 44.03141 3.5733111e-043
-61.273113 259.4306 43.650452 3.5733111e-043
-55.571541 255.37837 42.968643 3.5733111e-043
-50.534645 253.90926 42.721458 3.5733111e-043
-46.387844 254.18687 42.768166 2.3509886e-038
-32.216648 263.66641 44.363148 2.3418409e-038
-27.346886 257.66187 43.352852 2.3418409e-038
-22.288595 254.56268 42.831398 2.3418409e-038
-18.408867 256.2543 43.116024 2.3418409e-038
-64.133797 264.74347 39.625881 3.5733111e-043
-62.065865 262.78714 39.333061 3.5733111e-043
-56.059959 257.62289 38.560093 3.5733111e-043
-50.826248 255.3744 38.223545 3.5733111e-043
-46.107368 255.51596 38.244736 2.3509886e-038
-45.479172 255.80135 38.287449 2.3509886e-038
-32.7747 264.1723 39.540386 2.3509886e-038
-27.38438 258.01517 38.618805 2.3418409e-038
-22.30414 254.7402 38.12862 2.3418409e-038
-18.086121 255.80434 38.287895 2.3418409e-038
-63.626534 266.53348 34.942047 3.5733111e-043
-62.708775 265.50922 34.807766 3.5733111e-043
-56.4921 259.6088 34.034233 3.5733111e-043
-51.182945 257.1666 33.714062 3.5733111e-043
-46.437607 257.34607 33.737591 2.3509886e-038
-44.746181 258.28296 33.86042 2.3509886e-038
-33.529018 264.6131 34.690289 2.3509886e-038
-32.931389 264.05725 34.617416 2.3509886e-038
-27.426685 258.41376 33.877567 2.3418409e-038
-22.311567 254.82503 33.407089 2.3418409e-038
-17.54434 254.34669 33.344379 2.3418409e-038
-17.541452 254.34882 33.344662 2.3418409e-038
-62.641636 267.13708 30.058218 3.5733111e-043
-56.887604 261.42633 29.415648 3.5733111e-043
-51.54285 258.97495 29.139816 3.5733111e-043
-46.836533 259.55682 29.20529 2.3509886e-038
-44.314854 262.02206 29.482679 2.3509886e-038
-34.475384 265.88257 29.917063 2.3509886e-038
-32.958923 264.27805 29.736523 2.3509886e-038
-27.436745 258.50854 29.087337 2.3418409e-038
-22.350752 255.2726 28.723228 2.3418409e-038
-17.571533 254.74092 28.663406 2.3418409e-038
-17.276621 254.94856 28.686768 2.3418409e-038
20.79586 255.98773 28.803698 2.3509528e-038
24.869181 253.18105 28.487886 2.3509528e-038
29.610247 253.50105 28.523895 2.3509528e-038
30.270065 253.86354 28.564682 2.3509528e-038
-61.601788 267.92395 25.16918 3.5733111e-043
-57.451492 264.01767 24.802219 3.5733111e-043
-51.978127 261.16196 24.533947 3.5733111e-043
-47.185253 261.48935 24.564705 2.3509886e-038
-44.061634 265.841 24.973507 2.3509886e-038
-35.485596 268.9801 25.268398 2.3509886e-038
-33.170834 265.97723 24.986303 2.3509886e-038
-27.508698 259.18646 24.34837 2.3418409e-038
-22.477446 256.7196 24.116627 2.3418409e-038
-17.798056 258.02487 24.239246 2.3418409e-038
-17.588282 258.28494 24.263678 2.3418409e-038
17.179533 260.51215 24.472904 2.3509528e-038
20.351109 255.51126 24.003113 2.3509528e-038
24.731289 251.77724 23.652334 2.3509528e-038
29.151737 251.96422 23.669899 2.3509528e-038
-78.55117 221.71556 16.709183 2.3509886e-038
-77.709778 223.52682 16.845686 2.3509886e-038
-76.32576 231.94052 17.479769 2.3509886e-038
-75.435196 242.95032 18.309502 9.1476764e-041
-73.515434 251.18149 18.929829 9.1476764e-041
-60.83585 269.96078 20.345095 3.5733111e-043
-58.203346 267.47281 20.157595 3.5733111e-043
-52.433136 263.44815 19.854282 3.5733111e-043
-47.370647 262.51675 19.784092 2.3509886e-038
-43.607021 267.39185 20.151495 2.3509886e-038
-36.155006 271.65799 20.473003 2.3509886e-038
-33.457169 268.27316 20.217913 2.3509886e-038
-27.674101 260.7449 19.650558 2.3418409e-038
-22.654648 258.74344 19.499722 2.3418409e-038
-18.306152 261.96707 19.742664 2.3418409e-038
13.534241 258.86618 19.508972 2.3509528e-038
15.709232 257.23227 19.385836 2.3509528e-038
20.204832 253.67474 19.117727 2.3509528e-038
24.758249 252.05171 18.995411 2.3509528e-038
27.182604 253.11699 19.075695 2.3509528e-038
-79.716698 218.13187 12.386589 2.3509886e-038
-77.352798 222.5 12.634633 2.3509886e-038
-76.805199 233.39746 13.253444 9.1476764e-041
-76.253746 245.58659 13.945601 9.1476764e-041
-73.806938 252.83447 14.357172 9.1476764e-041
-70.325424 257.28214 14.609733 9.1476764e-041
-69.856125 258.28085 14.666444 9.1476764e-041
-60.119534 271.91339 15.440565 3.5733111e-043
-58.954151 270.9231 15.384334 3.5733111e-043
-52.972942 266.16037 15.113882 2.3509886e-038
-47.683048 264.24802 15.005289 2.3509886e-038
-43.37743 267.97739 15.21706 2.3509886e-038
-42.861092 268.94702 15.272121 2.3509886e-038
-36.790161 273.62125 15.537546 2.3509886e-038
-33.746479 270.59299 15.365587 2.3509886e-038
-27.889545 262.77481 14.921634 2.3418409e-038
-22.772434 260.08871 14.769103 2.3418409e-038
-18.632284 261.99466 14.877333 2.3418409e-038
9.6438208 259.30377 14.724531 2.3509528e-038
10.950545 257.7088 14.633959 2.3509528e-038
15.51482 254.04886 14.426131 2.3509528e-038
20.10877 252.46867 14.336401 2.3509528e-038
24.379671 252.78244 14.354217 2.3509528e-038
-79.115631 218.86058 8.3618994 2.3509886e-038
-78.113266 224.68742 8.5845222 2.3509886e-038
-78.385193 238.19878 9.1007433 9.1476764e-041
-77.509438 249.63074 9.5375185 9.1476764e-041
-74.341873 254.66693 9.7299347 9.1476764e-041
-70.618881 258.35574 9.8708706 9.1476764e-041
-68.306625 263.92108 10.083503 9.1476764e-041
-59.924618 274.16275 10.474801 2.3509886e-038
-59.612724 273.94958 10.466658 2.3509886e-038
-53.584267 269.23193 10.286413 2.3509886e-038
-48.125778 266.70151 10.189734 2.3509886e-038
-43.476498 268.58942 10.261865 2.3509886e-038
-40.6413 271.93732 10.389776 2.3509886e-038
-38.579449 273.63486 10.454633 2.3509886e-038
-33.87859 271.65231 10.378887 2.3509886e-038
-28.080753 264.57639 10.10854 2.3418409e-038
-22.888939 261.41931 9.9879208 2.3418409e-038
-18.373434 262.11874 10.014643 2.3418409e-038
5.2068477 262.35721 10.023753 2.3509528e-038
6.2458215 261.18298 9.9788904 2.3509528e-038
10.886806 256.20871 9.7888412 2.3509528e-038
15.471148 253.33374 9.678998 2.3509528e-038
20.149702 252.98259 9.6655817 2.3509528e-038
21.369234 253.36868 9.6803322 2.3509528e-038
-81.968285 241.26746 4.7356434 9.1476764e-041
-81.577698 247.90024 4.8658328 9.1476764e-041
-78.952942 254.27974 4.9910507 9.1476764e-041
-74.837318 256.36414 5.0319638 9.1476764e-041
-70.841087 259.16864 5.0870113 9.1476764e-041
-67.37851 264.4769 5.1912026 9.1476764e-041
-66.360367 266.88351 5.2384405 9.1476764e-041
-60.660576 275.39072 5.4054208 2.3509886e-038
-59.859055 275.0816 5.399354 2.3509886e-038
-53.95541 271.09674 5.3211379 2.3509886e-038
-48.434338 268.4115 5.2684317 2.3509886e-038
-43.407906 268.16568 5.2636065 2.3509886e-038
-38.696594 270.05524 5.3006954 2.3509886e-038
-33.629658 269.65631 5.2928648 2.3509886e-038
-28.190498 265.61038 5.2134509 2.3509886e-038
-23.017452 262.88712 5.1599984 2.3418409e-038
-18.140091 262.98349 5.16189 2.3418409e-038
-17.292227 263.70914 5.1761327 2.3418409e-038
0.16931453 265.79675 5.2171087 2.3509886e-038
1.4096313 264.2121 5.1860051 2.3509528e-038
6.2062736 259.52924 5.094089 2.3509528e-038
10.883167 256.12311 5.0272326 2.3509528e-038
15.532338 254.33571 4.9921494 2.3509528e-038
18.357401 255.03227 5.0058217 2.3509528e-038
-83.05056 258.63974 0.27153799 9.1476764e-041
-80.180931 258.23465 0.27111268 9.1476764e-041
-75.513992 258.68216 0.27158251 9.1476764e-041
-71.313545 260.89713 0.27390793 9.1476764e-041
-67.390747 264.52496 0.2777167 9.1476764e-041
-63.679688 269.62006 0.28306586 9.1476764e-041
-59.170456 271.91714 0.28547749 9.1476764e-041
-53.796955 270.3006 0.28378034 2.3509886e-038
-48.533146 268.95905 0.28237188 2.3509886e-038
-43.410034 268.17883 0.28155276 2.3509886e-038
-38.433292 268.21768 0.28159356 2.3509886e-038
-33.439766 268.13364 0.28150532 2.3509886e-038
-28.269777 266.35736 0.27964047 2.3509886e-038
-23.119663 264.05447 0.27722275 2.3509886e-038
-18.16585 263.35693 0.27649042 2.3509886e-038
-13.642113 266.10995 0.27938071 2.3509886e-038
-6.9925499 269.30276 0.28273275 2.3509886e-038
-3.5403683 267.33765 0.28066963 2.3509528e-038
1.4046437 263.27725 0.27640676 2.3509528e-038
6.2156816 259.92264 0.27288482 2.3509528e-038
10.941049 257.48526 0.27032593 2.3509528e-038
15.266176 256.55835 0.26935276 2.3509528e-038
-81.785027 262.60269 -4.6030278 9.1476764e-041
-81.494446 262.46503 -4.6006145 9.1476764e-041
-76.470573 261.95908 -4.5917463 9.1476764e-041
-72.012451 263.45404 -4.6179509 9.1476764e-041
-67.657188 265.5708 -4.6550541 9.1476764e-041
-63.265869 267.86795 -4.6953201 9.1476764e-041
-58.60265 269.3078 -4.7205586 9.1476764e-041
-53.665806 269.64163 -4.7264099 9.1476764e-041
-48.670456 269.72 -4.7277837 2.3509886e-038
-43.620964 269.4819 -4.7236099 2.3509886e-038
-38.615849 269.4917 -4.7237816 2.3509886e-038
-33.577404 269.23727 -4.7193222 2.3509886e-038
-28.415689 267.73215 -4.6929398 2.3509886e-038
-23.253412 265.58206 -4.655252 2.3509886e-038
-18.227039 264.24402 -4.6317978 2.3509886e-038
-13.339952 264.6828 -4.6394892 2.3509886e-038
-8.4496393 265.53311 -4.6543941 2.3509528e-038
-3.5091987 264.98401 -4.6447687 2.3509528e-038
1.4060884 263.54803 -4.6195984 2.3509528e-038
6.2648535 261.97885 -4.592093 2.3509528e-038
11.061193 260.31274 -4.5628881 2.3509528e-038
12.191389 260.16736 -4.5603404 2.3509528e-038
-81.605453 266.86758 -9.6357365 9.1476764e-041
-77.549568 265.65527 -9.5919638 9.1476764e-041
-72.682777 265.9064 -9.6010303 9.1476764e-041
-68.085945 267.25378 -9.6496811 9.1476764e-041
-63.502884 268.87149 -9.7080908 9.1476764e-041
-58.797886 270.20499 -9.7562389 9.1476764e-041
-53.918816 270.91287 -9.7817993 9.1476764e-041
-48.905083 271.02023 -9.785675 9.1476764e-041
-43.858051 270.94659 -9.7830162 2.3509886e-038
-38.85638 271.17032 -9.7910938 2.3509886e-038
-33.782963 270.88553 -9.7808113 2.3509886e-038
-28.608624 269.54996 -9.7325878 2.3509886e-038
-23.463734 267.98419 -9.676053 2.3509886e-038
-18.404814 266.82129 -9.6340647 2.3509886e-038
-13.417521 266.22186 -9.612421 2.3509886e-038
-8.4535322 265.65546 -9.5919704 2.3509528e-038
-3.5088825 264.96014 -9.566864 2.3509528e-038
1.411376 264.53915 -9.5516644 2.3509528e-038
6.3299823 264.70239 -9.5575571 2.3509528e-038
9.1811094 265.29333 -9.5788946 2.3509528e-038
-81.623795 270.44052 -14.789074 9.1476764e-041
-78.482941 268.85266 -14.702241 9.1476764e-041
-73.253807 267.99548 -14.655367 9.1476764e-041
-68.594215 269.24887 -14.723909 9.1476764e-041
-64.016937 271.04797 -14.822293 9.1476764e-041
-59.256466 272.31241 -14.891438 9.1476764e-041
-54.292423 272.79004 -14.917558 9.1476764e-041
-49.197994 272.64346 -14.909543 9.1476764e-041
-44.091682 272.38992 -14.895678 2.3509886e-038
-39.002869 272.19266 -14.88489 2.3509886e-038
-33.90638 271.87512 -14.867525 2.3509886e-038
-28.792927 271.28647 -14.835335 2.3509886e-038
-23.679081 270.4437 -14.789248 2.3509886e-038
-18.593889 269.56238 -14.741052 2.3509886e-038
-13.545559 268.7623 -14.6973 2.3509886e-038
-8.5096264 267.41824 -14.6238 2.3509528e-038
-3.5187335 265.70398 -14.530055 2.3509528e-038
1.4137399 264.98221 -14.490584 2.3509528e-038
6.3712001 266.42599 -14.56954 2.3509528e-038
6.5497804 266.55847 -14.576783 2.3509528e-038
-81.211784 272.45749 -19.961184 2.3509886e-038
-79.15831 271.16623 -19.866583 9.1476764e-041
-73.643456 269.42099 -19.738718 9.1476764e-041
-68.914627 270.50656 -19.818253 9.1476764e-041
-64.306969 272.27594 -19.947886 9.1476764e-041
-59.463989 273.26608 -20.020424 9.1476764e-041
-54.464851 273.6564 -20.049021 9.1476764e-041
-49.39854 273.75485 -20.056234 9.1476764e-041
-44.27652 273.5318 -20.039892 9.1476764e-041
-39.10397 272.89819 -19.993473 2.3509886e-038
-33.980911 272.47275 -19.962301 2.3509886e-038
-28.906015 272.35199 -19.953453 2.3509886e-038
-23.820721 272.0614 -19.932165 2.3509886e-038
-18.728945 271.52036 -19.892525 2.3509886e-038
-13.639007 270.61646 -19.826302 2.3509886e-038
-8.5547647 268.83673 -19.695915 2.3509886e-038
-3.5308125 266.61609 -19.533222 2.3509528e-038
1.4173676 265.66217 -19.463335 2.3509528e-038
4.6800876 266.38516 -19.516304 2.3509528e-038
-80.103821 272.11694 -24.991701 2.3509886e-038
-79.29863 271.64688 -24.948532 2.3509886e-038
-73.686981 269.5802 -24.758724 9.1476764e-041
-68.95768 270.67554 -24.85932 9.1476764e-041
-64.372726 272.55438 -25.031879 9.1476764e-041
-59.479385 273.33682 -25.103739 9.1476764e-041
-54.494347 273.8046 -25.1467 9.1476764e-041
-49.53442 274.50787 -25.21129 9.1476764e-041
-44.473564 274.74911 -25.233444 9.1476764e-041
-39.286461 274.17178 -25.180422 2.3509886e-038
-34.13802 273.73254 -25.140083 2.3509886e-038
-29.031649 273.53571 -25.122004 2.3509886e-038
-23.91679 273.15863 -25.087374 2.3509886e-038
-18.814157 272.75568 -25.050364 2.3509886e-038
-13.700747 271.84146 -24.966402 2.3509886e-038
-8.586565 269.83606 -24.782223 2.3509886e-038
-3.5476797 267.88974 -24.603468 2.3509886e-038
1.4271563 267.49692 -24.56739 2.3509886e-038
3.4582024 267.98859 -24.612547 2.3509528e-038
-78.652191 269.74448 -29.785219 2.3509886e-038
-73.41864 268.59851 -29.658678 2.3509886e-038
-68.717293 269.73196 -29.783838 9.1476764e-041
-64.255539 272.05823 -30.040701 9.1476764e-041
-59.48172 273.34756 -30.183071 9.1476764e-041
-54.583851 274.25433 -30.283195 9.1476764e-041
-49.690903 275.37506 -30.406948 9.1476764e-041
-44.680286 276.02618 -30.478846 2.3509886e-038
-39.509354 275.72726 -30.445839 2.3509886e-038
-34.328579 275.2605 -30.394299 2.3509886e-038
-29.171343 274.8519 -30.34918 2.3509886e-038
-24.014694 274.27682 -30.285681 2.3509886e-038
-18.905199 274.07553 -30.263454 2.3509886e-038
-13.785231 273.51773 -30.201862 2.3509886e-038
-8.6401005 271.5184 -29.981096 2.3509886e-038
-3.5700765 269.58096 -29.767162 2.3509886e-038
1.4375991 269.45422 -29.753168 2.3509886e-038
2.7841196 269.84567 -29.796392 2.3509886e-038
-86.651756 218.75278 -28.218777 2.3509886e-038
-84.521561 219.64511 -28.333887 2.3509886e-038
-81.357941 222.149 -28.656885 2.3509886e-038
-79.075302 227.45465 -29.341307 2.3509886e-038
-78.158577 235.46968 -30.375233 2.3509886e-038
-77.456703 265.2778 -34.220436 2.3509886e-038
-77.445969 265.30038 -34.223347 2.3509886e-038
-73.230659 267.9108 -34.560089 2.3509886e-038
-68.460617 268.72443 -34.665047 2.3509886e-038
-64.005066 270.99774 -34.958298 9.1476764e-041
-59.401024 272.97672 -35.213585 9.1476764e-041
-54.638119 274.52698 -35.413567 2.3509886e-038
-49.779778 275.86758 -35.586502 2.3509886e-038
-44.778923 276.63556 -35.68557 2.3509886e-038
-39.639343 276.63446 -35.685429 2.3509886e-038
-34.45797 276.298 -35.642029 2.3509886e-038
-29.270798 275.78897 -35.576359 2.3509886e-038
-24.098547 275.23453 -35.504837 2.3509886e-038
-18.995941 275.39108 -35.525032 2.3509886e-038
-13.872923 275.25766 -35.50782 2.3509886e-038
-8.6967144 273.29755 -35.254971 2.3509886e-038
-3.5903406 271.11115 -34.972923 2.3509886e-038
1.4467247 271.16464 -34.979832 2.3509886e-038
2.5426836 271.55414 -35.030075 2.3509886e-038
-84.584976 216.42363 -31.9391 2.3509886e-038
-83.476334 216.92888 -32.01366 2.3509886e-038
-80.391701 219.51067 -32.394672 2.3509886e-038
-77.937996 224.18327 -33.084244 2.3509886e-038
-76.406631 232.18626 -34.265297 2.3509886e-038
-76.168564 245.31224 -36.202385 2.3509886e-038
-75.990288 260.31378 -38.416267 2.3509886e-038
-73.083046 267.37073 -39.45771 2.3509886e-038
-68.319489 268.1705 -39.575737 2.3509886e-038
-63.781628 270.05167 -39.853348 2.3509886e-038
-59.259144 272.32471 -40.188801 2.3509886e-038
-54.603558 274.35333 -40.488174 2.3509886e-038
-49.792473 275.93796 -40.722027 2.3509886e-038
-44.811592 276.83737 -40.854763 2.3509886e-038
-39.706253 277.10141 -40.893726 2.3509886e-038
-34.534142 276.90878 -40.865303 2.3509886e-038
-29.339897 276.44 -40.79612 2.3509886e-038
-24.181902 276.18652 -40.758713 2.3509886e-038
-19.065765 276.40335 -40.79071 2.3509886e-038
-13.907061 275.935 -40.721596 2.3509886e-038
-8.7221146 274.09573 -40.450165 2.3509886e-038
-3.6069283 272.36368 -40.194553 2.3509886e-038
1.4559913 272.90155 -40.273926 2.3509886e-038
2.4987509 273.36841 -40.342827 2.3509886e-038
-82.375687 217.74516 -36.179474 2.3509886e-038
-80.354347 219.40868 -36.455875 2.3509886e-038
-77.773819 223.71103 -37.170734 2.3509886e-038
-75.914452 230.69063 -38.330433 2.3509886e-038
-75.158051 242.05774 -40.219135 2.3509886e-038
-74.92894 256.67801 -42.648369 2.3509886e-038
-72.550125 265.42108 -44.101074 2.3509886e-038
-68.06707 267.17966 -44.393272 2.3509886e-038
-63.499363 268.85657 -44.671898 2.3509886e-038
-58.987301 271.07547 -45.040577 2.3509886e-038
-54.394413 273.30249 -45.41061 2.3509886e-038
-49.669186 275.25473 -45.734982 2.3509886e-038
-44.799892 276.76511 -45.985939 2.3509886e-038
-39.771275 277.55518 -46.117218 2.3509886e-038
-34.606625 277.48999 -46.106388 2.3509886e-038
-29.41275 277.12643 -46.045979 2.3509886e-038
-24.271908 277.21451 -46.060612 2.3509886e-038
-19.119377 277.18054 -46.05497 2.3509886e-038
-13.910676 276.00671 -45.859932 2.3509886e-038
-8.7332468 274.44556 -45.600536 2.3509886e-038
-3.6216927 273.47858 -45.439865 2.3509886e-038
1.4644569 274.48828 -45.607635 2.3509886e-038
2.5055268 275.06128 -45.702843 2.3509886e-038
-80.894615 222.30869 -41.067856 2.3509886e-038
-78.453033 225.66475 -41.687836 2.3509886e-038
-76.241653 231.68492 -42.799961 2.3509886e-038
-74.813164 240.94698 -44.510975 2.3509886e-038
-73.875534 253.06943 -46.750397 2.3509886e-038
-71.639977 262.09137 -48.417049 2.3509886e-038
-67.645523 265.52502 -49.051361 2.3509886e-038
-63.146168 267.36115 -49.390556 2.3509886e-038
-58.625969 269.41495 -49.769962 2.3509886e-038
-54.066227 271.65353 -50.183502 2.3509886e-038
-49.447388 274.02557 -50.621696 2.3509886e-038
-44.743912 276.41925 -51.063892 2.3509886e-038
-39.835136 278.00085 -51.356068 2.3509886e-038
-34.707047 278.29523 -51.410442 2.3509886e-038
-29.519279 278.13016 -51.379948 2.3509886e-038
-24.360023 278.22089 -51.396713 2.3509886e-038
-19.175785 277.99832 -51.355598 2.3509886e-038
-13.935386 276.49698 -51.078247 2.3509886e-038
-8.7490644 274.94263 -50.791111 2.3509886e-038
-3.635083 274.48969 -50.707432 2.3509886e-038
1.4715326 275.81451 -50.952175 2.3509886e-038
2.5180552 276.43665 -51.067108 2.3509886e-038
-80.208183 230.27449 -46.817513 2.3509886e-038
-80.100975 230.40494 -46.844036 2.3509886e-038
-77.398506 235.20041 -47.819008 2.3509886e-038
-75.093117 241.8486 -49.170666 2.3509886e-038
-73.17643 250.67458 -50.965088 2.3509886e-038
-70.700447 258.65411 -52.587425 2.3509886e-038
-66.986557 262.93845 -53.458473 2.3509886e-038
-62.598011 265.04025 -53.885799 2.3509886e-038
-58.134441 267.15616 -54.315987 2.3509886e-038
-53.6493 269.55869 -54.804451 2.3509886e-038
-49.122322 272.22412 -55.346367 2.3509886e-038
-44.553982 275.24591 -55.960732 2.3509886e-038
-39.788166 277.67307 -56.454201 2.3509886e-038
-34.764175 278.7533 -56.673817 2.3509886e-038
-29.615236 279.03427 -56.730946 2.3509886e-038
-24.425371 278.96722 -56.717316 2.3509886e-038
-19.220394 278.64508 -56.651821 2.3509886e-038
-13.972727 277.23788 -56.365723 2.3509886e-038
-8.7780323 275.85297 -56.084152 2.3509886e-038
-3.6559172 276.0629 -56.126831 2.3509886e-038
1.4812921 277.64374 -56.448235 2.3509886e-038
2.5341225 278.22247 -56.565899 2.3509886e-038
-80.259743 241.54138 -53.595646 2.3509886e-038
-79.574097 241.81163 -53.655613 2.3509886e-038
-76.001381 244.7738 -54.312889 2.3509886e-038
-72.935455 249.84909 -55.439049 2.3509886e-038
-69.838478 255.50067 -56.693077 2.3509886e-038
-66.061783 259.30844 -57.537979 2.3509886e-038
-61.761078 261.49667 -58.023529 2.3509886e-038
-57.410034 263.82715 -58.540638 2.3509886e-038
-53.04528 266.52383 -59.139008 2.3509886e-038
-48.63406 269.51828 -59.803444 2.3509886e-038
-44.219009 273.17651 -60.61517 2.3509886e-038
-39.629845 276.56818 -61.367748 2.3509886e-038
-34.757881 278.70282 -61.841404 2.3509886e-038
-29.675732 279.60422 -62.041416 2.3509886e-038
-24.468548 279.46036 -62.009495 2.3509886e-038
-19.251347 279.09378 -61.92815 2.3509886e-038
-14.016358 278.10358 -61.708439 2.3509886e-038
-8.8229351 277.26407 -61.522156 2.3509886e-038
-3.684063 278.18823 -61.727219 2.3509886e-038
1.4951167 280.23495 -62.18137 2.3509886e-038
2.5524936 280.83328 -62.314129 2.3509886e-038
-78.881271 248.71939 -59.809174 2.3509886e-038
-77.185379 248.58702 -59.77734 2.3509886e-038
-73.057907 250.26855 -60.181698 2.3509886e-038
-69.212921 253.2121 -60.889526 2.3509886e-038
-65.192719 255.89717 -61.535202 2.3509886e-038
-60.940643 258.02295 -62.046383 2.3509886e-038
-56.640606 260.29126 -62.591835 2.3509886e-038
-52.352585 263.0434 -63.253647 2.3509886e-038
-48.07938 266.4444 -64.07148 2.3509886e-038
-43.846489 270.87515 -65.136932 2.3509886e-038
-39.476032 275.49475 -66.247803 2.3509886e-038
-34.777641 278.8613 -67.05735 2.3509886e-038
-29.756914 280.36914 -67.419937 2.3509886e-038
-24.543015 280.31088 -67.405922 2.3509886e-038
-19.308798 279.9267 -67.313545 2.3509886e-038
-14.07194 279.20642 -67.140343 2.3509886e-038
-8.8753653 278.91171 -67.069473 2.3509886e-038
-3.7155983 280.56949 -67.468117 2.3509886e-038
1.510891 283.19159 -68.098648 2.3509886e-038
2.5346045 283.83374 -68.253059 2.3509886e-038
-76.401192 253.05435 -65.55291 2.3509886e-038
-73.832008 252.92033 -65.518196 2.3509886e-038
-69.245041 253.32961 -65.624214 2.3509886e-038
-64.808914 254.39063 -65.899063 2.3509886e-038
-60.463181 256.00134 -66.316322 2.3509886e-038
-56.123112 257.91312 -66.811554 2.3509886e-038
-51.856495 260.55081 -67.49485 2.3509886e-038
-47.67836 264.22202 -68.445862 2.3509886e-038
-43.561844 269.11667 -69.713799 2.3509886e-038
-39.348682 274.60602 -71.135803 2.3509886e-038
-34.791027 278.9686 -72.265915 2.3509886e-038
-29.844841 281.19757 -72.843323 2.3509886e-038
-24.649422 281.52618 -72.928444 2.3509886e-038
-19.400505 281.2562 -72.858505 2.3509886e-038
-14.156656 280.8873 -72.762947 2.3509886e-038
-8.9517727 281.31287 -72.873184 2.3509886e-038
-3.7624359 284.10626 -73.596802 2.3509886e-038
1.5344796 287.61288 -74.505188 2.3509886e-038
2.3016763 288.17422 -74.650604 2.3509886e-038
-73.124214 257.94547 -71.612144 2.3509886e-038
-70.28019 257.11661 -71.382034 2.3509886e-038
-65.265221 256.18173 -71.12249 2.3509886e-038
-60.531048 256.2887 -71.152184 2.3509886e-038
-56.051743 257.58514 -71.5121 2.3509886e-038
-51.777081 260.15179 -72.224678 2.3509886e-038
-47.589603 263.73016 -73.218117 2.3509886e-038
-43.447872 268.41257 -74.518066 2.3509886e-038
-39.252949 273.93787 -76.052032 2.3509886e-038
-34.772839 278.82278 -77.408211 2.3509886e-038
-29.94245 282.11725 -78.322838 2.3509886e-038
-24.801989 283.26865 -78.642494 2.3509886e-038
-19.530912 283.14676 -78.608658 2.3509886e-038
-14.280046 283.33554 -78.661064 2.3509886e-038
-9.0658226 284.89691 -79.094536 2.3509886e-038
-3.8336267 289.48196 -80.367462 2.3509886e-038
1.4592953 295.07086 -81.919083 2.3509886e-038
-68.699791 264.11218 -78.230942 2.3509886e-038
-66.924217 262.6937 -77.810783 2.3509886e-038
-61.29459 259.52155 -76.871178 2.3509886e-038
-56.523064 259.75107 -76.939171 2.3509886e-038
-52.141483 261.98273 -77.600197 2.3509886e-038
-47.822449 265.02054 -78.5 2.3509886e-038
-43.578926 269.2222 -79.744545 2.3509886e-038
-39.340923 274.55188 -81.323212 2.3509886e-038
-34.883083 279.70676 -82.850105 2.3509886e-038
-30.151978 284.0914 -84.148865 2.3509886e-038
-25.084995 286.50092 -84.862564 2.3509886e-038
-19.788313 286.87839 -84.974373 2.3509886e-038
-14.493249 287.56577 -85.177971 2.3509886e-038
-9.23561 290.23254 -85.96788 2.3509886e-038
-3.9288836 296.67493 -87.876144 2.3509886e-038
-0.95608711 301.38443 -89.271103 2.3509886e-038
-62.287273 265.77557 -83.661293 2.3509886e-038
-57.723202 265.2663 -83.500992 2.3509886e-038
-52.988602 266.23904 -83.80719 2.3509886e-038
-48.497318 268.7605 -84.600906 2.3509886e-038
-44.159115 272.80649 -85.874504 2.3509886e-038
-39.817966 277.88101 -87.471878 2.3509886e-038
-35.305183 283.09131 -89.111977 2.3509886e-038
-30.625834 288.55606 -90.832191 2.3509886e-038
-25.676189 293.25308 -92.31073 2.3509886e-038
-20.377234 295.41617 -92.991623 2.3509886e-038
-14.958439 296.79575 -93.425896 2.3509886e-038
-9.5503254 300.12259 -94.473114 2.3509886e-038
-6.1720629 303.9422 -95.675461 2.3509886e-038
-53.527893 274.34198 -91.454666 2.3509886e-038
-50.068436 277.46725 -92.496513 2.3509886e-038
-45.729961 282.51086 -94.177856 2.3509886e-038
-41.129303 287.03256 -95.685204 2.3509886e-038
-36.396221 291.83969 -97.287704 2.3509886e-038
-31.5837 297.58109 -99.20166 2.3509886e-038
-26.673618 304.64493 -101.55647 2.3509886e-038
-21.374132 309.86856 -103.29782 2.3509886e-038
-17.434149 312.05112 -104.02539 2.3509886e-038
-85.962494 223.38965 -25.873911 2.3509886e-038
-83.383209 216.68689 -34.050426 2.3509886e-038
-82.827408 226.16139 -26.064352 2.3509886e-038
-81.084274 221.40175 -40.246395 2.3509886e-038
-77.837578 223.89444 17.841337 2.3509886e-038
-80.230324 230.77701 5.9016376 9.1476764e-041
-79.870033 229.74065 -27.752726 2.3509886e-038
-80.200584 230.69147 -47.079578 2.3509886e-038
-76.272697 231.77928 19.369532 2.3509886e-038
-83.434669 253.54326 2.6541204 9.1476764e-041
-77.906357 236.74367 -30.936432 2.3509886e-038
-80.112175 243.44676 -54.937923 2.3509886e-038
-75.259796 242.38542 19.731337 9.1476764e-041
-81.715622 263.17737 -5.2965083 9.1476764e-041
-77.001884 247.99608 -34.759605 2.3509886e-038
-77.833183 250.67339 -62.370731 2.3509886e-038
-73.405746 251.4601 18.860226 9.1476764e-041
-78.902725 270.29071 -28.936806 2.3509886e-038
-77.478821 265.41293 -34.130554 2.3509886e-038
-74.659637 255.75548 -68.989044 2.3509886e-038
-70.281654 257.12201 15.514865 9.1476764e-041
-71.243126 260.63953 -74.557625 2.3509886e-038
-61.178093 240.13878 68.843651 3.5733111e-043
-64.414719 252.84332 56.540054 3.5733111e-043
-67.579163 265.26453 8.1340246 9.1476764e-041
-67.428444 264.67294 -79.458847 2.3509886e-038
-56.936462 241.06921 70.89901 3.5733111e-043
-63.070274 267.03979 31.949177 3.5733111e-043
-63.894794 270.53082 1.8667418 9.1476764e-041
-62.688633 265.42392 -83.22142 2.3509886e-038
-52.867573 242.95232 67.197823 3.5733111e-043
-58.685417 269.68817 -87.495323 2.3509886e-038
-49.452332 248.47121 56.293194 3.5733111e-043
-54.377987 273.21997 -90.723839 2.3509886e-038
-45.972942 254.77103 40.827991 2.3509886e-038
-50.558456 280.18283 -94.472214 2.3509886e-038
-43.362015 267.88217 18.070789 2.3509886e-038
-46.768269 288.92535 -98.508675 2.3509886e-038
-39.145004 273.18457 10.171009 2.3509886e-038
-42.374191 295.72037 -101.71778 2.3509886e-038
-32.960754 264.29272 38.26675 2.3509886e-038
-37.471935 300.46524 -103.56533 2.3509886e-038
-26.74559 251.99649 68.924034 2.3418409e-038
-32.254257 303.89905 -104.25285 2.3509886e-038
-21.910942 250.24942 67.843719 2.3418409e-038
-27.097574 309.48703 -105.35992 2.3509886e-038
-17.544903 254.35483 33.37793 2.3418409e-038
-17.976353 260.60974 21.898537 2.3418409e-038
-18.11125 262.56537 8.3784294 2.3418409e-038
-21.587305 312.95901 -105.43076 2.3509886e-038
-13.418505 266.24136 0.13656408 2.3509886e-038
-15.691208 311.33487 -103.2225 2.3509886e-038
-8.5522146 268.75659 -0.35002899 2.3509886e-038
-9.7664566 306.91461 -99.084198 2.3509886e-038
-3.5617926 268.95544 2.2789688 2.3509886e-038
-4.0144157 303.13358 -93.522156 2.3509886e-038
1.4120662 264.66849 6.3438172 2.3509886e-038
1.5707296 294.40735 -81.253525 2.3509886e-038
6.2601852 261.78366 11.11124 2.3509528e-038
6.3734508 266.52011 -14.999565 2.3509528e-038
10.982664 258.46466 16.293062 2.3509528e-038
11.126181 261.84216 -6.2608685 2.3509528e-038
15.919998 260.68347 22.758942 2.3509528e-038
15.652184 256.29813 0.8639133 2.3509528e-038
20.415777 256.32318 28.402138 2.3509528e-038
20.220007 253.86526 7.9029732 2.3509528e-038
25.125418 255.78967 31.987394 2.3509528e-038
24.83637 252.84702 15.085386 2.3509528e-038
29.890816 255.90309 31.354717 2.3509528e-038
29.436481 252.01341 24.436914 2.3509528e-038
