# .PCD v0.7 - Point Cloud Data file format
VERSION 0.7
FIELDS x y z rgb
SIZE 4 4 4 4
TYPE F F F F
COUNT 1 1 1 1
WIDTH 739
HEIGHT 1
VIEWPOINT 0 0 0 1 0 0 0
POINTS 739
DATA ascii
-114.77905 253.8614 -32.281609 2.3418052e-038
-83.126976 248.593 49.173706 9.1476764e-041
-46.993156 255.84399 67.477348 3.5733111e-043
33.392445 253.21851 19.081396 2.3509528e-038
-11.919568 253.08463 58.405884 2.3418409e-038
-49.396011 254.98882 72.49118 3.5733111e-043
-48.767403 254.80968 72.440262 3.5733111e-043
-43.977165 254.49393 72.350487 3.5733111e-043
-43.036163 254.64011 72.392044 3.5733111e-043
-52.38258 257.06378 68.303505 3.5733111e-043
-48.916313 255.58772 67.911308 3.5733111e-043
-44.103451 255.22473 67.814857 3.5733111e-043
-40.595127 256.12454 68.053947 3.5733111e-043
-53.472439 260.10806 64.278229 3.5733111e-043
-49.27808 257.47797 63.628284 3.5733111e-043
-44.26865 256.18073 63.307709 3.5733111e-043
-39.790611 256.81039 63.463314 3.5733111e-043
-14.908824 253.075 62.540218 2.3418409e-038
-10.746461 251.63681 62.184807 2.3418409e-038
-7.9653988 251.57582 62.169739 2.3418409e-038
-53.472965 261.8656 59.845741 3.5733111e-043
-49.526474 258.77582 59.139626 3.5733111e-043
-44.354088 256.67514 58.659542 3.5733111e-043
-39.713398 257.51587 58.851677 3.5733111e-043
-39.221207 257.80814 58.918472 3.5733111e-043
-17.432188 255.75897 58.450161 2.3418409e-038
-15.591352 254.38065 58.135162 2.3418409e-038
-10.77107 252.21303 57.639786 2.3418409e-038
-6.4434204 252.54089 57.71471 2.3418409e-038
-87.756935 247.92346 52.051773 9.1476764e-041
-84.181068 247.54123 51.971519 9.1476764e-041
-79.913765 248.57794 52.189178 9.1476764e-041
-79.842422 248.6059 52.195045 9.1476764e-041
-52.846233 262.28513 55.067013 3.5733111e-043
-49.683754 259.5976 54.502766 3.5733111e-043
-44.441154 257.17902 53.994984 3.5733111e-043
-39.775295 257.91727 54.149979 3.5733111e-043
-38.501431 258.6413 54.301991 3.5733111e-043
-18.631763 257.74713 54.114262 2.3418409e-038
-15.637386 255.13171 53.565151 2.3418409e-038
-10.80382 252.97987 53.113373 2.3418409e-038
-6.1267009 253.99805 53.327137 2.3418409e-038
-6.1222615 254.00093 53.327744 2.3418409e-038
-88.871689 249.59074 47.76313 9.1476764e-041
-84.565559 248.67184 47.587288 9.1476764e-041
-80.123573 249.23056 47.694206 9.1476764e-041
-77.21347 250.3947 47.916981 9.1476764e-041
-52.303272 262.94254 50.318203 3.5733111e-043
-49.908195 260.77032 49.902519 3.5733111e-043
-44.593357 258.05981 49.38382 3.5733111e-043
-39.838928 258.32986 49.435501 3.5733111e-043
-37.795876 259.04623 49.572586 3.5733111e-043
-19.233749 259.5462 49.668262 2.3418409e-038
-15.662098 255.53491 48.900642 2.3418409e-038
-10.818196 253.31653 48.47612 2.3418409e-038
-6.1613941 255.43633 48.881775 2.3418409e-038
-6.0967474 255.51662 48.897141 2.3418409e-038
-88.857414 251.40366 43.437675 9.1476764e-041
-85.08831 250.20906 43.23127 9.1476764e-041
-80.409531 250.12007 43.215897 9.1476764e-041
-76.036758 251.03041 43.373188 9.1476764e-041
-75.30056 251.3363 43.426037 9.1476764e-041
-51.956585 263.37115 45.505432 2.3509886e-038
-50.05843 261.5553 45.191681 3.5733111e-043
-44.676716 258.54221 44.671078 3.5733111e-043
-39.880615 258.60019 44.681095 3.5733111e-043
-37.099483 259.4603 44.829708 3.5733111e-043
-19.509945 260.1355 44.946369 2.3418409e-038
-15.655002 255.41913 44.131474 2.3418409e-038
-10.798155 252.84723 43.687099 2.3418409e-038
-6.1604743 255.39821 44.127861 2.3418409e-038
-6.0895076 255.53104 44.150806 2.3418409e-038
-88.424316 253.50883 39.089912 9.1476764e-041
-85.774139 252.22578 38.892071 9.1476764e-041
-80.692429 251.00002 38.70306 9.1476764e-041
-76.037254 251.03206 38.708 9.1476764e-041
-73.590935 252.18356 38.885559 9.1476764e-041
-51.933521 264.02118 40.710865 2.3509886e-038
-50.190575 262.24576 40.437103 3.5733111e-043
-44.746674 258.94705 39.928459 3.5733111e-043
-39.928013 258.90753 39.922363 3.5733111e-043
-36.337906 260.00955 40.092293 3.5733111e-043
-19.808083 259.2695 39.97818 2.3418409e-038
-15.607994 254.65218 39.266209 2.3418409e-038
-10.765881 252.09149 38.871365 2.3418409e-038
-6.1290278 254.09451 39.180218 2.3418409e-038
-6.0587215 254.23917 39.202526 2.3418409e-038
-87.565628 254.65062 34.533253 9.1476764e-041
-86.328423 253.85571 34.425453 9.1476764e-041
-80.846931 251.48061 34.103363 9.1476764e-041
-76.040939 251.04422 34.044186 9.1476764e-041
-71.877747 252.81168 34.283871 9.1476764e-041
-71.843498 252.84708 34.28867 9.1476764e-041
-52.155476 265.27774 35.9744 2.3509886e-038
-50.396835 263.32346 35.709377 3.5733111e-043
-44.838436 259.47806 35.187901 3.5733111e-043
-39.930195 258.92169 35.112453 3.5733111e-043
-35.669987 259.8074 35.232563 3.5733111e-043
-20.462605 258.72589 35.085899 2.3418409e-038
-15.579768 254.19167 34.471012 2.3418409e-038
-10.774772 252.2997 34.214439 2.3418409e-038
-6.1312819 254.18797 34.470509 2.3418409e-038
-6.0619011 254.32809 34.489513 2.3418409e-038
-86.597588 255.1161 29.854996 9.1476764e-041
-81.007851 251.9812 29.488132 9.1476764e-041
-76.160904 251.44026 29.424829 9.1476764e-041
-71.942001 253.03766 29.611765 9.1476764e-041
-70.27491 254.40407 29.771669 2.3509886e-038
-52.169075 265.72488 31.096491 2.3509886e-038
-50.490482 263.81277 30.872725 2.3509886e-038
-44.899857 259.8335 30.407047 3.5733111e-043
-39.931332 258.92905 30.301207 3.5733111e-043
-35.319962 259.5181 30.370138 3.5733111e-043
-21.510521 259.19214 30.331993 2.3418409e-038
-20.635136 258.33765 30.231997 2.3418409e-038
-15.601314 254.54318 29.787949 2.3418409e-038
-10.814596 253.23221 29.634531 2.3418409e-038
-6.1537528 255.11957 29.8554 2.3418409e-038
-6.108007 255.20679 29.865608 2.3418409e-038
-86.06353 256.72128 25.271627 9.1476764e-041
-81.55928 253.69644 24.973862 9.1476764e-041
-76.559326 252.75565 24.881248 9.1476764e-041
-72.235001 254.06822 25.010462 9.1476764e-041
-68.725807 256.29355 25.229519 2.3509886e-038
-51.982277 266.06268 26.191195 2.3509886e-038
-50.648022 264.63593 26.050745 3.5733111e-043
-45.04752 260.68802 25.662111 3.5733111e-043
-40.037251 259.61588 25.55657 3.5733111e-043
-35.289948 260.12109 25.606306 3.5733111e-043
-22.709875 260.09256 25.603495 3.5733111e-043
-20.628094 258.24948 25.422064 2.3418409e-038
-15.629233 254.99872 25.102058 2.3418409e-038
-10.837483 253.76814 24.980921 2.3418409e-038
-6.2299395 255.38069 25.13966 2.3418409e-038
-85.196922 257.98203 20.601101 9.1476764e-041
-82.238441 255.80904 20.427578 9.1476764e-041
-77.028282 254.30388 20.307383 9.1476764e-041
-72.46904 254.89139 20.354301 9.1476764e-041
-68.104538 256.29391 20.466297 2.3509886e-038
-66.945129 257.00885 20.523388 2.3509886e-038
-51.753048 267.73242 21.379717 2.3509886e-038
-51.105785 267.02774 21.323444 2.3509886e-038
-45.306786 262.18839 20.937 3.5733111e-043
-40.189289 260.60172 20.810297 3.5733111e-043
-35.416084 261.1188 20.851587 3.5733111e-043
-35.36462 261.14807 20.853926 3.5733111e-043
-23.864025 261.64627 20.893709 3.5733111e-043
-20.651955 258.54822 20.646315 2.3418409e-038
-15.65591 255.43394 20.397625 2.3418409e-038
-10.857984 254.24817 20.302935 2.3418409e-038
-6.6181555 255.26387 20.384043 2.3418409e-038
29.238247 254.92909 20.357311 2.3509528e-038
31.644978 254.05353 20.287394 2.3509528e-038
36.30529 253.62531 20.253197 2.3509528e-038
38.702419 253.89311 20.274582 2.3509528e-038
-83.824974 258.44125 15.834603 9.1476764e-041
-82.87709 257.79559 15.795047 9.1476764e-041
-77.433922 255.64307 15.663162 9.1476764e-041
-72.63163 255.46324 15.652143 9.1476764e-041
-68.128586 256.38443 15.708585 2.3509886e-038
-65.402893 258.06705 15.811676 2.3509886e-038
-51.399139 269.9426 16.539289 2.3509886e-038
-45.582497 263.78391 16.161947 3.5733111e-043
-40.284004 261.21588 16.004604 3.5733111e-043
-35.470482 261.51984 16.02323 3.5733111e-043
-35.187996 261.70483 16.034563 3.5733111e-043
-24.786831 263.20212 16.126301 3.5733111e-043
-20.703903 259.19858 15.881005 2.3418409e-038
-15.7231 256.53018 15.717516 2.3418409e-038
-10.925013 255.81772 15.673861 2.3418409e-038
-7.4172664 256.38269 15.708478 2.3418409e-038
25.234579 254.7411 15.607898 2.3509528e-038
26.923515 254.05515 15.565869 2.3509528e-038
31.58173 253.54579 15.534661 2.3509528e-038
36.456242 254.67982 15.604144 2.3509528e-038
37.789577 255.28764 15.641384 2.3509528e-038
-82.448853 259.42493 11.073413 9.1476764e-041
-77.886955 257.13873 10.975828 9.1476764e-041
-72.837578 256.18762 10.93523 9.1476764e-041
-68.257469 256.86948 10.964334 9.1476764e-041
-64.104317 259.38141 11.071556 2.3509886e-038
-63.890793 259.64249 11.0827 2.3509886e-038
-51.307083 272.2659 11.621524 2.3509886e-038
-45.832531 265.23083 11.321236 2.3509886e-038
-40.359238 261.70374 11.170683 3.5733111e-043
-35.498173 261.724 11.171548 3.5733111e-043
-34.431164 262.57941 11.208061 3.5733111e-043
-25.875721 264.42737 11.28694 2.3509886e-038
-20.749819 259.77341 11.088288 2.3418409e-038
-15.80594 257.88177 11.007545 2.3418409e-038
-11.00663 257.72885 11.001017 2.3418409e-038
-8.4757042 258.08221 11.016101 2.3418409e-038
21.195452 254.40038 10.858943 2.3509528e-038
22.179558 253.8 10.833317 2.3509528e-038
26.767784 252.58565 10.781483 2.3509528e-038
31.587429 253.59154 10.824419 2.3509528e-038
35.587162 255.93286 10.924357 2.3509528e-038
-80.965584 260.83588 6.2859569 9.1476764e-041
-78.546204 259.31519 6.2493091 9.1476764e-041
-73.186401 257.41455 6.203505 9.1476764e-041
-68.452988 257.60522 6.2081003 9.1476764e-041
-64.250862 259.97437 6.2651944 2.3509886e-038
-62.290546 263.93936 6.3607483 2.3509886e-038
-51.969318 273.98657 6.602879 2.3509886e-038
-45.947826 265.89804 6.4079514 2.3509886e-038
-40.452625 262.30933 6.3214655 2.3509886e-038
-35.51355 261.8374 6.3100924 2.3509886e-038
-31.644688 264.63611 6.3775392 2.3509886e-038
-28.741938 265.24777 6.3922801 2.3509886e-038
-25.958145 263.63675 6.3534551 2.3509886e-038
-20.777794 260.12363 6.2687922 2.3509886e-038
-15.880797 259.10309 6.2441974 2.3418409e-038
-11.080103 259.44928 6.2525401 2.3418409e-038
-9.4330988 259.76819 6.2602262 2.3418409e-038
16.697933 256.12869 6.1725168 2.3509528e-038
17.569166 255.34827 6.1537094 2.3509528e-038
22.083422 252.69994 6.0898867 2.3509528e-038
26.727919 252.20946 6.0780659 2.3509528e-038
31.639538 254.00987 6.1214547 2.3509528e-038
32.475594 254.67059 6.1373777 2.3509528e-038
-79.315918 262.07925 1.4451398 9.1476764e-041
-73.604439 258.88489 1.4275254 9.1476764e-041
-68.661354 258.38937 1.4247932 9.1476764e-041
-64.287445 260.12238 1.4343492 2.3509886e-038
-60.641243 265.32111 1.4630157 2.3509886e-038
-57.74934 271.45706 1.4968503 2.3509886e-038
-55.303703 272.34274 1.5017339 2.3509886e-038
-51.590202 269.55881 1.4863831 2.3509886e-038
-45.789433 264.98141 1.4611425 2.3509886e-038
-40.484169 262.51385 1.447536 2.3509886e-038
-35.489552 261.66046 1.4428304 2.3509886e-038
-30.74913 262.70776 1.4486054 2.3509886e-038
-25.802254 262.05347 1.4449975 2.3509886e-038
-20.798382 260.38138 1.4357773 2.3509886e-038
-15.935974 260.00333 1.4336928 2.3509886e-038
-11.12926 260.60034 1.4369848 2.3418409e-038
-9.7379427 260.99133 1.4391408 2.3418409e-038
12.16985 258.93457 1.4277995 2.3509528e-038
12.961707 258.10089 1.4232025 2.3509528e-038
17.505724 254.42621 1.4029398 2.3509528e-038
22.102404 252.91714 1.3946185 2.3509528e-038
26.854794 253.40668 1.397318 2.3509528e-038
29.313545 254.39966 1.4027933 2.3509528e-038
-77.793671 263.06137 -3.4384792 9.1476764e-041
-74.106064 260.6492 -3.4069498 9.1476764e-041
-68.861916 259.14417 -3.3872774 9.1476764e-041
-64.198769 259.76358 -3.3953736 2.3509886e-038
-59.710266 261.24783 -3.4147747 2.3509886e-038
-55.180515 262.79846 -3.4350426 2.3509886e-038
-50.472656 263.7196 -3.4470832 2.3509886e-038
-45.526608 263.46048 -3.443696 2.3509886e-038
-40.499359 262.61234 -3.43261 2.3509886e-038
-35.540314 262.03473 -3.4250598 2.3509886e-038
-30.672115 262.0498 -3.4252567 2.3509886e-038
-25.791834 261.94763 -3.4239216 2.3509886e-038
-20.886843 261.48886 -3.4179249 2.3509886e-038
-15.990529 260.89343 -3.4101422 2.3509886e-038
-11.128922 260.59244 -3.4062078 2.3509886e-038
-8.5116596 260.95178 -3.4109049 2.3509886e-038
7.2383504 261.8573 -3.4227409 2.3509528e-038
8.2596359 261.09647 -3.4127963 2.3509528e-038
12.944043 257.74918 -3.3690434 2.3509528e-038
17.546522 255.01917 -3.3333592 2.3509528e-038
22.217777 254.23735 -3.3231404 2.3509528e-038
26.283636 255.79068 -3.3434439 2.3509528e-038
-76.974976 264.93134 -8.3867178 9.1476764e-041
-74.841164 263.23474 -8.3330107 2.3509886e-038
-69.241608 260.573 -8.2487497 2.3509886e-038
-64.345551 260.35751 -8.2419281 2.3509886e-038
-59.573986 260.65158 -8.2512388 2.3509886e-038
-54.840302 261.17816 -8.2679071 2.3509886e-038
-50.179241 262.18652 -8.2998285 2.3509886e-038
-45.440395 262.96158 -8.3243637 2.3509886e-038
-40.546486 262.91791 -8.3229809 2.3509886e-038
-35.652962 262.86523 -8.3213139 2.3509886e-038
-30.786419 263.02637 -8.3264141 2.3509886e-038
-25.93243 263.37558 -8.3374701 2.3509886e-038
-21.024393 263.21091 -8.3322563 2.3509886e-038
-16.061649 262.0538 -8.2956266 2.3509886e-038
-11.139414 260.8381 -8.2571421 2.3509886e-038
-6.2828345 260.47095 -8.2455206 2.3509528e-038
-1.4453659 261.08755 -8.2650394 2.3509528e-038
3.4097176 261.29623 -8.2716455 2.3509528e-038
8.2443399 260.61295 -8.2500153 2.3509528e-038
13.016077 259.18353 -8.2047644 2.3509528e-038
17.700989 257.26416 -8.1440048 2.3509528e-038
22.417393 256.52155 -8.1204967 2.3509528e-038
22.969585 256.69824 -8.12609 2.3509528e-038
-76.624878 266.89493 -13.40917 2.3509886e-038
-75.617393 265.96494 -13.362445 2.3509886e-038
-69.681824 262.22964 -13.17478 2.3509886e-038
-64.643806 261.5643 -13.141353 2.3509886e-038
-59.832146 261.7811 -13.152244 2.3509886e-038
-55.075352 262.29761 -13.178194 2.3509886e-038
-50.301914 262.82748 -13.204816 2.3509886e-038
-45.491432 263.2569 -13.226391 2.3509886e-038
-40.580574 263.13898 -13.220466 2.3509886e-038
-35.71619 263.33145 -13.230136 2.3509886e-038
-30.901476 264.00937 -13.264195 2.3509886e-038
-26.05864 264.65738 -13.296752 2.3509886e-038
-21.118567 264.38986 -13.283312 2.3509886e-038
-16.137852 263.29706 -13.228407 2.3509886e-038
-11.197462 262.19733 -13.173156 2.3509886e-038
-6.3029747 261.30594 -13.128371 2.3509528e-038
-1.4438485 260.81345 -13.103627 2.3509528e-038
3.4093266 261.2663 -13.126379 2.3509528e-038
8.2834797 261.85022 -13.155717 2.3509528e-038
13.138068 261.61267 -13.143783 2.3509528e-038
17.958046 261.00021 -13.113011 2.3509528e-038
19.649307 261.06961 -13.116499 2.3509528e-038
-76.031189 267.78989 -18.431059 2.3509886e-038
-69.963043 263.28796 -18.121204 2.3509886e-038
-64.828941 262.31339 -18.054129 2.3509886e-038
-60.015263 262.58228 -18.072636 2.3509886e-038
-55.265823 263.20474 -18.11548 2.3509886e-038
-50.421684 263.45331 -18.132586 2.3509886e-038
-45.538395 263.52872 -18.137775 2.3509886e-038
-40.596863 263.24457 -18.118219 2.3509886e-038
-35.747261 263.56052 -18.139963 2.3509886e-038
-30.976727 264.65225 -18.215105 2.3509886e-038
-26.141176 265.49564 -18.273153 2.3509886e-038
-21.197306 265.37564 -18.264893 2.3509886e-038
-16.227631 264.76187 -18.222649 2.3509886e-038
-11.284449 264.23419 -18.186331 2.3509886e-038
-6.3574324 263.5636 -18.140177 2.3509528e-038
-1.45552 262.92178 -18.096003 2.3509528e-038
3.433372 263.10898 -18.108885 2.3509528e-038
8.3439064 263.76031 -18.153717 2.3509528e-038
13.260563 264.05188 -18.173784 2.3509528e-038
16.140358 264.85901 -18.229336 2.3509528e-038
-75.350357 268.28955 -23.451641 2.3509886e-038
-70.205643 264.20093 -23.094246 2.3509886e-038
-64.966995 262.87201 -22.978085 2.3509886e-038
-60.125591 263.065 -22.994955 2.3509886e-038
-55.328999 263.50562 -23.033468 2.3509886e-038
-50.465199 263.68066 -23.048769 2.3509886e-038
-45.626369 264.03778 -23.079987 2.3509886e-038
-40.71196 263.99091 -23.075888 2.3509886e-038
-35.832191 264.18671 -23.093004 2.3509886e-038
-31.025639 265.07013 -23.170225 2.3509886e-038
-26.194508 266.03729 -23.254765 2.3509886e-038
-21.274389 266.34067 -23.281286 2.3509886e-038
-16.310236 266.10959 -23.261086 2.3509886e-038
-11.361687 266.04276 -23.255245 2.3509886e-038
-6.4089794 265.70062 -23.225338 2.3509886e-038
-1.4677694 265.13446 -23.175848 2.3509528e-038
3.458209 265.0123 -23.165171 2.3509528e-038
8.4044895 265.67545 -23.223137 2.3509528e-038
13.169386 266.96973 -23.336273 2.3509528e-038
-122.11382 254.46838 -26.972851 2.3418052e-038
-119.37347 253.89693 -26.912277 2.3418052e-038
-115.00355 254.66931 -26.994148 2.3418052e-038
-111.09256 256.56793 -27.195396 2.3418052e-038
-110.63261 256.80988 -27.221043 2.3418052e-038
-75.109932 269.12988 -28.526922 2.3509886e-038
-70.488419 265.26505 -28.117262 2.3509886e-038
-65.16777 263.68439 -27.949718 2.3509886e-038
-60.325153 263.93814 -27.976614 2.3509886e-038
-55.507603 264.35623 -28.020929 2.3509886e-038
-50.629463 264.53894 -28.040297 2.3509886e-038
-45.795025 265.01379 -28.09063 2.3509886e-038
-40.896 265.1843 -28.108702 2.3509886e-038
-35.954597 265.08917 -28.098623 2.3509886e-038
-31.068163 265.43347 -28.135113 2.3509886e-038
-26.227146 266.36877 -28.234255 2.3509886e-038
-21.325047 266.97485 -28.298496 2.3509886e-038
-16.368895 267.06662 -28.308224 2.3509886e-038
-11.407696 267.12012 -28.313896 2.3509886e-038
-6.4325643 266.67841 -28.267073 2.3509886e-038
-1.4740399 266.26715 -28.223482 2.3509886e-038
3.4798429 266.67014 -28.266197 2.3509886e-038
8.4883537 268.32645 -28.441763 2.3509886e-038
11.187111 269.61008 -28.577822 2.3509886e-038
-124.65229 254.40341 -31.694096 2.3418052e-038
-124.23027 254.17947 -31.666201 2.3418052e-038
-118.65783 252.37483 -31.441372 2.3418052e-038
-114.35266 253.22795 -31.547655 2.3418052e-038
-110.71235 255.68983 -31.854361 2.3418052e-038
-107.11655 258.47992 -32.201958 2.3418052e-038
-103.8041 261.37546 -32.562687 2.3418052e-038
-75.437935 270.33853 -33.679329 2.3509886e-038
-70.801773 266.44431 -33.194176 2.3509886e-038
-65.38755 264.57367 -32.961128 2.3509886e-038
-60.525341 264.81403 -32.99107 2.3509886e-038
-55.726147 265.39703 -33.063705 2.3509886e-038
-50.886139 265.88007 -33.123886 2.3509886e-038
-46.016899 266.29776 -33.175919 2.3509886e-038
-41.076035 266.35168 -33.18264 2.3509886e-038
-36.101795 266.17447 -33.160561 2.3509886e-038
-31.17103 266.31229 -33.177731 2.3509886e-038
-26.299215 267.10071 -33.275955 2.3509886e-038
-21.380405 267.66791 -33.346615 2.3509886e-038
-16.424126 267.96777 -33.383972 2.3509886e-038
-11.450176 268.11484 -33.402294 2.3509886e-038
-6.4585114 267.75412 -33.357357 2.3509886e-038
-1.4821708 267.7359 -33.355087 2.3509886e-038
3.507659 268.80179 -33.487877 2.3509886e-038
8.6098318 272.16656 -33.907066 2.3509886e-038
9.9676008 273.65652 -34.092686 2.3509886e-038
-122.51728 254.36942 -36.417343 2.3418052e-038
-119.09109 253.29634 -36.263714 2.3418052e-038
-114.33625 253.19162 -36.248726 2.3418052e-038
-110.55106 255.31734 -36.553055 2.3418052e-038
-107.11523 258.47675 -37.005379 2.3418052e-038
-103.65195 261.86346 -37.49025 2.3418052e-038
-99.728424 264.36386 -37.848221 2.3509886e-038
-98.505257 264.95853 -37.933357 2.3509886e-038
-76.824249 272.35742 -38.992641 2.3509886e-038
-71.212837 267.99121 -38.367538 2.3509886e-038
-65.703247 265.85107 -38.061142 2.3509886e-038
-60.724819 265.68677 -38.037621 2.3509886e-038
-55.897083 266.21112 -38.11269 2.3509886e-038
-51.124805 267.12711 -38.243828 2.3509886e-038
-46.256378 267.68362 -38.323502 2.3509886e-038
-41.255692 267.51666 -38.299603 2.3509886e-038
-36.266933 267.392 -38.281754 2.3509886e-038
-31.308287 267.48495 -38.295059 2.3509886e-038
-26.394312 268.06653 -38.378319 2.3509886e-038
-21.45153 268.55835 -38.448734 2.3509886e-038
-16.488022 269.01025 -38.513428 2.3509886e-038
-11.513253 269.5918 -38.596695 2.3509886e-038
-6.5097184 269.87701 -38.637524 2.3509886e-038
-1.4955647 270.15533 -38.677372 2.3509886e-038
3.5361061 270.98175 -38.795689 2.3509886e-038
8.6949205 274.85629 -39.350395 2.3509886e-038
9.0850706 275.48035 -39.439739 2.3509886e-038
-118.63951 255.61607 -41.346497 2.3418052e-038
-115.14992 254.99344 -41.245785 2.3418052e-038
-110.92416 256.17902 -41.437553 2.3418052e-038
-107.18572 258.64685 -41.836735 2.3418052e-038
-103.63623 261.82373 -42.350605 2.3418052e-038
-99.792519 264.53375 -42.788956 2.3418052e-038
-95.506256 266.29071 -43.073147 2.3509886e-038
-91.86367 267.93665 -43.339378 2.3509886e-038
-80.377342 273.98358 -44.317482 2.3509886e-038
-77.464233 272.46069 -44.071156 2.3509886e-038
-71.574722 269.35309 -43.568493 2.3509886e-038
-66.13504 267.59821 -43.284637 2.3509886e-038
-61.021404 266.98441 -43.185352 2.3509886e-038
-56.083786 267.10031 -43.204098 2.3509886e-038
-51.294796 268.01529 -43.3521 2.3509886e-038
-46.44297 268.76343 -43.473114 2.3509886e-038
-41.450893 268.78241 -43.476185 2.3509886e-038
-36.466053 268.86011 -43.48875 2.3509886e-038
-31.478937 268.94296 -43.502151 2.3509886e-038
-26.522602 269.36948 -43.571144 2.3509886e-038
-21.562679 269.94986 -43.66502 2.3509886e-038
-16.578524 270.48682 -43.751881 2.3509886e-038
-11.586416 271.30499 -43.884216 2.3509886e-038
-6.5583649 271.89377 -43.979454 2.3509886e-038
-1.5056164 271.97107 -43.991962 2.3509886e-038
3.5574377 272.61646 -44.096352 2.3509886e-038
8.4251623 276.52896 -44.729206 2.3509886e-038
-114.00484 259.5199 -46.801174 2.3418052e-038
-112.41284 259.61713 -46.818707 2.3418052e-038
-107.91109 260.39719 -46.959385 2.3418052e-038
-103.76819 262.1571 -47.27676 2.3418052e-038
-99.836281 264.64978 -47.726284 2.3418052e-038
-95.724518 266.89929 -48.131954 2.3418052e-038
-91.308777 268.50082 -48.420776 2.3509886e-038
-86.806053 270.01694 -48.694187 2.3509886e-038
-82.228546 271.47223 -48.956627 2.3509886e-038
-77.1343 271.30026 -48.925617 2.3509886e-038
-71.775581 270.10898 -48.710781 2.3509886e-038
-66.487015 269.02237 -48.514828 2.3509886e-038
-61.312393 268.25757 -48.376904 2.3509886e-038
-56.256775 267.92416 -48.316776 2.3509886e-038
-51.373825 268.42822 -48.407681 2.3509886e-038
-46.536381 269.30402 -48.565617 2.3509886e-038
-41.644527 270.03802 -48.69799 2.3509886e-038
-36.708897 270.65054 -48.808445 2.3509886e-038
-31.713654 270.94827 -48.862137 2.3509886e-038
-26.70834 271.25589 -48.917614 2.3509886e-038
-21.713919 271.84326 -49.02354 2.3509886e-038
-16.693188 272.35764 -49.116302 2.3509886e-038
-11.64719 272.72806 -49.183102 2.3509886e-038
-6.5810175 272.83289 -49.202011 2.3509886e-038
-1.5096085 272.69217 -49.176628 2.3509886e-038
3.5755959 274.00797 -49.413918 2.3509886e-038
8.1368408 278.98151 -50.310833 2.3509886e-038
-108.80623 264.74643 -52.664074 2.3418052e-038
-104.66281 264.4173 -52.598602 2.3418052e-038
-100.2991 265.87662 -52.888897 2.3418052e-038
-96.062912 267.8428 -53.280014 2.3418052e-038
-91.465591 268.96198 -53.50264 2.3418052e-038
-86.667023 269.58447 -53.626472 2.3509886e-038
-81.818787 270.11942 -53.732887 2.3509886e-038
-76.932755 270.59137 -53.826771 2.3509886e-038
-71.829163 270.31061 -53.77092 2.3509886e-038
-66.639351 269.63873 -53.637268 2.3509886e-038
-61.48093 268.99496 -53.509205 2.3509886e-038
-56.388222 268.5502 -53.420731 2.3509886e-038
-51.430035 268.72192 -53.454895 2.3509886e-038
-46.569328 269.49466 -53.608608 2.3509886e-038
-41.767117 270.83292 -53.874821 2.3509886e-038
-36.905163 272.0976 -54.126389 2.3509886e-038
-31.934149 272.83209 -54.272499 2.3509886e-038
-26.891275 273.11383 -54.328537 2.3509886e-038
-21.859846 273.6702 -54.439217 2.3509886e-038
-16.797989 274.06757 -54.518261 2.3509886e-038
-11.688122 273.68649 -54.442459 2.3509886e-038
-6.5888672 273.15836 -54.337399 2.3509886e-038
-1.5123214 273.18225 -54.342152 2.3509886e-038
3.5887928 275.01929 -54.707584 2.3509886e-038
7.9884109 279.51648 -55.602177 2.3509886e-038
-104.19836 269.883 -58.701683 2.3418052e-038
-101.74919 269.72058 -58.666351 2.3418052e-038
-96.716133 269.66412 -58.654068 2.3418052e-038
-91.680634 269.5943 -58.638889 2.3418052e-038
-86.690948 269.65891 -58.652935 2.3418052e-038
-81.733307 269.83719 -58.691719 2.3509886e-038
-76.859634 270.3342 -58.79982 2.3509886e-038
-71.825935 270.29849 -58.792049 2.3509886e-038
-66.679604 269.80161 -58.683979 2.3509886e-038
-61.566795 269.37064 -58.59024 2.3509886e-038
-56.474754 268.96228 -58.501419 2.3509886e-038
-51.464413 268.90155 -58.488209 2.3509886e-038
-46.591839 269.62491 -58.645546 2.3509886e-038
-41.856743 271.41409 -59.034706 2.3509886e-038
-37.056709 273.21494 -59.426399 2.3509886e-038
-32.121094 274.42923 -59.690521 2.3509886e-038
-27.060715 274.83469 -59.778713 2.3509886e-038
-21.988194 275.27701 -59.874924 2.3509886e-038
-16.880215 275.40906 -59.903645 2.3509886e-038
-11.725437 274.56027 -59.719021 2.3509886e-038
-6.6060662 273.87137 -59.56918 2.3509886e-038
-1.5189894 274.38672 -59.681278 2.3509886e-038
3.6120548 276.80191 -60.2066 2.3509886e-038
7.6644883 280.23941 -60.954281 2.3509886e-038
-99.994881 273.43256 -64.555511 2.3418052e-038
-97.62896 272.20926 -64.266693 2.3418052e-038
-92.039902 270.65076 -63.89875 2.3418052e-038
-86.879868 270.24652 -63.803314 2.3418052e-038
-81.778404 269.98608 -63.741825 2.3509886e-038
-76.773613 270.03162 -63.752575 2.3509886e-038
-71.704308 269.84076 -63.707508 2.3509886e-038
-66.57235 269.36765 -63.595818 2.3509886e-038
-61.481651 268.99811 -63.508572 2.3509886e-038
-56.401295 268.61246 -63.417515 2.3509886e-038
-51.401718 268.57397 -63.408436 2.3509886e-038
-46.591988 269.62579 -63.656761 2.3509886e-038
-41.964989 272.116 -64.24469 2.3509886e-038
-37.247601 274.62234 -64.836411 2.3509886e-038
-32.336281 276.2677 -65.224869 2.3509886e-038
-27.24641 276.72064 -65.33181 2.3509886e-038
-22.107712 276.77328 -65.344231 2.3509886e-038
-16.942795 276.43011 -65.263222 2.3509886e-038
-11.76092 275.39114 -65.017914 2.3509886e-038
-6.6321502 274.95273 -64.914421 2.3509886e-038
-1.5290225 276.19907 -65.208664 2.3509886e-038
3.6499257 279.7041 -66.036179 2.3509886e-038
7.0593977 283.20267 -66.862175 2.3509886e-038
-94.966118 273.43814 -69.638733 2.3418052e-038
-92.802917 272.89447 -69.500267 2.3418052e-038
-87.335068 271.66248 -69.186508 2.3418052e-038
-81.881599 270.32675 -68.846329 2.3509886e-038
-76.620369 269.49261 -68.633888 2.3509886e-038
-71.438591 268.84079 -68.467888 2.3509886e-038
-66.30764 268.29657 -68.329285 2.3509886e-038
-61.260208 268.02924 -68.2612 2.3509886e-038
-56.235909 267.8248 -68.209137 2.3509886e-038
-51.327847 268.18799 -68.301636 2.3509886e-038
-46.60648 269.70966 -68.689171 2.3509886e-038
-42.053185 272.68793 -69.44767 2.3509886e-038
-37.401134 275.75433 -70.228615 2.3509886e-038
-32.517475 277.81577 -70.753609 2.3509886e-038
-27.418911 278.4726 -70.920898 2.3509886e-038
-22.228291 278.28284 -70.872574 2.3509886e-038
-17.020166 277.69247 -70.722214 2.3509886e-038
-11.816273 276.68726 -70.466209 2.3509886e-038
-6.6717472 276.59433 -70.442543 2.3509886e-038
-1.5431058 278.74307 -70.989777 2.3509886e-038
3.6981447 283.39923 -72.175598 2.3509886e-038
6.0140309 286.21622 -72.893028 2.3509886e-038
-90.795166 276.08545 -75.444038 2.3418052e-038
-88.293083 274.64246 -75.049728 2.3418052e-038
-82.274826 271.62497 -74.225159 2.3509886e-038
-76.678146 269.69586 -73.69799 2.3509886e-038
-71.370277 268.58371 -73.394089 2.3509886e-038
-66.201141 267.86566 -73.197868 2.3509886e-038
-61.192909 267.7348 -73.162109 2.3509886e-038
-56.251198 267.89761 -73.206604 2.3509886e-038
-51.421654 268.67813 -73.419891 2.3509886e-038
-46.70784 270.2962 -73.862053 2.3509886e-038
-42.113689 273.08023 -74.622826 2.3509886e-038
-37.445198 276.07919 -75.442337 2.3509886e-038
-32.597939 278.50323 -76.104729 2.3509886e-038
-27.555716 279.86203 -76.476036 2.3509886e-038
-22.35153 279.82571 -76.466118 2.3509886e-038
-17.124193 279.38971 -76.34697 2.3509886e-038
-11.910514 278.89401 -76.21151 2.3509886e-038
-6.7458057 279.66464 -76.422104 2.3509886e-038
-1.5683808 283.30869 -77.417885 2.3509886e-038
3.7807283 289.72787 -79.172012 2.3509886e-038
4.4541802 290.77524 -79.458221 2.3509886e-038
-85.903656 277.80917 -81.078186 2.3509886e-038
-83.67469 276.24655 -80.622139 2.3509886e-038
-77.367592 272.12079 -79.41803 2.3509886e-038
-71.664612 269.69135 -78.709015 2.3509886e-038
-66.379387 268.58691 -78.386681 2.3509886e-038
-61.349705 268.42081 -78.338203 2.3509886e-038
-56.456478 268.87524 -78.470833 2.3509886e-038
-51.628948 269.76123 -78.729408 2.3509886e-038
-46.851791 271.12924 -79.128662 2.3509886e-038
-42.184826 273.5415 -79.832672 2.3509886e-038
-37.48637 276.38278 -80.661896 2.3509886e-038
-32.664661 279.07327 -81.447113 2.3509886e-038
-27.688301 281.20859 -82.070297 2.3509886e-038
-22.501238 281.69995 -82.213707 2.3509886e-038
-17.26194 281.63712 -82.195366 2.3509886e-038
-12.040554 281.93896 -82.283463 2.3509886e-038
-6.8562074 284.24158 -82.955475 2.3509886e-038
-1.6055092 290.01547 -84.640572 2.3509886e-038
2.169003 295.44827 -86.226128 2.3509886e-038
-80.830101 279.97757 -86.914459 2.3509886e-038
-79.144753 278.37152 -86.415886 2.3509886e-038
-72.660095 273.43762 -84.884239 2.3509886e-038
-66.998032 271.09006 -84.155479 2.3509886e-038
-61.768291 270.25223 -83.895386 2.3509886e-038
-56.765797 270.34839 -83.92524 2.3509886e-038
-51.862 270.97894 -84.120979 2.3509886e-038
-47.05621 272.31223 -84.534874 2.3509886e-038
-42.349842 274.61154 -85.248665 2.3509886e-038
-37.632515 277.46027 -86.133011 2.3509886e-038
-32.823517 280.43048 -87.055054 2.3509886e-038
-27.889603 283.25305 -87.931274 2.3509886e-038
-22.753372 284.85654 -88.429054 2.3509886e-038
-17.507912 285.65027 -88.675453 2.3509886e-038
-12.250575 286.85681 -89.050003 2.3509886e-038
-7.0122185 290.70944 -90.245995 2.3509886e-038
-1.6505004 298.14258 -92.55349 2.3509886e-038
-1.3612405 298.60562 -92.697235 2.3509886e-038
-75.089737 282.96765 -93.101692 2.3509886e-038
-68.630173 277.69409 -91.3666 2.3509886e-038
-62.76918 274.63138 -90.358902 2.3509886e-038
-57.40654 273.39996 -89.953743 2.3509886e-038
-52.353024 273.54456 -90.001312 2.3509886e-038
-47.51741 274.98117 -90.473991 2.3509886e-038
-42.763908 277.29648 -91.235771 2.3509886e-038
-38.018391 280.3053 -92.225731 2.3509886e-038
-33.245686 284.03732 -93.453636 2.3509886e-038
-28.379089 288.2244 -94.831268 2.3509886e-038
-23.318434 291.93069 -96.050713 2.3509886e-038
-18.06563 294.74969 -96.97821 2.3509886e-038
-12.666699 296.60068 -97.587212 2.3509886e-038
-7.8528581 299.75095 -98.623718 2.3509886e-038
-66.035728 284.1105 -98.757957 2.3509886e-038
-64.713852 283.13983 -98.420547 2.3509886e-038
-58.924816 280.63077 -97.548386 2.3509886e-038
-53.627567 280.20404 -97.400055 2.3509886e-038
-48.546612 280.9371 -97.654869 2.3509886e-038
-43.648884 283.03497 -98.384102 2.3509886e-038
-38.87521 286.62253 -99.631149 2.3509886e-038
-34.081264 291.17615 -101.214 2.3509886e-038
-29.207794 296.6409 -103.11358 2.3509886e-038
-24.232403 303.37296 -105.45366 2.3509886e-038
-21.096075 308.17813 -107.12396 2.3509886e-038
-124.43188 254.59196 -29.196985 2.3418052e-038
-124.28251 254.28635 -33.214527 2.3418052e-038
-119.67579 254.53993 -26.03607 2.3418052e-038
-119.97734 255.1813 -39.913864 2.3418052e-038
-115.2572 255.23102 -25.915874 2.3418052e-038
-116.06606 257.02219 -44.139156 2.3418052e-038
-111.12001 256.63132 -27.040501 2.3418052e-038
-112.96883 260.90115 -48.13615 2.3418052e-038
-107.11046 258.46524 -29.353624 2.3418052e-038
-109.49046 264.20834 -51.958641 2.3418052e-038
-103.54533 261.59409 -32.837574 2.3418052e-038
-105.82818 267.36142 -56.079399 2.3418052e-038
-99.756386 264.43799 -36.795822 2.3509886e-038
-102.69541 272.22888 -61.30809 2.3418052e-038
-95.452866 266.14188 -40.560829 2.3509886e-038
-98.005035 273.25781 -66.420715 2.3418052e-038
-83.969147 246.91805 54.569839 9.1476764e-041
-86.717857 255.00085 30.550413 9.1476764e-041
-91.237823 268.29218 -43.791317 2.3509886e-038
-93.34642 274.49268 -71.942329 2.3418052e-038
-79.909653 248.56516 52.28022 9.1476764e-041
-83.196854 258.79025 13.678626 9.1476764e-041
-87.0429 270.75366 -45.765896 2.3509886e-038
-88.912704 276.56985 -77.538147 2.3418052e-038
-76.043106 251.05136 45.240025 9.1476764e-041
-79.373276 262.04572 1.6088574 9.1476764e-041
-82.804436 273.37344 -45.757187 2.3509886e-038
-84.430908 278.74316 -82.972824 2.3509886e-038
-71.881798 252.82591 34.392471 9.1476764e-041
-76.120369 267.73401 -17.832024 2.3509886e-038
-77.644394 273.09439 -40.75272 2.3509886e-038
-79.693329 280.30099 -88.05809 2.3509886e-038
-68.206429 256.6774 23.814886 2.3509886e-038
-75.17968 282.91943 -93.014885 2.3509886e-038
-64.106781 259.39136 11.716533 2.3509886e-038
-70.290741 284.41315 -96.877388 2.3509886e-038
-61.1945 267.74173 4.1134486 2.3509886e-038
-64.936195 284.11264 -99.217354 2.3509886e-038
-57.074936 271.82068 1.3972379 2.3509886e-038
-59.945919 285.4938 -101.45384 2.3509886e-038
-48.771816 254.83275 72.979027 3.5733111e-043
-51.517807 269.18054 18.202517 2.3509886e-038
-52.480156 274.2088 5.0531831 2.3509886e-038
-55.034328 287.55435 -103.45264 2.3509886e-038
-43.971615 254.46179 73.018326 3.5733111e-043
-49.828182 288.35352 -104.62419 2.3509886e-038
-39.637451 257.02344 62.210876 3.5733111e-043
-44.964863 291.56824 -106.37968 2.3509886e-038
-35.30238 260.28043 24.872484 3.5733111e-043
-40.322433 297.29272 -108.69384 2.3509886e-038
-31.009874 264.93546 6.1816978 2.3509886e-038
-35.08456 299.74789 -108.88898 2.3509886e-038
-26.04958 264.56537 10.805398 2.3509886e-038
-29.724289 301.88654 -108.07641 2.3509886e-038
-20.669043 258.76215 34.039295 2.3418409e-038
-24.462526 306.25394 -107.70481 2.3509886e-038
-15.539192 253.52963 61.876492 2.3418409e-038
-18.893322 308.25394 -106.33675 2.3509886e-038
-10.751913 251.76445 64.264595 2.3418409e-038
-12.965239 303.59119 -102.45828 2.3509886e-038
-6.1254292 253.94533 53.480587 2.3418409e-038
-6.1609926 255.41971 27.004797 2.3418409e-038
-6.2902617 260.77887 -6.1762896 2.3509886e-038
-7.2238469 299.48303 -98.125473 2.3509886e-038
-1.4468141 261.34915 -7.7387447 2.3509528e-038
-1.6534714 298.67923 -93.054314 2.3509886e-038
3.4235828 262.3588 -6.1930342 2.3509528e-038
3.8154747 292.39056 -81.621544 2.3509886e-038
8.2702627 261.43237 -2.4880021 2.3509528e-038
8.7247219 275.79834 -41.972851 2.3509886e-038
12.975149 258.36856 2.2822857 2.3509528e-038
13.399959 266.82761 -22.900665 2.3509528e-038
17.592173 255.68265 7.0851059 2.3509528e-038
18.115177 263.28394 -15.387424 2.3509528e-038
22.222719 254.29391 12.014917 2.3509528e-038
22.466808 257.08704 -8.8591986 2.3509528e-038
27.023157 254.99538 17.785751 2.3509528e-038
27.091558 255.64084 -2.1400614 2.3509528e-038
31.771679 255.07074 22.734297 2.3509528e-038
31.687103 254.39172 4.9875908 2.3509528e-038
36.534164 255.2242 24.452284 2.3509528e-038
36.647957 256.01913 12.91302 2.3509528e-038
