# .PCD v0.7 - Point Cloud Data file format
VERSION 0.7
FIELDS x y z rgb
SIZE 4 4 4 4
TYPE F F F F
COUNT 1 1 1 1
WIDTH 613
HEIGHT 1
VIEWPOINT 0 0 0 1 0 0 0
POINTS 613
DATA ascii
0 0 0 9.1476764e-041
0 0 0 9.1476764e-041
-60.285866 237.04294 61.402271 3.5733111e-043
23.544514 249.95682 29.430643 2.3509528e-038
-28.260429 250.01886 63.585968 2.3418409e-038
-64.676582 236.76714 63.909031 3.5733111e-043
-61.13129 235.31796 63.51786 3.5733111e-043
-56.715546 235.11807 63.463913 3.5733111e-043
-56.182056 235.2708 63.505135 3.5733111e-043
-32.497288 249.24545 67.277222 2.3418409e-038
-32.361588 249.20187 67.265457 2.3418409e-038
-27.626665 248.21619 66.999397 2.3418409e-038
-25.309767 248.23491 67.004448 2.3418409e-038
-66.063461 240.10844 60.354488 3.5733111e-043
-61.934498 238.40982 59.927517 3.5733111e-043
-57.509312 238.40869 59.927231 3.5733111e-043
-53.908173 239.51456 60.205208 3.5733111e-043
-34.424881 252.50551 63.470661 2.3418409e-038
-32.706795 251.86017 63.308441 2.3418409e-038
-27.853498 250.25418 62.904758 2.3418409e-038
-23.197741 250.13542 62.874905 2.3418409e-038
-23.128126 250.15804 62.880592 2.3418409e-038
-66.256721 244.76653 56.982468 3.5733111e-043
-63.205204 243.30125 56.64135 3.5733111e-043
-58.560474 242.76636 56.516823 3.5733111e-043
-54.129555 243.10252 56.595085 3.5733111e-043
-52.524597 243.6087 56.712921 3.5733111e-043
-35.111832 256.51999 59.718716 2.3418409e-038
-33.180637 255.50905 59.483364 2.3418409e-038
-28.159618 253.00458 58.900314 2.3418409e-038
-23.384413 252.14827 58.700962 2.3418409e-038
-22.441936 252.47618 58.777302 2.3418409e-038
-65.551636 247.96408 53.124634 3.5733111e-043
-64.290825 247.48021 53.020969 3.5733111e-043
-59.46804 246.52873 52.81712 3.5733111e-043
-54.882389 246.48358 52.807446 3.5733111e-043
-51.392635 247.42342 53.008797 3.5733111e-043
-35.316387 261.04498 55.927128 2.3418409e-038
-33.708729 259.57559 55.612328 2.3418409e-038
-28.413574 255.28627 54.693363 2.3418409e-038
-23.533712 253.75813 54.365971 2.3418409e-038
-22.297691 254.15277 54.45052 2.3418409e-038
-64.623352 250.74109 49.065811 3.5733111e-043
-60.179012 249.4761 48.818275 3.5733111e-043
-55.503326 249.27231 48.778393 3.5733111e-043
-51.11866 250.45726 49.010269 3.5733111e-043
-50.330173 251.10019 49.136082 3.5733111e-043
-35.067207 262.0076 51.270477 2.3418409e-038
-33.875553 260.86026 51.045963 2.3418409e-038
-28.516329 256.2095 50.135883 2.3418409e-038
-23.593386 254.4016 49.782108 2.3418409e-038
-22.196507 254.80676 49.861393 2.3418409e-038
-64.034103 254.46138 45.070976 3.5733111e-043
-61.056339 253.11311 44.832169 3.5733111e-043
-56.103806 251.96913 44.629539 3.5733111e-043
-51.562992 252.63426 44.747353 3.5733111e-043
-49.270893 254.03748 44.995892 3.5733111e-043
-35.041111 261.22028 46.268131 2.3418409e-038
-33.801308 260.28851 46.103092 2.3418409e-038
-28.535583 256.38251 45.411251 2.3418409e-038
-23.610065 254.58142 45.092239 2.3418409e-038
-21.886427 255.10629 45.185207 2.3418409e-038
-63.760429 258.55545 40.997314 3.5733111e-043
-62.150101 257.6474 40.853333 3.5733111e-043
-56.827129 255.21764 40.468063 3.5733111e-043
-52.026672 254.90608 40.418663 3.5733111e-043
-48.258568 256.23367 40.629166 3.5733111e-043
-35.416336 261.00388 41.385548 2.3418409e-038
-33.756966 259.94705 41.217976 2.3418409e-038
-28.563046 256.62924 40.691891 2.3418409e-038
-23.694063 255.48714 40.510796 2.3418409e-038
-21.414034 256.71991 40.706268 2.3418409e-038
-63.519917 262.00812 36.681885 3.5733111e-043
-63.139408 261.74863 36.64555 3.5733111e-043
-57.534679 258.39536 36.176086 3.5733111e-043
-52.514935 257.29831 36.022495 3.5733111e-043
-47.961872 258.4971 36.190327 3.5733111e-043
-47.453602 258.77908 36.229809 3.5733111e-043
-35.945492 261.76816 36.648289 2.3418409e-038
-33.797626 260.26016 36.437164 2.3418409e-038
-28.631346 257.24289 36.014736 2.3418409e-038
-23.825565 256.90512 35.967445 2.3418409e-038
-20.857407 258.91415 36.248718 2.3418409e-038
-63.169518 264.71771 32.148045 3.5733111e-043
-58.140358 261.11551 31.710587 3.5733111e-043
-52.947102 259.41574 31.504162 3.5733111e-043
-48.224277 259.91135 31.564352 3.5733111e-043
-46.591679 260.68179 31.657915 3.5733111e-043
-36.349529 263.22507 31.966776 2.3509886e-038
-33.910423 261.12878 31.712196 2.3418409e-038
-28.72114 258.04965 31.338259 2.3418409e-038
-23.942123 258.16193 31.351894 2.3418409e-038
-20.439716 260.54584 31.641405 2.3418409e-038
18.504419 254.22838 30.874195 2.3509528e-038
18.859108 253.8231 30.824976 2.3509528e-038
23.283045 250.73212 30.449598 2.3509528e-038
27.493887 251.3484 30.524443 2.3509528e-038
-62.641582 267.01443 27.471153 3.5733111e-043
-58.77129 263.94913 27.155785 3.5733111e-043
-53.37286 261.50177 26.903992 3.5733111e-043
-48.466648 261.21765 26.874763 3.5733111e-043
-45.731251 262.36755 26.993069 3.5733111e-043
-36.697407 265.42203 27.307318 2.3509886e-038
-34.119564 262.73926 27.031311 2.3418409e-038
-28.826019 258.99194 26.645779 2.3418409e-038
-24.050781 259.33356 26.680922 2.3418409e-038
-20.379391 262.63898 27.020994 2.3418409e-038
15.097745 257.14706 26.455971 2.3509528e-038
18.85524 253.77107 26.108639 2.3509528e-038
23.358215 251.54161 25.879267 2.3509528e-038
26.734591 252.41962 25.969599 2.3509528e-038
-62.149899 269.90613 22.759171 3.5733111e-043
-59.576488 267.56537 22.561792 3.5733111e-043
-53.869827 263.93668 22.25581 3.5733111e-043
-48.798355 263.00543 22.177286 3.5733111e-043
-45.135189 265.25681 22.367126 3.5733111e-043
-37.261078 269.03473 22.685694 2.3509886e-038
-34.498329 265.65598 22.400787 2.3418409e-038
-29.01223 260.66501 21.979935 2.3418409e-038
-24.206795 261.01581 22.009516 2.3418409e-038
-20.560123 266.03329 22.432604 2.3418409e-038
11.632412 256.97626 21.66889 2.3509528e-038
14.22677 255.23404 21.521982 2.3509528e-038
18.800348 253.03227 21.336325 2.3509528e-038
23.451511 252.54631 21.295347 2.3509528e-038
24.885006 253.15253 21.346464 2.3509528e-038
-61.5592 272.34897 17.910332 3.5733111e-043
-60.408005 271.2998 17.841337 3.5733111e-043
-54.429642 266.6795 17.537493 3.5733111e-043
-49.171009 265.01392 17.427961 3.5733111e-043
-44.798378 268.28409 17.643015 2.3509886e-038
-44.40966 269.03702 17.692528 2.3509886e-038
-38.002995 272.17603 17.898958 2.3509886e-038
-34.886559 268.64554 17.666784 2.3418409e-038
-29.279638 263.06757 17.299965 2.3418409e-038
-24.417643 263.28934 17.314548 2.3418409e-038
-20.773853 270.71347 17.802778 2.3418409e-038
7.9209924 258.26453 16.984104 2.3509528e-038
9.5431051 256.6731 16.879448 2.3509528e-038
14.128159 253.4649 16.66847 2.3509528e-038
18.760284 252.49306 16.604559 2.3509528e-038
22.240831 253.01392 16.638811 2.3509528e-038
-75.723686 235.2196 11.102923 2.3509886e-038
-75.023491 237.82101 11.225717 2.3509886e-038
-73.145065 246.36108 11.628828 2.3509886e-038
-70.603882 253.65898 11.973307 2.3509886e-038
-69.767723 255.68381 12.068883 2.3509886e-038
-61.055813 273.84918 12.926332 2.3509886e-038
-60.96476 273.80026 12.924022 2.3509886e-038
-55.041843 269.67899 12.729488 3.5733111e-043
-49.660042 267.64963 12.633698 2.3509886e-038
-45.035828 269.70609 12.730769 2.3509886e-038
-42.215759 273.04819 12.888523 2.3509886e-038
-40.01096 273.81897 12.924906 2.3509886e-038
-35.157993 270.73575 12.77937 2.3509886e-038
-29.565395 265.63501 12.538604 2.3418409e-038
-24.601841 265.27551 12.521634 2.3418409e-038
-20.584681 274.25262 12.945375 2.3418409e-038
3.7068157 260.6633 12.303927 2.3509528e-038
4.8329053 259.556 12.251659 2.3509528e-038
9.50109 255.54308 12.062241 2.3509528e-038
14.119137 253.30305 11.956506 2.3509528e-038
18.853474 253.74728 11.977474 2.3509528e-038
19.614498 254.03571 11.991089 2.3509528e-038
-76.702751 223.81602 6.4105992 2.3509886e-038
-75.411652 225.76851 6.4665227 2.3509886e-038
-73.721519 233.69385 6.6935225 2.3509886e-038
-72.83609 245.32043 7.0265346 2.3509886e-038
-70.985146 255.02875 7.3046026 2.3509886e-038
-67.986946 261.70801 7.4959116 2.3509886e-038
-67.40863 263.28833 7.5411754 2.3509886e-038
-61.334236 275.22964 7.8832011 2.3509886e-038
-61.282707 275.22821 7.8831606 2.3509886e-038
-55.583786 272.33426 7.800271 2.3509886e-038
-50.158356 270.33536 7.7430182 2.3509886e-038
-45.204849 270.71829 7.7539868 2.3509886e-038
-40.445217 272.50327 7.8051124 2.3509886e-038
-35.225311 271.25412 7.7693343 2.3509886e-038
-29.806036 267.79709 7.6703162 2.3509886e-038
-24.697678 266.30887 7.6276908 2.3418409e-038
-20.094528 270.88651 7.7588048 2.3418409e-038
-19.302027 272.8844 7.8160286 2.3509886e-038
-1.1861529 266.20743 7.6247854 2.3509528e-038
0.015816759 264.53268 7.5768166 2.3509528e-038
4.8227606 259.01114 7.4186673 2.3509528e-038
9.5035629 255.60957 7.3212385 2.3509528e-038
14.178447 254.36708 7.2856507 2.3509528e-038
16.96999 255.28786 7.3120241 2.3509528e-038
-78.536224 221.92674 2.2375028 2.3509886e-038
-78.224876 221.86284 2.2368581 2.3509886e-038
-74.807327 223.95926 2.2579947 2.3509886e-038
-73.326736 232.4424 2.343523 2.3509886e-038
-73.06057 246.07651 2.4809847 2.3509886e-038
-71.658615 257.44833 2.5956376 2.3509886e-038
-68.409111 263.33307 2.6549683 2.3509886e-038
-65.101212 269.88144 2.7209897 2.3509886e-038
-61.192173 274.82159 2.7707975 2.3509886e-038
-55.79567 273.37238 2.756186 2.3509886e-038
-50.47834 272.05994 2.742954 2.3509886e-038
-45.316463 271.38675 2.7361665 2.3509886e-038
-40.246906 271.16711 2.7339523 2.3509886e-038
-35.180607 270.90988 2.7313588 2.3509886e-038
-29.962965 269.20703 2.7141905 2.3509886e-038
-24.753191 266.90744 2.6910057 2.3509886e-038
-19.766001 266.45776 2.6864719 2.3509528e-038
-15.818205 268.36853 2.7057366 2.3509528e-038
-7.5870771 268.76089 2.7096922 2.3509528e-038
-4.9469719 267.39938 2.6959653 2.3509528e-038
0.015783798 263.98145 2.661505 2.3509528e-038
4.8491492 260.42841 2.6256828 2.3509528e-038
9.5863819 257.8371 2.5995567 2.3509528e-038
14.075912 256.88077 2.589915 2.3509528e-038
-79.506271 221.25864 -1.8758162 2.3509886e-038
-77.958542 221.10744 -1.8745344 2.3509886e-038
-74.758415 223.81282 -1.8974705 2.3509886e-038
-73.624901 233.38756 -1.9786444 2.3509886e-038
-73.798431 248.56172 -2.10729 2.3509886e-038
-72.477562 260.39059 -2.2075741 2.3509886e-038
-69.04213 265.76984 -2.2531796 2.3509886e-038
-65.135536 270.02371 -2.2892432 2.3509886e-038
-60.747116 272.82278 -2.3129737 2.3509886e-038
-55.753407 273.16531 -2.3158777 2.3509886e-038
-50.690033 273.2009 -2.3161795 2.3509886e-038
-45.522144 272.6185 -2.3112419 2.3509886e-038
-40.384575 272.0947 -2.3068011 2.3509886e-038
-35.299793 271.82767 -2.3045373 2.3509886e-038
-30.102854 270.4639 -2.2929752 2.3509886e-038
-24.87138 268.18185 -2.2736282 2.3509886e-038
-19.780176 266.64883 -2.2606313 2.3509528e-038
-14.836316 266.74179 -2.2614193 2.3509528e-038
-9.8816166 266.63535 -2.2605171 2.3509528e-038
-4.9198251 265.93204 -2.2545543 2.3509528e-038
0.015835309 264.84293 -2.245321 2.3509528e-038
4.9053135 263.44476 -2.2334673 2.3509528e-038
9.744031 262.07727 -2.221874 2.3509528e-038
10.961642 261.83853 -2.2198501 2.3509528e-038
-79.609047 220.51227 -5.9622192 2.3509886e-038
-77.787933 220.62357 -5.9652281 2.3509886e-038
-74.691612 223.61282 -6.046052 2.3509886e-038
-73.960747 234.45218 -6.3391266 2.3509886e-038
-74.851654 252.10909 -6.816535 2.3509886e-038
-73.502968 264.07452 -7.1400571 2.3509886e-038
-69.699234 268.29929 -7.2542863 2.3509886e-038
-65.335892 270.85431 -7.3233685 2.3509886e-038
-60.712311 272.66647 -7.3723669 2.3509886e-038
-55.90839 273.92465 -7.4063849 2.3509886e-038
-50.941223 274.55469 -7.4234204 2.3509886e-038
-45.815071 274.37274 -7.4185004 2.3509886e-038
-40.713684 274.31207 -7.4168601 2.3509886e-038
-35.560837 273.83783 -7.404038 2.3509886e-038
-30.314041 272.36133 -7.3641162 2.3509886e-038
-25.095909 270.60291 -7.3165717 2.3509886e-038
-19.960447 269.07904 -7.2753692 2.3509886e-038
-14.919338 268.23444 -7.2525325 2.3509528e-038
-9.9185925 267.63309 -7.2362733 2.3509528e-038
-4.9400978 267.02783 -7.2199082 2.3509528e-038
0.015926192 266.36295 -7.201931 2.3509528e-038
4.9561906 266.17715 -7.196908 2.3509528e-038
7.9281878 266.85608 -7.2152648 2.3509528e-038
-80.290321 222.66139 -10.152946 2.3509886e-038
-78.546402 222.77477 -10.158115 2.3509886e-038
-74.988068 224.50034 -10.236799 2.3509886e-038
-74.210182 235.24287 -10.726638 2.3509886e-038
-75.879326 255.5704 -11.653536 2.3509886e-038
-74.407234 267.3233 -12.189446 2.3509886e-038
-70.258873 270.45355 -12.332179 2.3509886e-038
-65.848198 272.97809 -12.447294 2.3509886e-038
-61.21339 274.9169 -12.5357 2.3509886e-038
-56.321091 275.94672 -12.582657 2.3509886e-038
-51.26326 276.29037 -12.598329 2.3509886e-038
-46.111893 276.15033 -12.591941 2.3509886e-038
-40.959301 275.96698 -12.583581 2.3509886e-038
-35.761494 275.38303 -12.556954 2.3509886e-038
-30.530672 274.30771 -12.507921 2.3509886e-038
-25.335779 273.18936 -12.456927 2.3509886e-038
-20.178762 272.02203 -12.4037 2.3509886e-038
-15.075505 271.04218 -12.359019 2.3509528e-038
-10.004251 269.94437 -12.308962 2.3509528e-038
-4.9663243 268.44543 -12.240613 2.3509528e-038
0.015970511 267.10416 -12.179453 2.3509528e-038
4.9812756 267.52435 -12.198614 2.3509528e-038
5.6158748 267.79681 -12.211037 2.3509528e-038
-80.526848 224.80615 -14.423169 2.3509886e-038
-79.257576 224.79181 -14.422248 2.3509886e-038
-75.296806 225.42465 -14.46285 2.3509886e-038
-73.801582 233.94765 -15.00967 2.3509886e-038
-75.292252 253.59306 -16.270086 2.3509886e-038
-74.462463 267.52173 -17.163725 2.3509886e-038
-70.666473 272.02255 -17.45249 2.3509886e-038
-66.350067 275.05862 -17.64728 2.3509886e-038
-61.631775 276.79593 -17.758739 2.3509886e-038
-56.617531 277.39911 -17.79744 2.3509886e-038
-51.513512 277.63916 -17.812841 2.3509886e-038
-46.332214 277.46976 -17.801971 2.3509886e-038
-41.076855 276.75897 -17.756371 2.3509886e-038
-35.84816 276.05038 -17.710909 2.3509886e-038
-30.667686 275.53873 -17.67808 2.3509886e-038
-25.481667 274.76245 -17.628277 2.3509886e-038
-20.306734 273.74716 -17.563139 2.3509886e-038
-15.169695 272.7356 -17.498238 2.3509886e-038
-10.054275 271.29419 -17.405758 2.3509886e-038
-4.9817076 269.27698 -17.276339 2.3509528e-038
0.016005587 267.6908 -17.174572 2.3509528e-038
4.3679166 268.27258 -17.211897 2.3509886e-038
-78.559761 222.50882 -18.405561 2.3509886e-038
-78.444908 222.48688 -18.403748 2.3509886e-038
-74.419037 222.79678 -18.429382 2.3509886e-038
-72.077141 228.48125 -18.899591 2.3509886e-038
-72.463577 244.06578 -20.188719 2.3509886e-038
-72.988541 262.22635 -21.690931 2.3509886e-038
-70.583038 271.70139 -22.474691 2.3509886e-038
-66.478951 275.59293 -22.796591 2.3509886e-038
-61.694374 277.07706 -22.919357 2.3509886e-038
-56.660999 277.61209 -22.963614 2.3509886e-038
-51.603386 278.12354 -23.00592 2.3509886e-038
-46.483856 278.3779 -23.02696 2.3509886e-038
-41.210506 277.65948 -22.967535 2.3509886e-038
-35.941967 276.77277 -22.894186 2.3509886e-038
-30.771988 276.47583 -22.869625 2.3509886e-038
-25.584448 275.8707 -22.819569 2.3509886e-038
-20.389391 274.86142 -22.736084 2.3509886e-038
-15.22467 273.724 -22.641996 2.3509886e-038
-10.086067 272.15204 -22.511967 2.3509886e-038
-4.9987159 270.19632 -22.350193 2.3509886e-038
0.016088327 269.07465 -22.257412 2.3509886e-038
3.922823 269.92603 -22.327835 2.3509886e-038
-75.908974 219.57236 -22.237947 2.3509886e-038
-73.514 220.08727 -22.290096 2.3509886e-038
-70.700783 224.11823 -22.698347 2.3509886e-038
-69.797371 235.08568 -23.809113 2.3509886e-038
-70.454391 253.12189 -25.635792 2.3509886e-038
-69.704216 268.31848 -27.174879 2.3509886e-038
-66.28389 274.78427 -27.829723 2.3509886e-038
-61.641056 276.83759 -28.03768 2.3509886e-038
-56.671562 277.66385 -28.121363 2.3509886e-038
-51.671989 278.49329 -28.205366 2.3509886e-038
-46.611649 279.14322 -28.271191 2.3509886e-038
-41.362602 278.68423 -28.224707 2.3509886e-038
-36.066223 277.72961 -28.128023 2.3509886e-038
-30.865911 277.3197 -28.086508 2.3509886e-038
-25.676832 276.86685 -28.040646 2.3509886e-038
-20.484659 276.14572 -27.967609 2.3509886e-038
-15.309961 275.25745 -27.877645 2.3509886e-038
-10.143059 273.68985 -27.718882 2.3509886e-038
-5.0254493 271.64136 -27.511414 2.3509886e-038
0.016194105 270.84375 -27.430634 2.3509886e-038
3.8221781 272.0462 -27.552416 2.3509886e-038
-75.288002 223.2348 -26.752134 2.3509886e-038
-74.562149 223.22523 -26.75099 2.3509886e-038
-70.950989 224.91141 -26.953056 2.3509886e-038
-68.668373 231.28307 -27.716627 2.3509886e-038
-68.330551 245.49155 -29.419352 2.3509886e-038
-68.339371 263.06467 -31.525288 2.3509886e-038
-65.816742 272.84772 -32.697674 2.3509886e-038
-61.472584 276.08096 -33.08514 2.3509886e-038
-56.649696 277.55673 -33.261997 2.3509886e-038
-51.716995 278.73584 -33.403301 2.3509886e-038
-46.663681 279.45483 -33.489464 2.3509886e-038
-41.45293 279.29282 -33.470047 2.3509886e-038
-36.186592 278.65652 -33.393791 2.3509886e-038
-30.956692 278.13531 -33.331333 2.3509886e-038
-25.754553 277.7049 -33.279751 2.3509886e-038
-20.57453 277.35721 -33.238087 2.3509886e-038
-15.403879 276.94598 -33.188805 2.3509886e-038
-10.204675 275.35242 -32.997837 2.3509886e-038
-5.0503306 272.98624 -32.714275 2.3509886e-038
0.016275393 272.20328 -32.620445 2.3509886e-038
3.823616 273.45776 -32.770782 2.3509886e-038
-75.13047 228.36784 -31.605803 2.3509886e-038
-71.861351 227.7972 -31.526823 2.3509886e-038
-68.748909 231.55432 -32.046803 2.3509886e-038
-67.515457 242.56317 -33.570415 2.3509886e-038
-67.224792 258.77423 -35.814003 2.3509886e-038
-65.165024 270.14594 -37.387829 2.3509886e-038
-61.118351 274.49005 -37.989056 2.3509886e-038
-56.492592 276.78699 -38.306946 2.3509886e-038
-51.664806 278.45456 -38.537739 2.3509886e-038
-46.647728 279.35928 -38.662949 2.3509886e-038
-41.493114 279.56357 -38.691219 2.3509886e-038
-36.284225 279.40836 -38.669739 2.3509886e-038
-31.049385 278.96817 -38.608814 2.3509886e-038
-25.831589 278.53558 -38.548946 2.3509886e-038
-20.638206 278.21561 -38.504665 2.3509886e-038
-15.445858 277.70071 -38.433403 2.3509886e-038
-10.224924 275.8988 -38.184025 2.3509886e-038
-5.0624142 273.6394 -37.871323 2.3509886e-038
0.016339321 273.27246 -37.820538 2.3509886e-038
3.8413255 274.77798 -38.0289 2.3509886e-038
-74.138573 230.59883 -36.194508 2.3509886e-038
-72.714584 230.50189 -36.179291 2.3509886e-038
-69.413345 233.79222 -36.695736 2.3509886e-038
-67.612999 242.91362 -38.127419 2.3509886e-038
-66.524109 256.07703 -40.193531 2.3509886e-038
-64.418907 267.05286 -41.916286 2.3509886e-038
-60.666172 272.45926 -42.76487 2.3509886e-038
-56.229286 275.49689 -43.24165 2.3509886e-038
-51.528923 277.7222 -43.590935 2.3509886e-038
-46.597778 279.06015 -43.800934 2.3509886e-038
-41.507748 279.66217 -43.895428 2.3509886e-038
-36.337952 279.82208 -43.920528 2.3509886e-038
-31.117794 279.58276 -43.882965 2.3509886e-038
-25.902439 279.29953 -43.838509 2.3509886e-038
-20.693974 278.96738 -43.786373 2.3509886e-038
-15.45645 277.89117 -43.617451 2.3509886e-038
-10.227457 275.96716 -43.315464 2.3509886e-038
-5.074513 274.2934 -43.052753 2.3509886e-038
0.016415045 274.53891 -43.091286 2.3509886e-038
3.8650546 276.47394 -43.395004 2.3509886e-038
-73.77153 234.41133 -41.143608 2.3509886e-038
-70.404747 237.13138 -41.621025 2.3509886e-038
-67.941032 244.09213 -42.842773 2.3509886e-038
-65.906372 253.69913 -44.52898 2.3509886e-038
-63.438206 262.9873 -46.159233 2.3509886e-038
-59.868393 268.87634 -47.192867 2.3509886e-038
-55.633118 272.57596 -47.84222 2.3509886e-038
-51.145409 275.65521 -48.382687 2.3509886e-038
-46.414661 277.96353 -48.787838 2.3509886e-038
-41.480194 279.47653 -49.053402 2.3509886e-038
-36.373905 280.09894 -49.162643 2.3509886e-038
-31.187862 280.21231 -49.182545 2.3509886e-038
-25.980398 280.14014 -49.169876 2.3509886e-038
-20.75565 279.79883 -49.109974 2.3509886e-038
-15.478473 278.28711 -48.844635 2.3509886e-038
-10.240349 276.31503 -48.498501 2.3509886e-038
-5.0947533 275.38745 -48.335686 2.3509886e-038
0.016509574 276.11987 -48.464245 2.3509886e-038
3.8918936 278.39667 -48.863865 2.3509886e-038
-74.214981 241.08163 -46.788876 2.3509886e-038
-71.892502 242.14232 -46.994732 2.3509886e-038
-68.432007 245.85606 -47.715488 2.3509886e-038
-65.429955 251.86517 -48.881733 2.3509886e-038
-62.379864 258.59988 -50.188797 2.3509886e-038
-58.697456 263.61752 -51.162617 2.3509886e-038
-54.617092 267.5979 -51.935123 2.3509886e-038
-50.404972 271.66452 -52.724373 2.3509886e-038
-45.982422 275.37494 -53.444485 2.3509886e-038
-41.330971 278.4711 -54.045387 2.3509886e-038
-36.380493 280.14963 -54.371151 2.3509886e-038
-31.249664 280.76758 -54.491085 2.3509886e-038
-26.029844 280.67331 -54.472782 2.3509886e-038
-20.795464 280.33554 -54.40723 2.3509886e-038
-15.51516 278.94669 -54.137688 2.3509886e-038
-10.263293 276.93411 -53.747089 2.3509886e-038
-5.1176825 276.62683 -53.68745 2.3509886e-038
0.016613407 277.85651 -53.926102 2.3509886e-038
3.9171879 280.21756 -54.384335 2.3509886e-038
-74.853401 249.26381 -53.003223 2.3509886e-038
-73.919815 248.97055 -52.940865 2.3509886e-038
-69.241806 248.76546 -52.897251 2.3509886e-038
-65.321198 251.44655 -53.467358 2.3509886e-038
-61.610077 255.40868 -54.30986 2.3509886e-038
-57.620491 258.78076 -55.026897 2.3509886e-038
-53.521004 262.2276 -55.759827 2.3509886e-038
-49.442482 266.47705 -56.663433 2.3509886e-038
-45.305969 271.32388 -57.694057 2.3509886e-038
-40.978802 276.09833 -58.709293 2.3509886e-038
-36.278004 279.36041 -59.402935 2.3509886e-038
-31.275745 281.00192 -59.751987 2.3509886e-038
-26.073944 281.14883 -59.783218 2.3509886e-038
-20.827539 280.76794 -59.702232 2.3509886e-038
-15.559314 279.74054 -59.483765 2.3509886e-038
-10.308005 278.14056 -59.143551 2.3509886e-038
-5.1495557 278.3497 -59.188019 2.3509886e-038
0.016743977 280.04022 -59.547493 2.3509886e-038
3.9455011 282.47525 -60.065277 2.3509886e-038
-73.870178 253.40312 -58.586594 2.3509886e-038
-70.044724 251.6501 -58.181293 2.3509886e-038
-65.45858 251.97539 -58.256504 2.3509886e-038
-61.22773 253.82364 -58.683815 2.3509886e-038
-56.975433 255.8837 -59.160099 2.3509886e-038
-52.737965 258.39108 -59.739807 2.3509886e-038
-48.622765 262.05905 -60.587837 2.3509886e-038
-44.626377 267.25403 -61.78891 2.3509886e-038
-40.534393 273.1041 -63.141441 2.3509886e-038
-36.087605 277.89426 -64.248924 2.3509886e-038
-31.270981 280.95911 -64.957512 2.3509886e-038
-26.129818 281.75128 -65.140663 2.3509886e-038
-20.877243 281.43799 -65.06823 2.3509886e-038
-15.608316 280.62155 -64.879471 2.3509886e-038
-10.363133 279.62811 -64.649788 2.3509886e-038
-5.1879659 280.42587 -64.834229 2.3509886e-038
0.0169071 282.76846 -65.375832 2.3509886e-038
3.9343219 285.59683 -66.029747 2.3509886e-038
-70.997025 254.05356 -63.452236 2.3509886e-038
-70.689468 253.96648 -63.430481 2.3509886e-038
-65.874672 253.57709 -63.333229 2.3509886e-038
-61.261204 253.9624 -63.429459 2.3509886e-038
-56.737747 254.81624 -63.642719 2.3509886e-038
-52.358162 256.53021 -64.070808 2.3509886e-038
-48.181545 259.68106 -64.85775 2.3509886e-038
-44.192341 264.65469 -66.09996 2.3509886e-038
-40.210205 270.91986 -67.664749 2.3509886e-038
-35.947689 276.8168 -69.137566 2.3509886e-038
-31.273167 280.97876 -70.177055 2.3509886e-038
-26.189232 282.39194 -70.530006 2.3509886e-038
-20.937738 282.25351 -70.49543 2.3509886e-038
-15.661105 281.57065 -70.324875 2.3509886e-038
-10.420894 281.18665 -70.228973 2.3509886e-038
-5.2329645 282.85818 -70.646454 2.3509886e-038
0.017101159 286.01407 -71.434669 2.3509886e-038
3.7229264 288.95035 -72.16803 2.3509886e-038
-68.12291 259.4346 -69.611336 2.3509886e-038
-67.338356 259.21136 -69.55143 2.3509886e-038
-62.021355 257.11368 -68.988579 2.3509886e-038
-56.981171 255.90947 -68.665466 2.3509886e-038
-52.425365 256.85947 -68.920372 2.3509886e-038
-48.169399 259.6156 -69.659897 2.3509886e-038
-44.083015 263.99997 -70.836304 2.3509886e-038
-40.061886 269.92056 -72.424911 2.3509886e-038
-35.852585 276.08447 -74.078812 2.3509886e-038
-31.280886 281.04813 -75.41066 2.3509886e-038
-26.286371 283.43936 -76.052269 2.3509886e-038
-21.030443 283.5032 -76.069397 2.3509886e-038
-15.746891 283.11301 -75.964706 2.3509886e-038
-10.509108 283.56693 -76.086502 2.3509886e-038
-5.2985868 286.4053 -76.848091 2.3509886e-038
0.017388595 290.82138 -78.033005 2.3509886e-038
2.8787136 293.32388 -78.704475 2.3509886e-038
-64.685898 265.49887 -76.166183 2.3509886e-038
-63.799633 264.48563 -75.875496 2.3509886e-038
-57.810066 259.63214 -74.483131 2.3509886e-038
-52.944679 259.40387 -74.417648 2.3509886e-038
-48.538498 261.60492 -75.04908 2.3509886e-038
-44.311886 265.37061 -76.129387 2.3509886e-038
-40.167454 270.63181 -77.638718 2.3509886e-038
-35.899967 276.44934 -79.307648 2.3509886e-038
-31.383631 281.97122 -80.891762 2.3509886e-038
-26.483032 285.55994 -81.92128 2.3509886e-038
-21.226496 286.14612 -82.089447 2.3509886e-038
-15.922515 286.27054 -82.125145 2.3509886e-038
-10.656772 287.55133 -82.492584 2.3509886e-038
-5.3936129 291.54172 -83.637344 2.3509886e-038
0.017775306 297.28906 -85.286133 2.3509886e-038
0.50980353 297.78979 -85.429779 2.3509886e-038
-58.926567 266.16382 -81.296974 2.3509886e-038
-54.009518 264.62109 -80.825752 2.3509886e-038
-49.35878 266.02594 -81.254852 2.3509886e-038
-45.012711 269.56766 -82.336639 2.3509886e-038
-40.736012 274.46252 -83.831718 2.3509886e-038
-36.323975 279.71445 -85.43586 2.3509886e-038
-31.754763 285.30569 -87.143661 2.3509886e-038
-26.916008 290.22858 -88.647301 2.3509886e-038
-21.689545 292.38831 -89.306969 2.3509886e-038
-16.322651 293.46454 -89.635689 2.3509886e-038
-10.956517 295.63937 -90.299965 2.3509886e-038
-5.5638061 300.74121 -91.858276 2.3509886e-038
-4.6387949 301.72025 -92.157303 2.3509886e-038
-51.355785 273.93726 -88.755577 2.3509886e-038
-50.884838 274.25082 -88.857178 2.3509886e-038
-46.55349 278.79492 -90.32946 2.3509886e-038
-42.105267 283.68799 -91.91481 2.3509886e-038
-37.323608 287.41217 -93.121445 2.3509886e-038
-32.538673 292.34891 -94.720955 2.3509886e-038
-27.691473 298.59021 -96.743126 2.3509886e-038
-22.470232 302.91245 -98.143532 2.3509886e-038
-16.996672 305.58279 -99.00872 2.3509886e-038
-15.291277 306.44269 -99.287331 2.3509886e-038
-78.261101 221.96556 2.9133267 2.3509886e-038
-78.34832 222.21295 -18.70306 2.3509886e-038
-76.193123 228.10806 8.6398468 2.3509886e-038
-75.398239 225.72833 -28.640162 2.3509886e-038
-75.331329 238.79688 12.077267 2.3509886e-038
-73.774178 233.86079 -40.559158 2.3509886e-038
-73.435234 247.33839 13.669504 2.3509886e-038
-74.752342 251.77461 -55.46183 2.3509886e-038
-70.602577 253.6543 12.833655 2.3509886e-038
-70.75782 254.21205 -63.848278 2.3509886e-038
-60.905025 234.44698 65.711494 3.5733111e-043
-64.890785 249.78973 50.336201 3.5733111e-043
-67.951294 261.57077 8.8297358 2.3509886e-038
-67.73735 260.74722 -70.701736 2.3509886e-038
-56.649609 234.84473 63.97353 3.5733111e-043
-63.419678 262.91049 35.266159 3.5733111e-043
-65.09951 269.87433 3.4186611 2.3509886e-038
-64.07502 265.62726 -76.783897 2.3509886e-038
-53.544231 240.47375 59.439987 3.5733111e-043
-61.039997 274.13815 11.917734 2.3509886e-038
-61.25013 275.08191 8.5791159 2.3509886e-038
-59.234112 266.02771 -81.006264 2.3509886e-038
-50.872601 249.25168 51.154129 3.5733111e-043
-54.949688 269.22748 -85.161087 2.3509886e-038
-47.796829 257.60757 38.214684 3.5733111e-043
-50.964321 274.6792 -89.191483 2.3509886e-038
-44.711666 267.76477 19.249842 2.3509886e-038
-47.404182 283.88943 -93.896286 2.3509886e-038
-40.637054 273.79578 12.657729 2.3509886e-038
-43.337696 291.99158 -97.794472 2.3509886e-038
-32.348701 249.10263 67.459122 2.3418409e-038
-38.352707 295.33679 -99.565659 2.3509886e-038
-27.589401 247.88136 68.675354 2.3418409e-038
-33.292145 299.11859 -100.74762 2.3509886e-038
-23.189972 250.05165 63.070335 2.3418409e-038
-28.226513 304.35944 -101.73042 2.3509886e-038
-20.370424 274.60574 11.602104 2.3418409e-038
-22.801586 307.37927 -101.64373 2.3509886e-038
-14.918612 268.22137 2.1374536 2.3509528e-038
-17.078497 307.05389 -100.07791 2.3509886e-038
-9.9462872 268.38037 1.6591868 2.3509528e-038
-11.310122 305.18069 -97.301186 2.3509886e-038
-4.9730721 268.81018 4.46701 2.3509528e-038
-5.5977378 302.57532 -93.187813 2.3509886e-038
0.015830055 264.75507 8.7187834 2.3509528e-038
0.017829699 298.19879 -86.246246 2.3509886e-038
4.840313 259.95383 13.517761 2.3509528e-038
4.9888682 267.93216 -14.283693 2.3509528e-038
9.5694618 257.38202 18.999311 2.3509528e-038
9.8206244 264.13733 -3.9983544 2.3509528e-038
14.338674 257.24164 25.396299 2.3509528e-038
14.303864 256.6171 2.9519961 2.3509528e-038
18.859787 253.83224 31.298754 2.3509528e-038
18.915035 254.57582 10.715846 2.3509528e-038
23.349545 251.44824 34.733128 2.3509528e-038
23.5009 253.07819 18.795649 2.3509528e-038
