# .PCD v0.7 - Point Cloud Data file format
VERSION 0.7
FIELDS x y z rgb
SIZE 4 4 4 4
TYPE F F F F
COUNT 1 1 1 1
WIDTH 718
HEIGHT 1
VIEWPOINT 0 0 0 1 0 0 0
POINTS 718
DATA ascii
-118.27245 243.81006 -34.448284 2.3418052e-038
-84.707687 264.49603 58.547962 9.1476764e-041
-47.232464 263.91391 75.820534 3.5733111e-043
31.144341 254.33788 29.946482 2.3509528e-038
-15.888021 259.49661 68.440697 2.3418409e-038
-52.055378 262.16888 77.494011 3.5733111e-043
-49.116283 263.03986 77.751457 3.5733111e-043
-44.748783 265.88632 78.592842 3.5733111e-043
-43.10696 267.37222 79.032059 3.5733111e-043
-53.032337 263.2724 72.969337 3.5733111e-043
-49.273582 263.88229 73.138374 3.5733111e-043
-44.826973 266.35092 73.822586 3.5733111e-043
-41.670448 268.92508 74.536049 3.5733111e-043
-18.67395 259.49863 71.923393 2.3418409e-038
-14.969523 259.21732 71.845421 2.3418409e-038
-12.941142 259.49161 71.921448 2.3418409e-038
-53.356136 264.2312 68.366554 3.5733111e-043
-49.340611 264.24121 68.369141 3.5733111e-043
-44.743988 265.85785 68.787422 3.5733111e-043
-40.664474 267.69992 69.264038 3.5733111e-043
-20.651028 260.21802 67.328194 2.3418409e-038
-19.804892 259.99469 67.270409 2.3418409e-038
-15.00067 259.75668 67.208824 2.3418409e-038
-11.077174 260.35114 67.362625 2.3418409e-038
-87.38562 262.604 63.106991 9.1476764e-041
-83.297295 263.84756 63.405834 9.1476764e-041
-81.999809 264.48895 63.559971 9.1476764e-041
-53.70969 265.91696 63.903137 3.5733111e-043
-49.435722 264.75061 63.622849 3.5733111e-043
-44.699131 265.59131 63.824886 3.5733111e-043
-40.118576 267.67999 64.326813 3.5733111e-043
-40.046883 267.73065 64.338989 3.5733111e-043
-21.230064 260.9054 62.698795 2.3418409e-038
-19.848928 260.57278 62.618866 2.3418409e-038
-15.060305 260.78934 62.67091 2.3418409e-038
-10.753377 261.8436 62.924259 2.3418409e-038
-89.453606 262.87506 58.328602 9.1476764e-041
-87.970139 263.28311 58.419144 9.1476764e-041
-83.522209 264.56 58.702465 9.1476764e-041
-79.387245 267.04797 59.25452 9.1476764e-041
-79.283211 267.18585 59.285114 9.1476764e-041
-54.104195 267.86371 59.435524 3.5733111e-043
-49.578472 265.51508 58.914394 3.5733111e-043
-44.76342 265.9733 59.016064 3.5733111e-043
-40.311363 268.96631 59.680176 3.5733111e-043
-39.580387 269.79196 59.863373 3.5733111e-043
-21.760437 261.85117 58.101414 2.3418409e-038
-19.89369 261.16043 57.948151 2.3418409e-038
-15.105026 261.56375 58.03764 2.3418409e-038
-10.753435 263.6972 58.511024 2.3418409e-038
-90.059097 264.25742 53.766323 9.1476764e-041
-88.307213 264.2919 53.773342 9.1476764e-041
-83.543968 264.62891 53.841911 9.1476764e-041
-79.221413 266.49014 54.220596 9.1476764e-041
-77.766075 268.76953 54.684368 9.1476764e-041
-54.45573 269.60635 54.85463 2.3509886e-038
-49.761745 266.49661 54.221912 3.5733111e-043
-44.874886 266.63559 54.250191 3.5733111e-043
-40.35516 269.25854 54.783867 3.5733111e-043
-38.925812 270.47931 55.032246 3.5733111e-043
-22.447546 261.48828 53.202911 2.3418409e-038
-19.841257 260.47208 52.996155 2.3418409e-038
-15.095791 261.40384 53.185726 2.3418409e-038
-10.806097 265.08997 53.935715 2.3418409e-038
-89.7118 265.17157 49.066463 9.1476764e-041
-88.485085 264.82428 49.002205 9.1476764e-041
-83.323166 263.9295 48.836639 9.1476764e-041
-78.805244 265.09021 49.051407 9.1476764e-041
-76.217407 268.86053 49.749062 9.1476764e-041
-54.732483 271.01147 50.14706 2.3509886e-038
-49.965481 267.58768 49.513538 3.5733111e-043
-44.977123 267.24307 49.449772 3.5733111e-043
-40.276558 268.7341 49.725662 3.5733111e-043
-38.352627 269.54529 49.875763 3.5733111e-043
-23.286238 260.43555 48.190128 2.3418409e-038
-19.755465 259.34583 47.988491 2.3418409e-038
-15.06812 260.92465 48.280636 2.3418409e-038
-10.824646 265.54877 49.136257 2.3418409e-038
-88.801559 265.61472 44.254448 9.1476764e-041
-88.737473 265.57965 44.248604 9.1476764e-041
-83.118599 263.28152 43.865711 9.1476764e-041
-78.328323 263.4859 43.899765 9.1476764e-041
-74.605133 267.54398 44.575886 9.1476764e-041
-74.387352 268.02164 44.655468 9.1476764e-041
-54.647209 270.98865 45.149807 2.3509886e-038
-50.056282 268.07397 44.664188 3.5733111e-043
-45.041348 267.62469 44.589336 3.5733111e-043
-40.30225 268.90552 44.802734 3.5733111e-043
-38.227325 269.86111 44.961945 2.3418409e-038
-24.260475 260.97437 43.481316 2.3418409e-038
-19.725021 258.94617 43.143394 2.3418409e-038
-15.039824 260.43469 43.391396 2.3418409e-038
-10.785913 264.54446 44.07613 2.3418409e-038
-87.565758 265.37701 39.325203 9.1476764e-041
-83.003708 262.9176 38.960754 9.1476764e-041
-78.049103 262.54663 38.905781 9.1476764e-041
-73.930565 265.12488 39.287842 9.1476764e-041
-72.23455 266.99341 39.564732 2.3509886e-038
-54.349205 270.89618 40.14307 2.3509886e-038
-50.131222 268.47528 39.784328 3.5733111e-043
-45.074772 267.82327 39.68771 3.5733111e-043
-40.283257 268.77878 39.8293 3.5733111e-043
-38.166302 269.71042 39.967358 2.3418409e-038
-25.339613 263.00043 38.97303 2.3418409e-038
-24.829453 262.46939 38.894333 2.3418409e-038
-19.749638 259.26932 38.420128 2.3418409e-038
-15.025119 260.18005 38.555088 2.3418409e-038
-10.754874 263.3385 39.023129 2.3418409e-038
-86.21254 264.59659 34.334309 9.1476764e-041
-82.906319 262.60913 34.076416 9.1476764e-041
-77.898827 262.04114 34.002712 9.1476764e-041
-73.603905 263.95346 34.250854 9.1476764e-041
-70.083824 266.72787 34.610863 9.1476764e-041
-53.801571 271.12796 35.181828 3.5733111e-043
-50.255119 269.13885 34.923717 3.5733111e-043
-45.084003 267.87814 34.760124 3.5733111e-043
-40.209309 268.2854 34.812973 2.3418409e-038
-38.032406 269.14432 34.924427 2.3418409e-038
-26.31361 265.14661 34.405682 2.3418409e-038
-24.950922 263.75342 34.224899 2.3418409e-038
-19.824179 260.24789 33.770016 2.3418409e-038
-15.055023 260.69788 33.828407 2.3418409e-038
-10.886412 263.36215 34.174126 2.3418409e-038
28.401806 253.41878 32.883865 2.3509528e-038
32.199978 254.53827 33.029133 2.3509528e-038
36.909042 258.29187 33.516201 2.3509528e-038
-84.883141 263.8717 29.378345 9.1476764e-041
-82.957428 262.77103 29.255802 9.1476764e-041
-78.01088 262.41806 29.216503 9.1476764e-041
-73.657845 264.14688 29.408983 9.1476764e-041
-69.527023 266.97354 29.723692 9.1476764e-041
-68.535767 268.396 29.882061 2.3509886e-038
-53.178925 272.01331 30.284796 2.3509886e-038
-50.46949 270.2869 30.092585 3.5733111e-043
-45.102474 267.98788 29.836622 3.5733111e-043
-40.199875 268.22244 29.86274 2.3418409e-038
-37.815857 269.45016 29.999426 2.3418409e-038
-27.011864 266.87704 29.71295 2.3418409e-038
-25.07135 265.02646 29.50691 2.3418409e-038
-19.928183 261.61325 29.1269 2.3418409e-038
-15.109591 261.64279 29.130186 2.3418409e-038
-11.319974 264.21326 29.416372 2.3509886e-038
23.817045 254.72 28.359434 2.3509528e-038
27.427954 253.77878 28.254642 2.3509528e-038
32.301601 255.34158 28.428638 2.3509528e-038
36.718918 259.45038 28.886093 2.3509528e-038
-83.558243 263.96979 24.525557 9.1476764e-041
-83.297844 263.84927 24.51436 9.1476764e-041
-78.300293 263.3916 24.471838 9.1476764e-041
-73.793983 264.6351 24.587372 9.1476764e-041
-69.561913 267.10751 24.817085 9.1476764e-041
-67.285156 270.50894 25.133112 2.3509886e-038
-53.080967 274.54697 25.508287 2.3509886e-038
-50.892982 272.55487 25.3232 2.3509886e-038
-45.244045 268.82907 24.977036 3.5733111e-043
-40.296215 268.86526 24.980398 2.3418409e-038
-37.284599 270.71564 25.152317 2.3418409e-038
-27.877972 268.99936 24.992857 2.3418409e-038
-25.195225 266.33591 24.745394 2.3418409e-038
-20.021055 262.83243 24.419886 2.3418409e-038
-15.158714 262.49344 24.388388 2.3418409e-038
-11.983772 264.46204 24.571291 2.3509886e-038
20.11027 256.08951 23.793396 2.3509528e-038
22.881443 255.22229 23.712824 2.3509528e-038
27.603647 255.40439 23.729742 2.3509528e-038
32.678162 258.31827 24.000471 2.3509528e-038
34.584866 260.11774 24.16766 2.3509528e-038
-82.499779 265.85553 19.802317 9.1476764e-041
-78.797371 265.06369 19.743338 9.1476764e-041
-73.932381 265.13141 19.748383 9.1476764e-041
-69.514168 266.92419 19.881918 9.1476764e-041
-65.940628 272.23337 20.277372 9.1476764e-041
-53.474804 277.37085 20.66004 2.3509886e-038
-51.331181 274.90164 20.476118 2.3509886e-038
-45.464714 270.14023 20.121464 2.3509886e-038
-40.374271 269.38605 20.065289 2.3418409e-038
-35.738159 271.42389 20.217077 2.3418409e-038
-29.675501 271.29175 20.207237 2.3418409e-038
-25.294708 267.38754 19.91643 2.3418409e-038
-20.12459 264.19162 19.678383 2.3418409e-038
-15.267031 264.36908 19.691597 2.3418409e-038
-12.763916 266.11215 19.821432 2.3509886e-038
15.976986 255.98717 19.06727 2.3509528e-038
18.18129 255.25587 19.0128 2.3509528e-038
22.888638 255.30255 19.016275 2.3509528e-038
27.795866 257.18289 19.156336 2.3509528e-038
31.559511 260.62192 19.412489 2.3509528e-038
-81.400597 268.06967 15.027978 9.1476764e-041
-79.439003 267.22208 14.980461 9.1476764e-041
-74.157364 265.93823 14.908488 9.1476764e-041
-69.524071 266.96219 14.965893 9.1476764e-041
-65.571136 270.95355 15.189649 9.1476764e-041
-63.873158 274.56534 15.392124 2.3509886e-038
-54.373466 279.31018 15.65812 2.3509886e-038
-51.540321 276.0217 15.473767 2.3509886e-038
-45.622627 271.07852 15.196653 2.3509886e-038
-40.350994 269.23074 15.093068 2.3418409e-038
-35.467999 269.82138 15.126178 2.3418409e-038
-30.593199 270.67709 15.174149 2.3418409e-038
-25.329506 267.7554 15.010359 2.3418409e-038
-20.231764 265.59857 14.889447 2.3418409e-038
-15.407907 266.80853 14.957278 2.3509886e-038
-13.151197 269.11728 15.086705 2.3509886e-038
11.466092 258.66516 14.500761 2.3509528e-038
13.582056 257.22379 14.419957 2.3509528e-038
18.212053 255.68777 14.333848 2.3509528e-038
22.962696 256.1286 14.358562 2.3509528e-038
27.985458 258.93713 14.516006 2.3509528e-038
28.034115 258.98727 14.518819 2.3509528e-038
-80.007957 269.23669 10.132657 9.1476764e-041
-74.45974 267.02258 10.04933 9.1476764e-041
-69.656471 267.47061 10.066191 9.1476764e-041
-65.281837 269.75812 10.152281 9.1476764e-041
-61.146183 273.49155 10.292789 2.3509886e-038
-56.657196 276.17328 10.393715 2.3509886e-038
-51.226143 274.33911 10.324686 2.3509886e-038
-45.731701 271.72662 10.226365 2.3509886e-038
-40.468246 270.01306 10.161876 2.3509886e-038
-35.438984 269.60065 10.146356 2.3509886e-038
-30.484226 269.71292 10.15058 2.3418409e-038
-25.355021 268.02509 10.08706 2.3418409e-038
-20.311607 266.64673 10.035185 2.3509886e-038
-15.440308 267.3696 10.06239 2.3509886e-038
-12.319198 269.76328 10.152475 2.3509886e-038
7.0520163 260.73935 9.8128624 2.3509528e-038
8.9242907 259.59848 9.7699261 2.3509528e-038
13.622626 257.99213 9.7094707 2.3509528e-038
18.337994 257.45587 9.6892891 2.3509528e-038
23.174622 258.49243 9.7283001 2.3509528e-038
24.799362 259.30893 9.7590284 2.3509528e-038
-78.695869 270.24777 5.1913266 9.1476764e-041
-74.828575 268.34528 5.1547804 9.1476764e-041
-69.795929 268.0061 5.1482654 9.1476764e-041
-65.138023 269.16385 5.170505 2.3509886e-038
-60.454849 270.39938 5.1942391 2.3509886e-038
-55.718491 271.5976 5.2172561 2.3509886e-038
-50.84906 272.31967 5.2311273 2.3509886e-038
-45.790276 272.07465 5.2264199 2.3509886e-038
-40.647884 271.21164 5.2098422 2.3509886e-038
-35.569534 270.59378 5.1979733 2.3509886e-038
-30.534492 270.15765 5.1895957 2.3509886e-038
-25.430653 268.82462 5.1639886 2.3509886e-038
-20.373556 267.46002 5.1377749 2.3509886e-038
-15.408979 266.82712 5.1256175 2.3509528e-038
-10.516131 267.42465 5.1370959 2.3509528e-038
-8.9547749 267.77347 5.1437964 2.3509528e-038
1.7401402 263.42648 5.0602932 2.3509528e-038
4.1817293 262.14459 5.0356684 2.3509528e-038
8.9569349 260.54813 5.0050011 2.3509528e-038
13.715647 259.75378 4.9897428 2.3509528e-038
18.508463 259.84918 4.9915752 2.3509528e-038
21.745096 261.1868 5.0172701 2.3509528e-038
-77.433151 270.88623 0.21244471 9.1476764e-041
-75.190674 269.6438 0.21147032 9.1476764e-041
-69.976768 268.7005 0.21073054 2.3509886e-038
-65.197021 269.40762 0.2112851 2.3509886e-038
-60.358208 269.96713 0.21172389 2.3509886e-038
-55.523563 270.64743 0.21225742 2.3509886e-038
-50.725018 271.65536 0.21304788 2.3509886e-038
-45.763741 271.91699 0.21325308 2.3509886e-038
-40.680798 271.43127 0.21287213 2.3509886e-038
-35.660694 271.28729 0.21275923 2.3509886e-038
-30.628134 270.98618 0.21252307 2.3509886e-038
-25.514799 269.71408 0.21152543 2.3509886e-038
-20.428614 268.18277 0.2103245 2.3509886e-038
-15.401756 266.70203 0.2091632 2.3509528e-038
-10.448908 265.71515 0.20838924 2.3509528e-038
-5.5385213 265.01999 0.20784405 2.3509528e-038
-0.654091 264.46951 0.20741233 2.3509528e-038
4.209866 263.90845 0.20697232 2.3509528e-038
9.0513268 263.29385 0.20649032 2.3509528e-038
13.879009 262.84763 0.20614037 2.3509528e-038
18.724922 263.38992 0.20656565 2.3509528e-038
-76.249344 271.2684 -4.7854338 2.3509886e-038
-75.539513 270.89481 -4.7788429 2.3509886e-038
-70.267029 269.81506 -4.7597957 2.3509886e-038
-65.409424 270.28531 -4.7680912 2.3509886e-038
-60.517845 270.68115 -4.775074 2.3509886e-038
-55.642334 271.22638 -4.7846928 2.3509886e-038
-50.784695 271.97495 -4.7978983 2.3509886e-038
-45.783054 272.03174 -4.7988992 2.3509886e-038
-40.723011 271.71292 -4.7932758 2.3509886e-038
-35.749817 271.9653 -4.7977276 2.3509886e-038
-30.717077 271.7731 -4.7943373 2.3509886e-038
-25.60713 270.69012 -4.7752323 2.3509886e-038
-20.522207 269.41147 -4.752676 2.3509886e-038
-15.48658 268.17087 -4.7307906 2.3509886e-038
-10.511552 267.3082 -4.7155719 2.3509528e-038
-5.5724916 266.64548 -4.7038813 2.3509528e-038
-0.65856475 266.27835 -4.6974049 2.3509528e-038
4.2510929 266.49286 -4.7011886 2.3509528e-038
9.1700106 266.74625 -4.7056584 2.3509528e-038
14.119264 267.39767 -4.7171507 2.3509528e-038
15.909642 268.00015 -4.7277789 2.3509886e-038
-75.382584 272.15039 -9.8154325 2.3509886e-038
-70.664658 271.34189 -9.786272 2.3509886e-038
-65.723198 271.58188 -9.7949286 2.3509886e-038
-60.775555 271.83383 -9.8040152 2.3509886e-038
-55.851906 272.24796 -9.8189497 2.3509886e-038
-50.907944 272.63501 -9.8329105 2.3509886e-038
-45.882801 272.62439 -9.8325272 2.3509886e-038
-40.820942 272.36633 -9.8232203 2.3509886e-038
-35.792816 272.29242 -9.8205538 2.3509886e-038
-30.75424 272.1019 -9.8136835 2.3509886e-038
-25.690437 271.57074 -9.7945261 2.3509886e-038
-20.633333 270.8703 -9.7692633 2.3509886e-038
-15.615076 270.39594 -9.7521553 2.3509886e-038
-10.622981 270.14185 -9.7429914 2.3509528e-038
-5.6283731 269.31943 -9.7133293 2.3509528e-038
-0.6630863 268.10657 -9.6695871 2.3509528e-038
4.2788558 268.23328 -9.6741562 2.3509528e-038
9.2753935 269.81171 -9.7310848 2.3509528e-038
13.271347 272.44131 -9.8259249 2.3509886e-038
-74.885101 273.0209 -14.877305 2.3509886e-038
-70.92543 272.34323 -14.840378 2.3509886e-038
-65.925545 272.41806 -14.844456 2.3509886e-038
-60.92252 272.49115 -14.848439 2.3509886e-038
-55.934818 272.6521 -14.857208 2.3509886e-038
-50.938538 272.79886 -14.865207 2.3509886e-038
-45.942284 272.97784 -14.874958 2.3509886e-038
-40.881294 272.76904 -14.863582 2.3509886e-038
-35.796604 272.32123 -14.839179 2.3509886e-038
-30.781628 272.34424 -14.840432 2.3509886e-038
-25.76144 272.32132 -14.839185 2.3509886e-038
-20.704569 271.80548 -14.811076 2.3509886e-038
-15.687641 271.6525 -14.802739 2.3509886e-038
-10.679501 271.5791 -14.79874 2.3509886e-038
-5.6519761 270.44882 -14.737149 2.3509886e-038
-0.66500819 268.88367 -14.651862 2.3509528e-038
4.2945895 269.2196 -14.670167 2.3509886e-038
9.3502245 271.98849 -14.821048 2.3509886e-038
10.961918 273.36014 -14.895791 2.3509886e-038
-74.659393 273.34604 -19.93148 2.3509886e-038
-70.934601 272.37845 -19.860928 2.3509886e-038
-65.911415 272.35965 -19.859556 2.3509886e-038
-60.938183 272.56122 -19.874254 2.3509886e-038
-55.930893 272.63297 -19.879486 2.3509886e-038
-50.933571 272.77225 -19.889643 2.3509886e-038
-45.972477 273.15723 -19.917715 2.3509886e-038
-40.948669 273.21857 -19.922188 2.3509886e-038
-35.880455 272.95911 -19.903269 2.3509886e-038
-30.876741 273.18576 -19.919794 2.3509886e-038
-25.851198 273.27014 -19.925947 2.3509886e-038
-20.77075 272.67429 -19.8825 2.3509886e-038
-15.726989 272.33386 -19.857677 2.3509886e-038
-10.706457 272.26462 -19.852629 2.3509886e-038
-5.6652555 271.08429 -19.766562 2.3509886e-038
-0.66712725 269.74045 -19.668575 2.3509886e-038
4.3166604 270.60318 -19.731482 2.3509886e-038
9.4056139 274.47534 -20.013826 2.3509886e-038
-74.694504 273.19626 -24.954279 2.3509886e-038
-70.721878 271.56161 -24.804968 2.3509886e-038
-65.630409 271.19849 -24.771799 2.3509886e-038
-60.710873 271.54453 -24.803406 2.3509886e-038
-55.819424 272.0896 -24.853193 2.3509886e-038
-50.967297 272.95288 -24.932049 2.3509886e-038
-46.089935 273.85516 -25.014463 2.3509886e-038
-41.102619 274.24573 -25.05014 2.3509886e-038
-36.044895 274.21008 -25.046885 2.3509886e-038
-31.006927 274.33759 -25.058531 2.3509886e-038
-25.950493 274.31976 -25.056902 2.3509886e-038
-20.85046 273.7207 -25.002184 2.3509886e-038
-15.782209 273.29007 -24.962849 2.3509886e-038
-10.751265 273.40405 -24.973261 2.3509886e-038
-5.6942787 272.47302 -24.888216 2.3509886e-038
-0.67135042 271.44803 -24.794592 2.3509886e-038
4.3444505 272.34528 -24.876549 2.3509886e-038
8.577404 275.49677 -25.16441 2.3509886e-038
-75.544533 273.25916 -29.994883 2.3509886e-038
-70.522873 270.79745 -29.724669 2.3509886e-038
-65.377777 270.15457 -29.6541 2.3509886e-038
-60.451298 270.38351 -29.67923 2.3509886e-038
-55.671715 271.3696 -29.787472 2.3509886e-038
-50.977623 273.00818 -29.967333 2.3509886e-038
-46.182056 274.4025 -30.120384 2.3509886e-038
-41.241642 275.17334 -30.204996 2.3509886e-038
-36.202564 275.40955 -30.230925 2.3509886e-038
-31.141609 275.52921 -30.244059 2.3509886e-038
-26.056026 275.43536 -30.233757 2.3509886e-038
-20.943602 274.94348 -30.179766 2.3509886e-038
-15.874194 274.8829 -30.173117 2.3509886e-038
-10.815542 275.03867 -30.190212 2.3509886e-038
-5.7257376 273.97836 -30.073826 2.3509886e-038
-0.67520505 273.00656 -29.967155 2.3509886e-038
4.3660169 273.69724 -30.042967 2.3509886e-038
8.2981615 276.28101 -30.32658 2.3509886e-038
-125.51798 246.22079 -31.563646 2.3418052e-038
-122.62762 245.27744 -31.442717 2.3418052e-038
-118.15 245.364 -31.453814 2.3418052e-038
-114.25011 246.70494 -31.62571 2.3418052e-038
-110.66697 248.86932 -31.90317 2.3418052e-038
-107.37572 251.90562 -32.2924 2.3418052e-038
-105.22432 254.53227 -32.629116 2.3509886e-038
-77.998123 273.69827 -35.086056 2.3509886e-038
-76.008385 272.57623 -34.942219 2.3509886e-038
-70.400253 270.3266 -34.653831 2.3509886e-038
-65.299248 269.83008 -34.590179 2.3509886e-038
-60.376991 270.05115 -34.618519 2.3509886e-038
-55.6035 271.03711 -34.744911 2.3509886e-038
-50.971004 272.97275 -34.993046 2.3509886e-038
-46.222084 274.64032 -35.206818 2.3509886e-038
-41.29673 275.54092 -35.322269 2.3509886e-038
-36.307556 276.20825 -35.407814 2.3509886e-038
-31.276907 276.72629 -35.47422 2.3509886e-038
-26.174269 276.6853 -35.468967 2.3509886e-038
-21.050817 276.35098 -35.426109 2.3509886e-038
-15.972305 276.58185 -35.455708 2.3509886e-038
-10.862688 276.23755 -35.411572 2.3509886e-038
-5.7403855 274.67923 -35.211803 2.3509886e-038
-0.6771282 273.78415 -35.097061 2.3509886e-038
4.378571 274.48425 -35.18681 2.3509886e-038
8.251543 276.86929 -35.492554 2.3509886e-038
-124.41125 243.29616 -35.671513 2.3418052e-038
-121.02818 242.07826 -35.49295 2.3418052e-038
-116.95159 242.87523 -35.609802 2.3418052e-038
-113.37409 244.81331 -35.893955 2.3418052e-038
-109.80347 246.92749 -36.203934 2.3418052e-038
-106.60656 250.10115 -36.669247 2.3418052e-038
-103.50155 253.78693 -37.209644 2.3418052e-038
-100.00381 256.81293 -37.653313 2.3509886e-038
-96.07058 258.96567 -37.968941 2.3509886e-038
-95.516327 259.27841 -38.014797 2.3509886e-038
-83.358078 271.34879 -39.784523 2.3509886e-038
-80.702332 271.47177 -39.802559 2.3509886e-038
-75.415565 270.45032 -39.652794 2.3509886e-038
-70.193382 269.53226 -39.518192 2.3509886e-038
-65.260826 269.6713 -39.538574 2.3509886e-038
-60.440285 270.33423 -39.635777 2.3509886e-038
-55.67765 271.39856 -39.791824 2.3509886e-038
-51.018738 273.22833 -40.060104 2.3509886e-038
-46.25703 274.84799 -40.297573 2.3509886e-038
-41.339355 275.82532 -40.440865 2.3509886e-038
-36.397865 276.89532 -40.597744 2.3509886e-038
-31.380293 277.64096 -40.707069 2.3509886e-038
-26.274626 277.74615 -40.722488 2.3509886e-038
-21.149759 277.64984 -40.708374 2.3509886e-038
-16.029264 277.56818 -40.696396 2.3509886e-038
-10.879603 276.66772 -40.564373 2.3509886e-038
-5.7480235 275.04474 -40.326416 2.3509886e-038
-0.67881036 274.46429 -40.241318 2.3509886e-038
4.3970704 275.64392 -40.414265 2.3509886e-038
8.2841072 278.26321 -40.798302 2.3509886e-038
-119.63044 241.42134 -39.844875 2.3418052e-038
-116.76285 242.48326 -40.020134 2.3418052e-038
-113.04018 244.09229 -40.28569 2.3418052e-038
-109.34161 245.88884 -40.582203 2.3418052e-038
-106.08533 248.87836 -41.075603 2.3418052e-038
-102.72997 251.895 -41.573475 2.3418052e-038
-99.030304 254.31293 -41.972538 2.3418052e-038
-95.185646 256.58026 -42.346745 2.3418052e-038
-91.438881 259.36221 -42.805889 2.3418052e-038
-87.746086 262.61255 -43.342331 2.3509886e-038
-83.830017 265.53497 -43.824654 2.3509886e-038
-79.447327 267.25009 -44.107723 2.3509886e-038
-74.683952 267.82666 -44.202881 2.3509886e-038
-69.829842 268.13632 -44.25399 2.3509886e-038
-65.103729 269.02213 -44.400188 2.3509886e-038
-60.425869 270.26978 -44.606102 2.3509886e-038
-55.71447 271.578 -44.822018 2.3509886e-038
-50.99963 273.12604 -45.077507 2.3509886e-038
-46.218315 274.61795 -45.323734 2.3509886e-038
-41.37569 276.06775 -45.563011 2.3509886e-038
-36.492809 277.61758 -45.818802 2.3509886e-038
-31.491722 278.62689 -45.985382 2.3509886e-038
-26.404425 279.11823 -46.066479 2.3509886e-038
-21.251719 278.98837 -46.045044 2.3509886e-038
-16.061615 278.12836 -45.903107 2.3509886e-038
-10.896586 277.09961 -45.733318 2.3509886e-038
-5.7668548 275.9458 -45.542892 2.3509886e-038
-0.68188626 275.70798 -45.503639 2.3509886e-038
4.4275856 277.55685 -45.808784 2.3509886e-038
8.3548164 280.71152 -46.329437 2.3509886e-038
-113.45538 245.7318 -45.083961 2.3418052e-038
-109.78642 246.88913 -45.296295 2.3418052e-038
-106.36528 249.5351 -45.781746 2.3418052e-038
-102.59326 251.5598 -46.153214 2.3418052e-038
-98.600716 253.20975 -46.455929 2.3418052e-038
-94.836876 255.64012 -46.901821 2.3418052e-038
-91.030357 258.20346 -47.372112 2.3418052e-038
-86.964752 260.27411 -47.75201 2.3418052e-038
-82.796822 262.2623 -48.116779 2.3509886e-038
-78.456932 263.91852 -48.420647 2.3509886e-038
-73.966347 265.2532 -48.66552 2.3509886e-038
-69.3582 266.32529 -48.862213 2.3509886e-038
-64.745308 267.54105 -49.085266 2.3509886e-038
-60.172256 269.13541 -49.377781 2.3509886e-038
-55.545265 270.75323 -49.674599 2.3509886e-038
-50.85236 272.33731 -49.965229 2.3509886e-038
-46.108204 273.96368 -50.263615 2.3509886e-038
-41.389637 276.1608 -50.666718 2.3509886e-038
-36.594265 278.3894 -51.075588 2.3509886e-038
-31.636618 279.90887 -51.354362 2.3509886e-038
-26.543661 280.59009 -51.479347 2.3509886e-038
-21.336159 280.09686 -51.388855 2.3509886e-038
-16.096531 278.73294 -51.138626 2.3509886e-038
-10.927478 277.88516 -50.983082 2.3509886e-038
-5.7949448 277.28992 -50.873871 2.3509886e-038
-0.68605971 277.39545 -50.893234 2.3509886e-038
4.4680595 280.09409 -51.388348 2.3509886e-038
8.447814 284.47836 -52.192722 2.3509886e-038
-105.54194 254.95604 -51.473934 2.3418052e-038
-103.9324 254.84335 -51.451183 2.3418052e-038
-99.362755 255.16669 -51.51646 2.3418052e-038
-95.411934 257.19022 -51.925003 2.3418052e-038
-91.154686 258.55609 -52.200764 2.3418052e-038
-86.568893 259.08936 -52.308422 2.3418052e-038
-82.087341 260.01498 -52.4953 2.3418052e-038
-77.649063 261.20096 -52.734745 2.3509886e-038
-73.25592 262.70554 -53.038509 2.3509886e-038
-68.817101 264.24753 -53.349827 2.3509886e-038
-64.296227 265.68536 -53.640114 2.3509886e-038
-59.765743 267.3172 -53.969574 2.3509886e-038
-55.203957 269.08951 -54.327393 2.3509886e-038
-50.58139 270.88617 -54.690125 2.3509886e-038
-45.927189 272.88815 -55.094311 2.3509886e-038
-41.328499 275.75287 -55.67268 2.3509886e-038
-36.62484 278.62201 -56.251934 2.3509886e-038
-31.71694 280.61951 -56.655216 2.3509886e-038
-26.618862 281.38504 -56.809776 2.3509886e-038
-21.393627 280.85132 -56.702019 2.3509886e-038
-16.149664 279.65305 -56.460098 2.3509886e-038
-10.969468 278.95297 -56.31876 2.3509886e-038
-5.8229537 278.63016 -56.253586 2.3509886e-038
-0.69059724 279.2301 -56.37471 2.3509886e-038
4.5115037 282.8175 -57.09898 2.3509886e-038
8.4077053 288.3381 -58.213551 2.3509886e-038
-96.415016 261.53036 -57.620022 2.3418052e-038
-91.820877 260.44571 -57.381054 2.3418052e-038
-86.735031 259.58661 -57.191772 2.3418052e-038
-81.866257 259.3147 -57.131863 2.3418052e-038
-77.18853 259.65179 -57.206131 2.3418052e-038
-72.7696 260.96152 -57.49469 2.3509886e-038
-68.388351 262.6012 -57.855946 2.3509886e-038
-63.894726 264.02628 -58.169918 2.3509886e-038
-59.361504 265.50912 -58.496616 2.3509886e-038
-54.811768 267.17783 -58.864258 2.3509886e-038
-50.239216 269.05368 -59.277542 2.3509886e-038
-45.715248 271.62881 -59.844898 2.3509886e-038
-41.21405 274.98926 -60.585262 2.3509886e-038
-36.577789 278.26407 -61.306767 2.3509886e-038
-31.749323 280.90604 -61.88884 2.3509886e-038
-26.682386 282.05655 -62.142319 2.3509886e-038
-21.471342 281.87152 -62.101559 2.3509886e-038
-16.233368 281.10251 -61.932129 2.3509886e-038
-11.030987 280.5174 -61.803219 2.3509886e-038
-5.8564491 280.23294 -61.740543 2.3509886e-038
-0.69567722 281.28412 -61.972141 2.3509886e-038
4.5535221 285.45157 -62.890305 2.3509886e-038
7.9273534 290.12509 -63.919975 2.3509886e-038
-89.945862 264.63763 -63.180611 2.3418052e-038
-88.113281 263.71152 -62.959507 2.3418052e-038
-82.468498 261.22229 -62.365223 2.3418052e-038
-77.317947 260.08713 -62.094208 2.3418052e-038
-72.716476 260.771 -62.257481 2.3509886e-038
-68.221611 261.96097 -62.541573 2.3509886e-038
-63.662754 263.06772 -62.805809 2.3509886e-038
-59.10659 264.36896 -63.11647 2.3509886e-038
-54.557518 265.93848 -63.491188 2.3509886e-038
-50.02652 267.91458 -63.962967 2.3509886e-038
-45.607998 270.99161 -64.697578 2.3509886e-038
-41.185764 274.80051 -65.606934 2.3509886e-038
-36.585304 278.32123 -66.447487 2.3509886e-038
-31.797585 281.33304 -67.166534 2.3509886e-038
-26.754667 282.82062 -67.52169 2.3509886e-038
-21.564547 283.09509 -67.587219 2.3509886e-038
-16.323723 282.66711 -67.485031 2.3509886e-038
-11.09755 282.21011 -67.375938 2.3509886e-038
-5.8979244 282.21753 -67.377708 2.3509886e-038
-0.70214587 283.89957 -67.779282 2.3509886e-038
4.6148624 289.29691 -69.067856 2.3509886e-038
6.8569126 292.59955 -69.856354 2.3509886e-038
-83.772476 266.30493 -68.485405 2.3418052e-038
-78.378586 263.65497 -67.803909 2.3418052e-038
-73.318069 262.92844 -67.617065 2.3509886e-038
-68.41497 262.70343 -67.559196 2.3509886e-038
-63.722565 263.31488 -67.716446 2.3509886e-038
-59.144855 264.5401 -68.03154 2.3509886e-038
-54.581955 266.05762 -68.421799 2.3509886e-038
-50.055565 268.07013 -68.939354 2.3509886e-038
-45.640228 271.18311 -69.739914 2.3509886e-038
-41.231827 275.10785 -70.749237 2.3509886e-038
-36.63192 278.67584 -71.666817 2.3509886e-038
-31.857147 281.86002 -72.485687 2.3509886e-038
-26.857243 283.90491 -73.011566 2.3509886e-038
-21.689846 284.73999 -73.226334 2.3509886e-038
-16.440685 284.69247 -73.214104 2.3509886e-038
-11.185509 284.4469 -73.150948 2.3509886e-038
-5.955852 284.98938 -73.290459 2.3509886e-038
-0.71137565 287.63147 -73.969933 2.3509886e-038
4.6918654 294.12402 -75.63961 2.3509886e-038
4.9977317 294.61203 -75.765114 2.3509886e-038
-78.051819 271.75974 -74.895447 2.3509886e-038
-75.423836 270.47998 -74.542755 2.3509886e-038
-69.639603 267.40582 -73.695541 2.3509886e-038
-64.418594 266.19101 -73.360741 2.3509886e-038
-59.622063 266.67456 -73.494003 2.3509886e-038
-54.944324 267.82397 -73.810768 2.3509886e-038
-50.331882 269.54993 -74.286438 2.3509886e-038
-45.820644 272.2551 -75.031967 2.3509886e-038
-41.34787 275.88211 -76.031555 2.3509886e-038
-36.703079 279.21722 -76.950684 2.3509886e-038
-31.954109 282.71793 -77.915459 2.3509886e-038
-27.041443 285.85208 -78.779221 2.3509886e-038
-21.889929 287.36667 -79.196632 2.3509886e-038
-16.627535 287.92801 -79.351334 2.3509886e-038
-11.336973 288.29861 -79.453468 2.3509886e-038
-6.052331 289.60596 -79.813766 2.3509886e-038
-0.72442007 292.90576 -80.723175 2.3509886e-038
2.2677023 295.84314 -81.532692 2.3509886e-038
-70.005096 276.08774 -81.175201 2.3509886e-038
-66.255379 273.78098 -80.496964 2.3509886e-038
-60.898735 272.3848 -80.086464 2.3509886e-038
-55.916954 272.565 -80.13945 2.3509886e-038
-51.0299 273.28812 -80.352058 2.3509886e-038
-46.34219 275.35397 -80.959465 2.3509886e-038
-41.727089 278.41235 -81.858681 2.3509886e-038
-36.997311 281.45554 -82.753441 2.3509886e-038
-32.241585 285.26135 -83.872421 2.3509886e-038
-27.39642 289.60452 -85.149399 2.3509886e-038
-22.27865 292.4697 -85.991821 2.3509886e-038
-16.998888 294.35852 -86.547165 2.3509886e-038
-11.634884 295.87445 -86.992882 2.3509886e-038
-6.2153821 297.40799 -87.443771 2.3509886e-038
-2.0968943 299.08789 -87.937691 2.3509886e-038
-58.551327 281.98499 -88.104759 2.3509886e-038
-57.802444 281.75577 -88.03315 2.3509886e-038
-52.431007 280.79169 -87.731926 2.3509886e-038
-47.581917 282.72015 -88.334457 2.3509886e-038
-42.66832 284.69247 -88.950699 2.3509886e-038
-37.761948 287.27252 -89.756821 2.3509886e-038
-32.900105 291.08771 -90.948868 2.3509886e-038
-28.026482 296.26483 -92.566422 2.3509886e-038
-22.920864 300.90054 -94.014832 2.3509886e-038
-17.59779 304.72928 -95.211105 2.3509886e-038
-12.132411 308.52655 -96.397537 2.3509886e-038
-11.41622 308.88205 -96.508614 2.3509886e-038
-42.07634 295.22021 -97.679543 2.3509886e-038
-38.942268 296.25174 -98.020844 2.3509886e-038
-33.836246 299.37033 -99.052681 2.3509886e-038
-30.021486 303.69778 -100.48452 2.3509886e-038
-123.59921 247.22076 -29.760521 2.3418052e-038
-120.61244 241.24672 -38.978012 2.3418052e-038
-119.26602 247.68164 -28.734056 2.3418052e-038
-117.23006 243.45354 -42.354183 2.3418052e-038
-115.06804 248.47113 -28.89716 2.3418052e-038
-113.74719 245.61897 -44.918079 2.3418052e-038
-111.25674 250.19562 -29.760937 2.3418052e-038
-110.32689 248.10454 -47.266811 2.3418052e-038
-107.59185 252.41267 -31.235235 2.3418052e-038
-107.63661 252.51767 -49.888847 2.3418052e-038
-104.19141 255.47847 -33.32151 2.3509886e-038
-104.25529 255.63512 -52.149727 2.3418052e-038
-100.43119 257.91046 -35.656872 2.3509886e-038
-100.26989 257.49625 -54.268303 2.3418052e-038
-96.123535 259.10843 -37.759735 2.3509886e-038
-96.903954 261.21207 -57.224201 2.3418052e-038
-92.043526 261.07724 -39.453518 2.3509886e-038
-92.678864 262.87936 -60.440918 2.3418052e-038
-87.729744 262.56366 62.666313 9.1476764e-041
-88.751114 265.62048 44.026978 9.1476764e-041
-88.49424 264.85168 -40.498409 2.3509886e-038
-88.658928 265.34457 -64.454506 2.3418052e-038
-83.259697 263.72845 64.303268 9.1476764e-041
-83.386269 264.12939 23.853159 9.1476764e-041
-85.054199 269.4126 -40.40255 2.3509886e-038
-84.055565 266.24942 -68.253181 2.3418052e-038
-79.389168 267.05444 59.569336 9.1476764e-041
-80.032944 269.22003 10.219248 9.1476764e-041
-81.172531 273.05344 -38.439514 2.3509886e-038
-79.905922 268.79272 -72.342079 2.3418052e-038
-74.791412 268.21201 45.744965 9.1476764e-041
-75.753334 271.66159 -7.3834996 2.3509886e-038
-76.244064 273.42142 -31.989691 2.3509886e-038
-76.381264 273.91345 -76.868324 2.3509886e-038
-69.551483 267.06747 33.172775 2.3509886e-038
-71.806366 275.72586 -80.140358 2.3509886e-038
-65.895485 272.29382 20.136641 9.1476764e-041
-67.025475 276.9632 -82.888077 2.3509886e-038
-61.639618 275.69858 12.547883 2.3509886e-038
-62.437683 279.26813 -85.649872 2.3509886e-038
-56.802364 276.88092 10.940209 2.3509886e-038
-57.914986 282.30435 -88.447311 2.3509886e-038
-49.044353 262.65463 81.499901 3.5733111e-043
-53.186714 284.83887 -90.948273 2.3509886e-038
-44.695618 265.57047 81.099174 3.5733111e-043
-48.878799 290.4259 -94.283943 2.3509886e-038
-40.103344 267.57837 64.904854 3.5733111e-043
-44.051815 293.92343 -96.779945 2.3509886e-038
-35.678257 271.4209 20.10177 2.3418409e-038
-39.07254 297.24277 -98.89415 2.3509886e-038
-30.704597 271.66269 18.736732 2.3418409e-038
-33.949791 300.37497 -100.02293 2.3509886e-038
-24.769878 261.83963 41.322041 2.3418409e-038
-28.822086 304.67508 -100.51553 2.3509886e-038
-19.794537 259.85876 70.285255 2.3418409e-038
-23.4368 307.67368 -99.951256 2.3509886e-038
-14.964772 259.13507 73.068436 2.3418409e-038
-17.846098 309.02908 -98.663689 2.3509886e-038
-10.571936 268.84375 6.8742537 2.3509528e-038
-12.161816 309.27432 -96.922646 2.3509886e-038
-5.5598931 266.04266 3.4081218 2.3509528e-038
-6.3522911 303.95914 -92.596344 2.3509886e-038
-0.65403807 264.44812 3.8015645 2.3509528e-038
-0.73660928 297.83423 -86.167633 2.3509886e-038
4.1824179 262.18777 6.9905748 2.3509528e-038
4.7012081 294.70975 -76.433357 2.3509886e-038
8.9340734 259.88309 11.8353 2.3509528e-038
9.4348507 274.4502 -19.894756 2.3509886e-038
13.580145 257.18756 16.62718 2.3509528e-038
14.317929 271.1601 -7.7919931 2.3509886e-038
18.226503 255.89064 21.543926 2.3509528e-038
18.757919 263.35144 0.26132518 2.3509528e-038
22.882212 255.23088 27.232544 2.3509528e-038
23.341436 260.35312 7.4902406 2.3509528e-038
27.384518 253.37688 32.027054 2.3509528e-038
27.989275 258.97244 14.455826 2.3509528e-038
32.240559 254.85905 34.846893 2.3509528e-038
33.000534 260.86658 21.527216 2.3509528e-038
